# .PCD v0.7 - Point Cloud Data file format
VERSION 0.7
FIELDS x y z normal_x normal_y normal_z intensity curvature
SIZE 4 4 4 4 4 4 4 4
TYPE F F F F F F F F
COUNT 1 1 1 1 1 1 1 1
WIDTH 979
HEIGHT 1
VIEWPOINT 0 0 0 1 0 0 0
POINTS 979
DATA ascii
8.068861 -1.5066155 6.5760236 0 0 0 0 37.017921
8.5146751 -1.8518481 6.5328507 0 0 0 0 37.022865
7.0124559 -0.6328764 6.4905591 0 0 0 0 37.027817
7.5592041 -0.99129307 6.5354352 0 0 0 0 37.032761
8.1159573 -1.3277336 6.5923476 0 0 0 0 37.037712
8.4738445 -1.6398011 6.469162 0 0 0 0 37.042656
7.0185399 -0.48495603 6.4998164 0 0 0 0 37.047607
7.5892906 -0.82840198 6.5537291 0 0 0 0 37.052551
8.1580553 -1.1488476 6.6076713 0 0 0 0 37.057495
8.4759836 -1.4388314 6.4424891 0 0 0 0 37.062447
7.0156293 -0.3370204 6.5020704 0 0 0 0 37.06739
7.6093831 -0.66449517 6.5650196 0 0 0 0 37.072342
8.1981535 -0.96796358 6.624999 0 0 0 0 37.077286
8.4951086 -1.242896 6.4328237 0 0 0 0 37.08223
7.0277081 -0.1901167 6.5203352 0 0 0 0 37.087181
7.6204791 -0.5005759 6.5713077 0 0 0 0 37.092125
8.234252 -0.78807616 6.6413264 0 0 0 0 37.097076
8.5482121 -1.0520228 6.4521766 0 0 0 0 37.10202
7.014801 -0.043169308 6.5185852 0 0 0 0 37.106964
7.6345749 -0.33466586 6.5826025 0 0 0 0 37.111916
8.269351 -0.60619271 6.6606584 0 0 0 0 37.116859
8.6093111 -0.8591696 6.4815416 0 0 0 0 37.121811
7.0218792 0.10273423 6.5388494 0 0 0 0 37.126755
7.6366739 -0.16973987 6.5878906 0 0 0 0 37.131706
8.2904587 -0.42128953 6.671988 0 0 0 0 37.13665
8.6314316 -0.66225511 6.4848886 0 0 0 0 37.141594
7.004972 0.24868268 6.5380993 0 0 0 0 37.146545
7.6407714 -0.0048209485 6.5971823 0 0 0 0 37.151489
8.3035679 -0.23637721 6.6803155 0 0 0 0 37.156441
8.6795378 -0.46439037 6.5112581 0 0 0 0 37.161385
6.9960594 0.39461324 6.5463567 0 0 0 0 37.166328
7.6388712 0.16010448 6.6044726 0 0 0 0 37.17128
8.3086815 -0.050455622 6.6856413 0 0 0 0 37.176224
8.7096519 -0.2655018 6.5286198 0 0 0 0 37.181175
6.9791784 0.5375331 6.5533867 0 0 0 0 37.815041
7.6399732 0.32193464 6.6175604 0 0 0 0 37.819992
8.3117762 0.13230526 6.694787 0 0 0 0 37.824936
8.7257557 -0.065748468 6.5397949 0 0 0 0 37.82988
6.971271 0.68144983 6.5686789 0 0 0 0 37.834831
7.628087 0.48686725 6.6238861 0 0 0 0 37.839775
8.291914 0.31626499 6.687139 0 0 0 0 37.844727
8.7438869 0.13214497 6.5552015 0 0 0 0 37.84967
6.9493737 0.82539678 6.5719628 0 0 0 0 37.854614
7.6172018 0.65179735 6.6312151 0 0 0 0 37.859566
8.2780485 0.50120699 6.687501 0 0 0 0 37.86451
8.7650185 0.33602741 6.5756235 0 0 0 0 37.869461
6.9144816 0.96536857 6.5662313 0 0 0 0 37.874405
7.6153069 0.8167004 6.6505532 0 0 0 0 37.879356
8.257185 0.68615758 6.6858597 0 0 0 0 37.8843
8.7651587 0.5389418 6.5860305 0 0 0 0 37.889244
6.8985767 1.1092925 6.580523 0 0 0 0 37.894196
7.5924263 0.97964936 6.6518736 0 0 0 0 37.899139
8.2403154 0.87009341 6.6912222 0 0 0 0 37.904091
8.7652979 0.74185264 6.5984406 0 0 0 0 37.909035
6.8646822 1.2492553 6.5797963 0 0 0 0 37.913979
7.5615468 1.142606 6.6521902 0 0 0 0 37.91893
8.23244 1.0550054 6.7065964 0 0 0 0 37.923874
8.7504425 0.94578457 6.6048431 0 0 0 0 37.928825
6.824789 1.3872279 6.5760622 0 0 0 0 37.933769
7.5346627 1.3045493 6.6585102 0 0 0 0 37.938713
8.2025757 1.2389576 6.7079539 0 0 0 0 37.943665
8.7295885 1.1477227 6.6102395 0 0 0 0 37.948608
6.5470433 1.4727706 6.3440466 0 0 0 0 37.95356
7.5147748 1.4674755 6.6718397 0 0 0 0 37.958504
8.1737099 1.421904 6.7123132 0 0 0 0 37.963455
8.7097321 1.3506514 6.6206427 0 0 0 0 37.968399
6.5121427 1.6057302 6.3473105 0 0 0 0 37.973343
7.1790624 1.5631157 6.4087963 0 0 0 0 37.978294
7.8889747 1.5543988 6.5103774 0 0 0 0 37.983238
8.6748819 1.5526034 6.6240335 0 0 0 0 37.98819
6.4762402 1.737687 6.3525739 0 0 0 0 37.993134
7.1521721 1.7190516 6.4211111 0 0 0 0 37.998077
7.8521051 1.7313517 6.5157232 0 0 0 0 38.003029
8.6490259 1.756533 6.6364388 0 0 0 0 38.007973
6.4473338 1.8726228 6.3668499 0 0 0 0 38.012924
7.1202826 1.8739927 6.4324222 0 0 0 0 38.017868
7.8212314 1.9082879 6.5280766 0 0 0 0 38.022812
8.5971794 1.9535083 6.6338129 0 0 0 0 38.027763
6.4064331 2.0035853 6.3711109 0 0 0 0 38.032707
7.074398 2.0249603 6.4347167 0 0 0 0 38.037659
7.7813597 2.0842361 6.5374227 0 0 0 0 38.042603
8.554327 2.1544578 6.6422043 0 0 0 0 38.047554
6.3535376 2.1295745 6.365355 0 0 0 0 38.052498
7.0335112 2.1779137 6.4430208 0 0 0 0 38.057442
7.732491 2.2572017 6.5407581 0 0 0 0 38.062393
8.4994764 2.3514252 6.6455808 0 0 0 0 38.067337
6.3066359 2.2575438 6.368609 0 0 0 0 38.072289
6.9756298 2.3249013 6.439302 0 0 0 0 38.077232
7.6706257 2.4271863 6.5390806 0 0 0 0 38.082176
8.4406281 2.5483978 6.6479573 0 0 0 0 38.087128
6.2597346 2.3865094 6.3738661 0 0 0 0 38.092072
6.9127502 2.4698982 6.4325776 0 0 0 0 38.097023
7.6157551 2.5981517 6.5454121 0 0 0 0 38.101967
8.3697805 2.7403865 6.6463165 0 0 0 0 38.106918
6.2048368 2.5114939 6.3721113 0 0 0 0 38.111862
6.8598642 2.6188648 6.43887 0 0 0 0 38.116806
7.5478902 2.7651432 6.5427284 0 0 0 0 38.121758
8.2939329 2.9313796 6.6446724 0 0 0 0 38.126701
6.1429415 2.6324949 6.3643446 0 0 0 0 38.131653
6.7989807 2.7638485 6.4391508 0 0 0 0 38.136597
7.4780231 2.9321311 6.5430446 0 0 0 0 38.141541
8.2190819 3.1213653 6.6470299 0 0 0 0 38.146492
6.0950356 2.7604496 6.3766041 0 0 0 0 38.151436
6.7280979 2.9038491 6.4344153 0 0 0 0 38.156387
7.4031563 3.0951269 6.5413508 0 0 0 0 38.161331
8.1402302 3.3113506 6.6513863 0 0 0 0 38.166275
6.0271406 2.8774593 6.366828 0 0 0 0 38.171227
6.6672111 3.0498207 6.4417014 0 0 0 0 38.17617
7.3362832 3.2620969 6.550674 0 0 0 0 38.181122
8.0573788 3.4983413 6.654736 0 0 0 0 38.186066
5.964242 2.998451 6.3650646 0 0 0 0 38.191017
6.5993266 3.1918087 6.4429755 0 0 0 0 38.195961
7.2494168 3.4191101 6.5449634 0 0 0 0 38.200905
7.9555306 3.6763687 6.6460552 0 0 0 0 38.205856
5.9083371 3.1224179 6.3743143 0 0 0 0 38.2108
6.5144453 3.323832 6.432219 0 0 0 0 38.215752
7.1605487 3.5761213 6.5412526 0 0 0 0 38.220695
7.8346848 3.8444316 6.6263423 0 0 0 0 38.225639
5.829443 3.2324464 6.35952 0 0 0 0 38.230591
6.448555 3.4658051 6.4414983 0 0 0 0 38.235535
7.0596833 3.7261572 6.529521 0 0 0 0 38.240486
8.0277338 4.1757536 6.8782015 0 0 0 0 38.24543
5.7705374 3.3544161 6.3687658 0 0 0 0 38.250381
6.3426805 3.586875 6.4147062 0 0 0 0 38.255325
7.1987247 4.0075884 6.7452407 0 0 0 0 38.260269
7.9028878 4.347806 6.8654981 0 0 0 0 38.265221
5.6936398 3.4664314 6.3609796 0 0 0 0 38.270164
6.2497988 3.7129102 6.4019356 0 0 0 0 38.275116
7.1388416 4.1875005 6.7826047 0 0 0 0 38.28006
7.7890353 4.524828 6.8648148 0 0 0 0 38.285004
5.6076269 3.5722303 6.3422179 0 0 0 0 38.03392
6.4046922 3.9950805 6.649641 0 0 0 0 38.038864
7.0158539 4.3304133 6.7607579 0 0 0 0 38.043808
7.6590514 4.6937523 6.8539538 0 0 0 0 38.048759
5.5317225 3.6832354 6.3384256 0 0 0 0 38.053703
6.3078046 4.124104 6.6418691 0 0 0 0 38.058655
6.8969822 4.4734616 6.7469974 0 0 0 0 38.063599
7.5221949 4.8548145 6.8392148 0 0 0 0 38.068542
5.6417336 3.9237123 6.554019 0 0 0 0 38.073494
6.1989202 4.2451553 6.6240735 0 0 0 0 38.078438
6.7681112 4.609529 6.7272167 0 0 0 0 38.083389
7.3753366 5.0078917 6.8204546 0 0 0 0 38.088333
5.5518346 4.0307431 6.5412111 0 0 0 0 38.093277
6.1040277 4.376163 6.625309 0 0 0 0 38.098228
6.6362381 4.740602 6.7064261 0 0 0 0 38.103172
7.2394729 5.1679363 6.8157177 0 0 0 0 38.108124
5.4799261 4.1497192 6.5514412 0 0 0 0 38.113068
6.0041366 4.5021834 6.6215324 0 0 0 0 38.118019
6.5313554 4.8916011 6.7156944 0 0 0 0 38.122963
7.0986066 5.3219895 6.8089666 0 0 0 0 38.127907
5.3860235 4.2537503 6.540627 0 0 0 0 38.132858
5.8922477 4.6182337 6.606729 0 0 0 0 38.137802
6.407475 5.0276427 6.7099223 0 0 0 0 38.142754
6.9577394 5.476038 6.8052173 0 0 0 0 38.147697
5.2981205 4.3607683 6.5348244 0 0 0 0 38.152641
5.7933512 4.7442408 6.6109562 0 0 0 0 38.157593
6.2735953 5.1537085 6.6951241 0 0 0 0 38.162537
6.7948723 5.6101365 6.7834148 0 0 0 0 38.167488
5.1992183 4.4588118 6.5199971 0 0 0 0 38.172432
5.6744609 4.855299 6.5951395 0 0 0 0 38.177383
6.1467109 5.2847495 6.6913424 0 0 0 0 38.182327
6.6420002 5.7512031 6.7756338 0 0 0 0 38.187271
5.1093111 4.5638256 6.5181909 0 0 0 0 38.192223
5.5615659 4.9673414 6.5863314 0 0 0 0 38.197166
6.0108271 5.4068131 6.6795373 0 0 0 0 38.202118
6.478127 5.8792973 6.7578216 0 0 0 0 38.207062
5.0154042 4.6658463 6.5143766 0 0 0 0 38.212006
5.4426718 5.0753965 6.5735116 0 0 0 0 38.216957
5.8749404 5.5298681 6.6727352 0 0 0 0 38.221901
6.3222494 6.0143647 6.7520294 0 0 0 0 38.226852
4.9264946 4.7718511 6.5175753 0 0 0 0 38.231796
5.3237734 5.1834407 6.5666924 0 0 0 0 38.23674
5.211174 5.1284566 6.0535145 0 0 0 0 38.241692
6.1553698 6.1374536 6.7392063 0 0 0 0 38.246635
4.8155923 4.8589191 6.4957204 0 0 0 0 38.251587
4.7889981 4.8657775 6.0337296 0 0 0 0 38.256531
5.065279 5.2155643 6.0266337 0 0 0 0 38.261482
5.4195757 5.6611643 6.0877843 0 0 0 0 38.266426
4.7156839 4.9549494 6.4898925 0 0 0 0 38.27137
4.5891161 4.8680987 5.9146414 0 0 0 0 38.276321
5.4362707 5.8561058 6.6292276 0 0 0 0 38.281265
5.3616672 5.8719654 6.1892142 0 0 0 0 38.286217
4.6157742 5.0509777 6.4860654 0 0 0 0 38.291161
4.5071988 4.9910522 5.9458795 0 0 0 0 38.296104
5.2883754 5.9601808 6.6183829 0 0 0 0 38.301056
5.6227164 6.4558001 6.6756201 0 0 0 0 38.306
4.4748774 5.1011405 6.4271178 0 0 0 0 38.310951
4.3612971 5.0432067 5.8959298 0 0 0 0 38.315895
5.13448 6.0532784 6.5985131 0 0 0 0 38.320839
5.4518242 6.5638895 6.6667681 0 0 0 0 38.32579
4.0760689 4.841217 5.9883633 0 0 0 0 38.330734
4.7222605 5.7036519 6.5475655 0 0 0 0 38.335686
4.9835801 6.1523552 6.5896578 0 0 0 0 38.34063
5.2739291 6.6609969 6.6518898 0 0 0 0 38.345581
3.9461615 4.8843646 5.9364085 0 0 0 0 38.350525
4.6743345 5.9004283 6.6559806 0 0 0 0 38.355469
4.4827385 5.7946029 6.1046333 0 0 0 0 38.36042
4.5050879 5.9720144 5.8700089 0 0 0 0 38.365364
3.8352478 4.9504447 5.9135141 0 0 0 0 38.370316
4.5304303 5.9775286 6.6320877 0 0 0 0 38.375259
4.3088336 5.8377848 6.0526485 0 0 0 0 38.380203
4.3251796 6.0241761 5.832037 0 0 0 0 38.385155
3.7153347 5.0025563 5.8775845 0 0 0 0 38.390099
4.5764785 6.3179293 6.8988624 0 0 0 0 38.39505
4.4238806 6.2839479 6.4176846 0 0 0 0 38.399994
4.7272243 6.921339 6.6051869 0 0 0 0 38.404945
3.6094151 5.0736108 5.8667045 0 0 0 0 38.409889
4.3335943 6.2623744 6.7346315 0 0 0 0 38.414833
4.3439589 6.4767613 6.5200706 0 0 0 0 38.419785
4.5403161 6.9934678 6.5852537 0 0 0 0 38.424728
3.523488 5.171587 5.8888931 0 0 0 0 38.42968
4.1566911 6.2915835 6.6686192 0 0 0 0 38.434624
4.1840467 6.5518584 6.5061631 0 0 0 0 38.439568
4.3464046 7.0516181 6.5572877 0 0 0 0 38.444519
3.4285629 5.2605901 5.9010582 0 0 0 0 38.449463
3.5118837 5.5696621 5.8227453 0 0 0 0 38.454414
4.0251322 6.6269488 6.4962564 0 0 0 0 38.459358
4.1544909 7.1087651 6.531321 0 0 0 0 38.464302
3.3476322 5.373528 5.9412823 0 0 0 0 38.469254
3.3959579 5.652688 5.8318825 0 0 0 0 38.474197
3.8522146 6.6760893 6.4662871 0 0 0 0 38.479149
3.9605699 7.1579123 6.5063367 0 0 0 0 38.484093
3.4736395 5.8375587 6.3653722 0 0 0 0 38.489044
3.2590361 5.7007995 5.8059344 0 0 0 0 38.493988
3.3473284 6.1146202 5.8558354 0 0 0 0 38.498932
3.4266498 6.5514698 5.894774 0 0 0 0 38.503883
3.3625298 5.92524 6.3734789 0 0 0 0 38.262253
3.2008924 5.8921766 5.9272985 0 0 0 0 38.267197
3.1921856 6.1573501 5.830802 0 0 0 0 38.272141
2.8284831 5.7289619 5.1057138 0 0 0 0 38.277092
3.2506025 6.0142493 6.3866305 0 0 0 0 38.282036
3.3169231 6.4311695 6.3954835 0 0 0 0 38.286987
2.7972682 5.7084975 5.3517094 0 0 0 0 38.291931
2.5845382 5.5594711 4.9112668 0 0 0 0 38.296875
3.1176794 6.0613542 6.3576875 0 0 0 0 38.301826
2.7880523 5.7029896 5.6107526 0 0 0 0 38.30677
2.7683234 5.9850936 5.557281 0 0 0 0 38.311722
2.4025903 5.5037374 4.8230829 0 0 0 0 38.316666
2.7718067 5.6714664 5.8787398 0 0 0 0 38.321617
3.013068 6.5193944 6.3455577 0 0 0 0 38.326561
2.5083885 5.7587333 5.2997117 0 0 0 0 38.331505
2.2426393 5.481925 4.76898 0 0 0 0 38.336456
2.8708234 6.1934633 6.3468871 0 0 0 0 38.3414
2.4891853 5.7023463 5.4966497 0 0 0 0 38.346352
2.8494308 6.9694324 6.3593693 0 0 0 0 38.351295
2.8257451 7.4033718 6.3951874 0 0 0 0 38.356239
2.4769547 5.6438985 5.7215896 0 0 0 0 38.361191
2.7132025 6.605598 6.307631 0 0 0 0 38.366135
2.2674978 5.9197221 5.3609638 0 0 0 0 38.371086
2.6267979 7.3985586 6.3520961 0 0 0 0 38.37603
2.3620183 5.6999488 5.7186728 0 0 0 0 38.380981
2.5662653 6.6546783 6.2996807 0 0 0 0 38.385925
2.5115469 7.0336609 6.3253722 0 0 0 0 38.390869
2.4378462 7.4136949 6.3320503 0 0 0 0 38.395821
2.2850721 5.8567777 5.8169813 0 0 0 0 38.400764
2.4273262 6.7247128 6.3127775 0 0 0 0 38.405716
2.3436022 7.0597796 6.3063622 0 0 0 0 38.41066
2.245892 7.4128556 6.3009701 0 0 0 0 38.415604
2.3400979 6.3838077 6.2791157 0 0 0 0 38.420555
2.2713859 6.7478385 6.2857699 0 0 0 0 38.425499
2.1806538 7.1008611 6.3053846 0 0 0 0 38.43045
2.0599344 7.4199924 6.2809091 0 0 0 0 38.435394
2.2131596 6.4508424 6.2882147 0 0 0 0 38.440338
2.1124434 6.7579842 6.2497339 0 0 0 0 38.44529
2.0037014 7.0920315 6.2642984 0 0 0 0 38.450233
2.0792241 6.493928 6.2732615 0 0 0 0 38.460129
1.9614985 6.7850904 6.2317367 0 0 0 0 38.46508
1.37672 5.3195343 4.6774106 0 0 0 0 38.470024
1.4135735 5.3151398 4.8524904 0 0 0 0 38.484863
1.2936165 5.3312249 4.8394866 0 0 0 0 38.504654
1.2346551 5.6207767 5.0760694 0 0 0 0 38.524437
0.96511108 7.3578286 6.1563349 0 0 0 0 38.554123
1.1997335 6.8796177 6.1546555 0 0 0 0 38.564018
1.0049299 7.1247487 6.1629791 0 0 0 0 38.568962
0.78712815 7.3269773 6.1311984 0 0 0 0 38.573914
1.0477729 6.8967113 6.1466341 0 0 0 0 38.583801
0.83995658 7.1008968 6.1328664 0 0 0 0 38.588753
0.61013991 7.2661676 6.0850019 0 0 0 0 38.593697
1.1006104 6.6706519 6.1372995 0 0 0 0 38.598648
0.89681065 6.9028206 6.1305909 0 0 0 0 38.603592
0.67498112 7.0810342 6.1087599 0 0 0 0 38.608543
0.43915096 7.2402911 6.0708785 0 0 0 0 38.613487
0.95865726 6.681766 6.115273 0 0 0 0 38.618431
0.74384516 6.906929 6.1165414 0 0 0 0 38.623383
0.46398327 6.3783684 5.5002542 0 0 0 0 38.628326
0.24212559 6.5235801 5.4803567 0 0 0 0 38.633278
0.81870186 6.6998615 6.1022611 0 0 0 0 38.638222
0.53287101 6.2232842 5.4990678 0 0 0 0 38.643166
0.31800112 6.3634729 5.4881673 0 0 0 0 38.648117
0.089129664 6.4847035 5.4622154 0 0 0 0 38.653061
0.61075324 6.0711765 5.5058947 0 0 0 0 38.658012
0.39489979 6.2153945 5.4810009 0 0 0 0 38.662956
0.17501755 6.3705344 5.4971256 0 0 0 0 38.6679
-0.061865192 6.505722 5.4961948 0 0 0 0 38.672852
0.4827913 6.0862589 5.4978819 0 0 0 0 38.677795
0.26092577 6.2613997 5.5140448 0 0 0 0 38.682747
0.031035112 6.4374924 5.5582027 0 0 0 0 38.687691
-0.21386185 6.5427098 5.5462046 0 0 0 0 38.692642
0.3568266 6.1552372 5.5409784 0 0 0 0 38.697586
0.1259515 6.3623085 5.5961976 0 0 0 0 38.70253
-0.12194351 6.9067469 5.9730821 0 0 0 0 38.707481
-0.39184764 6.9850168 5.9450064 0 0 0 0 38.712425
0.24485776 6.6923561 6.0050335 0 0 0 0 38.717377
-0.013022263 6.8345542 6.0080981 0 0 0 0 38.722321
-0.27693459 6.9118037 5.9880261 0 0 0 0 38.727264
-0.54885721 6.9021945 5.9017711 0 0 0 0 38.732216
0.10379822 6.7176404 6.0096211 0 0 0 0 38.634705
-0.16209859 6.8118939 5.9865823 0 0 0 0 38.639656
-0.43102834 6.8681469 5.9654646 0 0 0 0 38.6446
-0.70796549 6.8814669 5.9142547 0 0 0 0 38.649551
-0.039171722 6.7377057 6.0146079 0 0 0 0 38.654495
-0.31108281 6.7940011 5.9734874 0 0 0 0 38.659439
-0.58102709 6.7963204 5.9202609 0 0 0 0 38.664391
-0.85898113 6.7946315 5.8740182 0 0 0 0 38.669334
-0.18214427 6.7038622 5.9744859 0 0 0 0 38.674286
-0.45907152 6.7481489 5.9403362 0 0 0 0 38.67923
-0.73203021 6.7564297 5.9081178 0 0 0 0 38.684181
-1.0139983 6.7477274 5.8708558 0 0 0 0 38.689125
-0.32711881 6.7069511 5.9694347 0 0 0 0 38.694069
-0.60406017 6.7102818 5.9142022 0 0 0 0 38.69902
-0.87903398 6.7035584 5.8849502 0 0 0 0 38.703964
-1.1600183 6.663877 5.8376265 0 0 0 0 38.708916
-0.47009492 6.6990557 5.9563627 0 0 0 0 38.71386
-0.75205296 6.6933708 5.9111056 0 0 0 0 38.718803
-1.0260417 6.6526766 5.8677859 0 0 0 0 38.723755
-1.3080418 6.6009851 5.8264351 0 0 0 0 38.728699
-0.61107445 6.6622033 5.9212327 0 0 0 0 38.73365
-0.89504755 6.6405177 5.8779407 0 0 0 0 38.738594
-1.1700524 6.590807 5.8435993 0 0 0 0 38.743538
-1.3420675 6.0418878 5.3763413 0 0 0 0 38.748489
-0.75205666 6.6243491 5.8880992 0 0 0 0 38.753433
-1.0400443 6.6156125 5.8718281 0 0 0 0 38.758385
-1.3100647 6.5259371 5.8184094 0 0 0 0 38.763329
-1.4390908 5.8362164 5.2379003 0 0 0 0 38.76828
-0.89404142 6.6014633 5.8709941 0 0 0 0 38.773224
-1.181046 6.5657401 5.8486681 0 0 0 0 38.778168
-1.4420793 6.4291158 5.7671599 0 0 0 0 38.783119
-1.5581177 5.7403598 5.2006593 0 0 0 0 38.788063
-1.0400276 6.6005392 5.8749285 0 0 0 0 38.793015
-1.3190485 6.5048838 5.8164859 0 0 0 0 38.797958
-1.4390894 5.8051491 5.2429552 0 0 0 0 38.802902
-1.6761456 5.6584764 5.1764455 0 0 0 0 38.807854
-1.177019 6.5427008 5.8337541 0 0 0 0 38.812798
-1.4530534 6.4310441 5.7752795 0 0 0 0 38.817749
-1.5551059 5.716301 5.2007294 0 0 0 0 38.822693
-1.9871964 6.1786103 5.7102852 0 0 0 0 38.827644
-1.3210111 6.5327811 5.8356695 0 0 0 0 38.832588
-1.4460549 5.8011098 5.2370582 0 0 0 0 38.837532
-1.679125 5.6653862 5.194572 0 0 0 0 38.842484
-2.1062329 6.0647674 5.6660042 0 0 0 0 38.847427
-1.3550031 6.0266767 5.3976626 0 0 0 0 38.852379
-1.5640625 5.7332458 5.2038717 0 0 0 0 38.857323
-1.9881681 6.1865292 5.7204208 0 0 0 0 38.862267
-2.2422755 6.0028329 5.6738124 0 0 0 0 38.867218
-1.4449987 5.8280535 5.2362332 0 0 0 0 38.872162
-1.686072 5.6823511 5.1877151 0 0 0 0 38.877113
-2.1161959 6.1116428 5.70121 0 0 0 0 38.882057
-2.3653183 5.9129391 5.6565728 0 0 0 0 38.887001
-1.5699971 5.7891631 5.219099 0 0 0 0 38.891953
-1.9981042 6.2214828 5.7176037 0 0 0 0 38.896896
-2.2382257 6.0207782 5.6699696 0 0 0 0 38.901848
-2.4793632 5.8060665 5.6263041 0 0 0 0 38.906792
-1.8680085 6.3313198 5.730011 0 0 0 0 38.911743
-2.1301236 6.1575985 5.6994104 0 0 0 0 38.916687
-2.3662601 5.9488754 5.659761 0 0 0 0 38.921631
-2.5934105 5.7061777 5.6040483 0 0 0 0 38.926582
-2.0000162 6.2684588 5.7008209 0 0 0 0 38.931526
-2.259145 6.0907154 5.680212 0 0 0 0 38.936478
-2.4872954 5.8649879 5.6395326 0 0 0 0 38.941422
-2.7044597 5.6032891 5.5807872 0 0 0 0 38.946365
-2.1370239 6.2235694 5.6876616 0 0 0 0 38.951317
-2.3871689 6.0218301 5.6620092 0 0 0 0 38.956261
-2.6023316 5.7711134 5.6112866 0 0 0 0 38.961212
-2.8105106 5.4973993 5.5565214 0 0 0 0 38.966156
-2.2810378 6.1936474 5.6935253 0 0 0 0 38.971107
-2.5091956 5.9389615 5.63378 0 0 0 0 38.976051
-2.7183728 5.6832194 5.5930505 0 0 0 0 38.980995
-2.917563 5.3984966 5.5392675 0 0 0 0 38.985947
-2.3980517 6.0958295 5.6392703 0 0 0 0 38.990891
-2.6362252 5.8730597 5.6235805 0 0 0 0 38.995842
-2.8344157 5.5973201 5.5778165 0 0 0 0 39.000786
-3.0206189 5.2945933 5.5210052 0 0 0 0 39.00573
-2.5410705 6.064899 5.6491303 0 0 0 0 39.010681
-2.754257 5.7871857 5.5973454 0 0 0 0 39.015625
-2.9414592 5.4974394 5.550559 0 0 0 0 39.020576
-3.1196742 5.1896915 5.5007424 0 0 0 0 39.02552
-2.6700914 5.9980216 5.6289258 0 0 0 0 39.030464
-2.8722904 5.7053018 5.576117 0 0 0 0 39.035416
-3.0505056 5.4055395 5.5333147 0 0 0 0 39.040359
-3.2227345 5.0917706 5.491488 0 0 0 0 39.045311
-2.7861116 5.9021888 5.5826702 0 0 0 0 39.050255
-2.9943287 5.6303983 5.565897 0 0 0 0 39.055206
-3.1545532 5.3086448 5.512063 0 0 0 0 39.06015
-3.3137939 4.9808679 5.4692159 0 0 0 0 39.065094
-2.9261403 5.858263 5.5905004 0 0 0 0 39.070045
-3.1073675 5.5395179 5.5416503 0 0 0 0 39.074989
-3.2566044 5.2077498 5.4908023 0 0 0 0 39.079941
-3.4088569 4.8789458 5.4579563 0 0 0 0 39.084885
-3.0511699 5.7833824 5.5712771 0 0 0 0 39.089828
-3.2174084 5.4466357 5.5173998 0 0 0 0 39.09478
-3.3646586 5.1208282 5.4845634 0 0 0 0 39.099724
-3.4999225 4.7720251 5.4446883 0 0 0 0 39.104675
-3.1596241 5.6795101 5.530056 0 0 0 0 39.775581
-3.3289025 5.3577275 5.5041065 0 0 0 0 39.780533
-3.4561839 5.0109501 5.4591413 0 0 0 0 39.785477
-3.5794837 4.6551504 5.4221578 0 0 0 0 39.790421
-3.2926657 5.6186085 5.5298214 0 0 0 0 39.795372
-3.4329526 5.2598591 5.4788113 0 0 0 0 39.800316
-3.5552499 4.9130464 5.4468484 0 0 0 0 39.805267
-3.6645591 4.5482335 5.4098554 0 0 0 0 39.810211
-3.4147096 5.539731 5.515553 0 0 0 0 39.815155
-3.5400085 5.1659751 5.4615202 0 0 0 0 39.820107
-3.6443131 4.804163 5.4225383 0 0 0 0 39.82505
-3.7386329 4.4303336 5.3865361 0 0 0 0 39.830002
-3.5277548 5.4458747 5.4892569 0 0 0 0 39.834946
-3.646066 5.0730858 5.4462309 0 0 0 0 39.839897
-3.7423844 4.7102394 5.418252 0 0 0 0 39.844841
-3.8177109 4.3204145 5.373229 0 0 0 0 39.849785
-3.6428041 5.3550067 5.4689636 0 0 0 0 39.854736
-3.7451267 4.9712033 5.4259253 0 0 0 0 39.85968
-3.8234513 4.5963545 5.3919339 0 0 0 0 39.864632
-3.8967929 4.2124839 5.3649244 0 0 0 0 39.869576
-3.7608569 5.2691255 5.455677 0 0 0 0 39.874519
-3.8421881 4.869319 5.4056196 0 0 0 0 39.879471
-3.9075227 4.4874535 5.3736224 0 0 0 0 39.884415
-3.9618704 4.0935745 5.342607 0 0 0 0 39.889366
-3.8689115 5.1712575 5.4333706 0 0 0 0 39.89431
-3.9422548 4.7704215 5.3923159 0 0 0 0 39.899261
-3.9945986 4.3835363 5.363318 0 0 0 0 39.904205
-4.0359545 3.9856377 5.3353038 0 0 0 0 39.909149
-3.9759684 5.0713892 5.4110579 0 0 0 0 39.914101
-4.0383239 4.6675262 5.3770051 0 0 0 0 39.919044
-4.076674 4.2766223 5.3500094 0 0 0 0 39.923996
-4.0950336 3.8647261 5.3119836 0 0 0 0 39.92894
-4.0770283 4.9665208 5.3867373 0 0 0 0 39.933884
-4.1283932 4.5606322 5.3586884 0 0 0 0 39.938835
-4.0477018 4.0599408 5.1985536 0 0 0 0 39.943779
-4.005033 3.6131239 5.104507 0 0 0 0 39.94873
-4.1680884 4.8476729 5.3503919 0 0 0 0 39.953674
-4.0674057 4.2950568 5.1521482 0 0 0 0 39.958618
-4.0597496 3.8921535 5.1071692 0 0 0 0 39.96357
-4.0561109 3.4962015 5.0832009 0 0 0 0 39.968513
-4.1251073 4.5840969 5.1518364 0 0 0 0 39.973465
-4.1374717 4.1751833 5.1188178 0 0 0 0 39.978409
-4.129827 3.7852304 5.0938673 0 0 0 0 39.98336
-4.1171975 3.39025 5.077909 0 0 0 0 39.988304
-4.2141719 4.4742227 5.1265101 0 0 0 0 39.993248
-4.2195458 4.0702729 5.1055083 0 0 0 0 39.998199
-4.2019086 3.6792974 5.0855637 0 0 0 0 40.003143
-4.1692791 3.2783122 5.0636106 0 0 0 0 40.008095
-4.3152447 4.3763185 5.1181974 0 0 0 0 40.013039
-4.3066249 3.9713452 5.1012058 0 0 0 0 40.017982
-4.2709904 3.574362 5.0772643 0 0 0 0 40.022934
-4.2283702 3.1733494 5.0623188 0 0 0 0 40.027878
-4.4083171 4.2724228 5.1038766 0 0 0 0 40.032829
-4.380702 3.8594401 5.0828838 0 0 0 0 40.037773
-4.3290701 3.4614387 5.0599551 0 0 0 0 40.042717
-4.2794585 3.064394 5.0550246 0 0 0 0 40.047668
-4.4883895 4.1545444 5.0775337 0 0 0 0 40.052612
-4.4547825 3.7485256 5.0685625 0 0 0 0 40.057564
-4.3901548 3.3495064 5.0476427 0 0 0 0 40.062508
-4.3195415 2.9494531 5.0377264 0 0 0 0 40.067459
-4.5764675 4.0466413 5.0642047 0 0 0 0 40.072403
-4.5298672 3.6396 5.0592427 0 0 0 0 40.077347
-4.4492407 3.2395673 5.0373363 0 0 0 0 40.082298
-4.3596253 2.83551 5.0214286 0 0 0 0 40.087242
-4.6615467 3.9357419 5.0488696 0 0 0 0 40.092194
-4.587945 3.5187011 5.0329103 0 0 0 0 40.097137
-4.4973245 3.1216404 5.0180202 0 0 0 0 40.102081
-4.4017162 2.7245495 5.0131345 0 0 0 0 40.107033
-4.7416306 3.8188429 5.0315228 0 0 0 0 40.111977
-4.6490278 3.4007878 5.0135798 0 0 0 0 40.116928
-4.5554147 3.0136886 5.0127153 0 0 0 0 40.121872
-4.4358034 2.6105959 4.9988399 0 0 0 0 40.126823
-4.8197155 3.7029374 5.0161781 0 0 0 0 40.131767
-4.715117 3.28686 5.0022511 0 0 0 0 40.136711
-4.6045041 2.8997459 5.0004044 0 0 0 0 40.141663
-4.474895 2.5016279 4.9925499 0 0 0 0 40.146606
-4.8837986 3.5770466 4.9898224 0 0 0 0 40.151558
-4.7722049 3.1689365 4.9859214 0 0 0 0 40.156502
-4.6495929 2.7838047 4.9860907 0 0 0 0 40.161446
-4.5099859 2.3906634 4.9832582 0 0 0 0 40.166397
-4.9558892 3.4571362 4.9744706 0 0 0 0 40.171341
-4.8262959 3.0480103 4.9695849 0 0 0 0 40.176292
-4.6926827 2.6688595 4.9727798 0 0 0 0 40.181236
-4.5390759 2.2777011 4.9709663 0 0 0 0 40.18618
-5.0219793 3.3332307 4.9551129 0 0 0 0 40.191132
-4.8883915 2.9350669 4.9632578 0 0 0 0 40.196075
-4.7337751 2.5539074 4.9614692 0 0 0 0 40.201027
-4.5661664 2.1657343 4.9596772 0 0 0 0 40.205971
-5.0860734 3.2093163 4.9387555 0 0 0 0 40.210922
-4.9414873 2.8151305 4.9509206 0 0 0 0 40.215866
-4.7698679 2.4359584 4.947155 0 0 0 0 40.22081
-4.5962615 2.0577528 4.9553938 0 0 0 0 40.225761
-5.1541719 3.0883906 4.9283991 0 0 0 0 40.230705
-4.9865813 2.692199 4.9335833 0 0 0 0 40.235657
-4.8109651 2.3219965 4.9398432 0 0 0 0 40.240601
-4.6203542 1.9457809 4.9451046 0 0 0 0 40.245544
-5.2174516 2.9637682 4.9155426 0 0 0 0 39.964417
-5.0448494 2.5775509 4.9317899 0 0 0 0 39.96936
-4.8462129 2.2063518 4.9301023 0 0 0 0 39.974312
-4.6415834 1.8351318 4.9344211 0 0 0 0 39.979256
-5.2835541 2.8408282 4.9091949 0 0 0 0 39.984207
-5.0829434 2.4516098 4.914464 0 0 0 0 39.989151
-4.8763037 2.0893924 4.9168062 0 0 0 0 39.994102
-4.6646776 1.7261425 4.93015 0 0 0 0 39.999046
-5.339654 2.7128963 4.8958445 0 0 0 0 40.00399
-5.1220384 2.3286629 4.9001427 0 0 0 0 40.008942
-4.9063983 1.9744209 4.9085126 0 0 0 0 40.013885
-4.68577 1.6181539 4.9248824 0 0 0 0 40.018837
-5.3817515 2.5789707 4.8744922 0 0 0 0 40.023781
-5.1621385 2.2057071 4.8898182 0 0 0 0 40.028725
-4.9354949 1.8574513 4.8992133 0 0 0 0 40.033676
-4.6958561 1.5071746 4.9116178 0 0 0 0 40.03862
-5.4358582 2.451025 4.8661389 0 0 0 0 40.043571
-5.1962376 2.0807533 4.876493 0 0 0 0 40.048515
-4.95859 1.7404784 4.8889194 0 0 0 0 40.053459
-4.7129521 1.3981799 4.9073491 0 0 0 0 40.058411
-5.4809642 2.3190835 4.8527837 0 0 0 0 40.063354
-5.2233353 1.9548006 4.8601718 0 0 0 0 40.068306
-4.9836898 1.6244978 4.8826237 0 0 0 0 40.07325
-4.7290473 1.2911818 4.9040842 0 0 0 0 40.078201
-5.52107 2.1851423 4.8374276 0 0 0 0 40.083145
-5.2624426 1.8338275 4.8568473 0 0 0 0 40.088089
-5.0057878 1.5095167 4.8753319 0 0 0 0 40.09304
-4.7371392 1.1821885 4.8958225 0 0 0 0 40.097984
-5.5651836 2.0531852 4.8300691 0 0 0 0 40.102936
-5.2855444 1.7068663 4.8425241 0 0 0 0 40.10788
-5.0218854 1.3925376 4.8650403 0 0 0 0 40.112823
-4.7482357 1.0751857 4.8925605 0 0 0 0 40.117775
-5.6032963 1.9192301 4.8197103 0 0 0 0 40.122719
-5.3126516 1.5818942 4.834199 0 0 0 0 40.12767
-5.0379853 1.2755535 4.8567472 0 0 0 0 40.132614
-4.7513266 0.96719003 4.8833032 0 0 0 0 40.137558
-5.6344066 1.7842784 4.8053551 0 0 0 0 40.142509
-5.345767 1.458908 4.8338704 0 0 0 0 40.147453
-5.0470815 1.1585727 4.84446 0 0 0 0 40.152405
-4.7454095 0.85820591 4.8660526 0 0 0 0 40.157349
-5.6735277 1.6503097 4.8009911 0 0 0 0 40.1623
-5.363874 1.3329322 4.8235493 0 0 0 0 40.167244
-5.059185 1.0425774 4.83917 0 0 0 0 40.172188
-4.7545109 0.75318861 4.8677931 0 0 0 0 40.177139
-5.6876354 1.5103594 4.7796383 0 0 0 0 40.182083
-5.3709731 1.2049687 4.804234 0 0 0 0 40.187035
-5.0682869 0.92658418 4.831882 0 0 0 0 40.191978
-4.7516026 0.64718473 4.8595438 0 0 0 0 40.196922
-5.7107534 1.3743904 4.7692833 0 0 0 0 40.201874
-5.3910885 1.0799776 4.8009095 0 0 0 0 40.206818
-5.0773916 0.8115834 4.8275948 0 0 0 0 40.211769
-4.7897396 0.54611212 4.8942566 0 0 0 0 40.216713
-5.7368765 1.2374144 4.7629199 0 0 0 0 40.221664
-5.4042006 0.95398986 4.7935886 0 0 0 0 40.226608
-5.083497 0.69657969 4.8233094 0 0 0 0 40.231552
-5.7580004 1.1014334 4.7565627 0 0 0 0 40.241447
-5.4083095 0.82700336 4.7822738 0 0 0 0 40.246399
-0.46601748 0.033047557 0.49209446 0 0 0 0 40.256287
-5.7661166 0.9624626 4.7412114 0 0 0 0 40.261238
-5.4234295 0.70200241 4.7809491 0 0 0 0 40.266182
-0.43697479 0.022092972 0.46312845 0 0 0 0 40.276077
-5.7772398 0.82447964 4.7318568 0 0 0 0 40.281021
-5.4275422 0.5770058 4.7736359 0 0 0 0 40.285973
-0.45392832 0.032157373 0.44515517 0 0 0 0 40.290916
-0.43896919 0.012087298 0.46612784 0 0 0 0 40.295868
-5.7853646 0.68649113 4.7235036 0 0 0 0 40.300812
-0.44196266 0.0030826216 0.46912852 0 0 0 0 40.315651
-5.795495 0.5484944 4.7191463 0 0 0 0 40.320602
-0.44790372 0.011167373 0.43916318 0 0 0 0 40.330498
-0.43995133 -0.0059167901 0.46813506 0 0 0 0 40.335442
-0.45985875 0.01723248 0.41918543 0 0 0 0 40.345337
-0.43994352 -0.015919369 0.46913642 0 0 0 0 40.355232
-0.44287956 -0.0078267399 0.43517473 0 0 0 0 40.370071
-0.46579915 0.011308063 0.39321104 0 0 0 0 40.379967
-0.44982943 -0.0027532852 0.4102003 0 0 0 0 40.384911
-0.42090297 -0.033894222 0.45216712 0 0 0 0 40.394806
-0.43885905 -0.027825026 0.43318191 0 0 0 0 40.409645
-0.45977691 -0.0096862745 0.38921809 0 0 0 0 40.41954
-0.43780127 -0.023740975 0.40121448 0 0 0 0 40.424484
-0.43090117 -0.05292068 0.4661594 0 0 0 0 40.43438
-0.4320811 -0.046827212 0.42984951 0 0 0 0 40.199768
-0.45200044 -0.031685755 0.38287839 0 0 0 0 40.209663
-0.43602911 -0.043748252 0.40087318 0 0 0 0 40.214607
-0.43513551 -0.072937176 0.47381294 0 0 0 0 40.224503
-0.44107682 -0.067845792 0.44083929 0 0 0 0 40.239342
-0.45298734 -0.053691071 0.38587511 0 0 0 0 40.249237
-0.43601516 -0.064754948 0.40387356 0 0 0 0 40.254189
-0.43912941 -0.093956411 0.48280802 0 0 0 0 40.264076
-0.44306809 -0.088861421 0.4478367 0 0 0 0 40.278923
-0.45898253 -0.07770431 0.39385998 0 0 0 0 40.288818
-0.4500201 -0.088781133 0.41984874 0 0 0 0 40.293762
-0.46616089 -0.12101991 0.5177592 0 0 0 0 40.303658
-0.45206997 -0.11288565 0.46081719 0 0 0 0 40.318497
-0.47617221 -0.13404641 0.53173989 0 0 0 0 40.323441
-0.47098628 -0.10272721 0.4078342 0 0 0 0 40.328392
-0.4670324 -0.114815 0.43981415 0 0 0 0 40.333336
-0.50020915 -0.15310048 0.56168759 0 0 0 0 40.343231
-5.1364708 -1.3821834 4.7028937 0 0 0 0 40.353127
-4.7545433 -1.4036959 4.7452989 0 0 0 0 40.35807
-4.3706284 -1.4282324 4.7956996 0 0 0 0 40.363022
-5.4954958 -1.4766682 4.6432123 0 0 0 0 40.367966
-5.1005926 -1.4992453 4.7046309 0 0 0 0 40.372917
-4.7316713 -1.5127773 4.7590423 0 0 0 0 40.377861
-4.332716 -1.5182834 4.791512 0 0 0 0 40.382805
-5.4536281 -1.6057299 4.6429224 0 0 0 0 40.387756
-5.0577092 -1.6143067 4.7033806 0 0 0 0 40.3927
-4.6777539 -1.6108147 4.7438512 0 0 0 0 40.397652
-4.2968111 -1.6093481 4.7933187 0 0 0 0 40.402596
-5.4097619 -1.7347964 4.6436338 0 0 0 0 40.407539
-5.0078173 -1.7263625 4.697145 0 0 0 0 40.412491
-4.6428695 -1.7148904 4.7506199 0 0 0 0 40.417435
-4.2578998 -1.6974057 4.7911358 0 0 0 0 40.422386
-5.3548865 -1.8598614 4.6393671 0 0 0 0 40.42733
-4.9639382 -1.8404334 4.6988955 0 0 0 0 40.432281
-4.5989718 -1.8159522 4.7484064 0 0 0 0 40.437225
-4.2199965 -1.7874756 4.7939458 0 0 0 0 40.442169
-5.3070235 -1.9869405 4.6430855 0 0 0 0 40.447121
-4.9120507 -1.9524995 4.6956601 0 0 0 0 40.452065
-4.5500689 -1.9140139 4.7442055 0 0 0 0 40.457016
-4.1830955 -1.8775474 4.7977529 0 0 0 0 40.46196
-5.2451425 -2.1080081 4.6368356 0 0 0 0 40.466904
-4.8581619 -2.0615709 4.6934333 0 0 0 0 40.471855
-4.5081816 -2.015095 4.7499871 0 0 0 0 40.476799
-4.1401863 -1.9646151 4.797574 0 0 0 0 40.48175
-5.1822662 -2.229085 4.6335855 0 0 0 0 40.486694
-4.8122907 -2.1746604 4.7011852 0 0 0 0 40.491638
-4.4522734 -2.1101565 4.7428007 0 0 0 0 40.49659
-4.0942731 -2.0496809 4.795404 0 0 0 0 40.501534
-5.1243997 -2.3511755 4.6373248 0 0 0 0 40.506485
-4.7544036 -2.2827392 4.699964 0 0 0 0 40.511429
-4.4013767 -2.2072346 4.7436018 0 0 0 0 40.51638
-4.0503664 -2.1357553 4.7972274 0 0 0 0 40.521324
-5.0595245 -2.4692631 4.6370821 0 0 0 0 40.526268
-4.6955185 -2.3898246 4.7007451 0 0 0 0 40.531219
-4.3454714 -2.3013046 4.7394156 0 0 0 0 40.536163
-4.004458 -2.2208297 4.7980547 0 0 0 0 40.541115
-4.9926505 -2.5863559 4.6378431 0 0 0 0 40.546059
-4.6376348 -2.4959147 4.7035265 0 0 0 0 40.551003
-4.291575 -2.396389 4.7412238 0 0 0 0 40.555954
-3.9575498 -2.3049078 4.7998857 0 0 0 0 40.560898
-4.9267836 -2.7054586 4.6425967 0 0 0 0 40.565849
-4.5747485 -2.6000078 4.7053185 0 0 0 0 40.570793
-4.2366772 -2.4894748 4.7430372 0 0 0 0 40.575737
-3.9086413 -2.3879886 4.8017206 0 0 0 0 40.580688
-4.8488984 -2.8155532 4.6393886 0 0 0 0 40.585632
-4.5058551 -2.7010968 4.703125 0 0 0 0 40.590584
-4.1787786 -2.5815637 4.7448564 0 0 0 0 40.595528
-3.8557272 -2.4690654 4.8005648 0 0 0 0 40.600479
-4.7710156 -2.9256532 4.6381783 0 0 0 0 40.605423
-4.4429736 -2.8042011 4.7089171 0 0 0 0 40.610367
-4.1228867 -2.6756594 4.7496662 0 0 0 0 40.615318
-3.8038173 -2.5501499 4.8024068 0 0 0 0 40.620262
-4.7111721 -3.0467918 4.6579146 0 0 0 0 40.625214
-4.3740859 -2.9043045 4.7117248 0 0 0 0 40.630157
-4.0579786 -2.7627461 4.7475057 0 0 0 0 40.635101
-3.754915 -2.6332424 4.808239 0 0 0 0 40.640053
-4.6232772 -3.1498899 4.6517348 0 0 0 0 40.644997
-4.3001895 -3.0004027 4.7105474 0 0 0 0 40.649948
-4.0000901 -2.8548553 4.7563219 0 0 0 0 40.654892
-3.7030096 -2.7143357 4.8130798 0 0 0 0 40.659843
-4.5423946 -3.2579436 4.6575632 0 0 0 0 40.597664
-4.2333031 -3.1004465 4.7193756 0 0 0 0 40.602615
-3.9391899 -2.9448822 4.7621646 0 0 0 0 40.607559
-3.6410804 -2.7893307 4.8079596 0 0 0 0 40.612511
-4.465528 -3.3670764 4.6683526 0 0 0 0 40.617455
-4.1544051 -3.193553 4.719213 0 0 0 0 40.622398
-3.8732877 -3.0309839 4.765007 0 0 0 0 40.62735
-3.5821636 -2.8654182 4.8078227 0 0 0 0 40.632294
-4.380651 -3.4712076 4.6751642 0 0 0 0 40.637245
-4.0815206 -3.2896752 4.7270336 0 0 0 0 40.642189
-3.8043838 -3.1160865 4.7668548 0 0 0 0 40.647133
-3.5222483 -2.9415095 4.8086858 0 0 0 0 40.652084
-4.2827477 -3.5643203 4.6700211 0 0 0 0 40.657028
-4.0086427 -3.3868086 4.7388506 0 0 0 0 40.66198
-3.7374854 -3.2011983 4.7726994 0 0 0 0 40.666924
-3.4613302 -3.0155993 4.8085551 0 0 0 0 40.671875
-4.202889 -3.6724746 4.6868138 0 0 0 0 40.676819
-3.9297526 -3.4779356 4.7456908 0 0 0 0 40.681763
-3.669591 -3.28632 4.7815437 0 0 0 0 40.686714
-3.4074349 -3.096715 4.8203955 0 0 0 0 40.691658
-4.1100044 -3.768616 4.6936545 0 0 0 0 40.696609
-3.8438501 -3.564054 4.7465525 0 0 0 0 40.701553
-3.6026995 -3.3724437 4.7913842 0 0 0 0 40.706497
-3.367588 -3.1928847 4.8571758 0 0 0 0 40.711449
-4.0121088 -3.8587496 4.6955175 0 0 0 0 40.716393
-3.7629638 -3.6541924 4.7563963 0 0 0 0 40.721344
-3.5247838 -3.4485493 4.7902651 0 0 0 0 40.726288
-3.3688664 -3.3311822 4.9557867 0 0 0 0 40.731239
-3.9162261 -3.9529009 4.7043667 0 0 0 0 40.736183
-3.6730559 -3.7343163 4.7572784 0 0 0 0 40.741127
-3.4368458 -3.5156386 4.7791829 0 0 0 0 40.746078
-3.3480904 -3.4514275 5.026473 0 0 0 0 40.751022
-3.8173385 -4.0430532 4.7122293 0 0 0 0 40.755974
-3.5891671 -3.8214588 4.7671328 0 0 0 0 40.760918
-3.3719718 -3.603792 4.8000126 0 0 0 0 40.765862
-3.2621264 -3.5064864 5.0044222 0 0 0 0 40.770813
-3.7194529 -4.1322107 4.7220931 0 0 0 0 40.775757
-3.5022757 -3.9056056 4.776999 0 0 0 0 40.780708
-3.2920613 -3.6789122 4.802897 0 0 0 0 40.785652
-3.0938985 -3.4692786 4.854733 0 0 0 0 40.790596
-3.6235824 -4.225389 4.7399421 0 0 0 0 40.795547
-3.4113755 -3.9847486 4.7838831 0 0 0 0 40.800491
-3.2151611 -3.7560463 4.8117709 0 0 0 0 40.805443
-3.0149503 -3.5273571 4.8426652 0 0 0 0 40.810387
-3.5166814 -4.3055439 4.7448411 0 0 0 0 40.815338
-3.3174713 -4.0608931 4.7897792 0 0 0 0 40.820282
-3.140276 -3.8372014 4.8286304 0 0 0 0 40.825226
-2.9450338 -3.5954709 4.8465576 0 0 0 0 40.830177
-3.4027636 -4.3766899 4.7437739 0 0 0 0 40.835121
-3.2265782 -4.1400514 4.801662 0 0 0 0 40.840073
-3.0583684 -3.9093366 4.8355246 0 0 0 0 40.845016
-2.8771286 -3.6665998 4.8564386 0 0 0 0 40.84996
-3.2928581 -4.4508519 4.7496929 0 0 0 0 40.854912
-3.13168 -4.2162085 4.8115582 0 0 0 0 40.859856
-2.9704461 -3.9744618 4.8364449 0 0 0 0 40.864807
-2.809231 -3.7397404 4.8703127 0 0 0 0 40.869751
-3.1167271 -4.43082 4.6609621 0 0 0 0 40.874702
-3.0317645 -4.2833562 4.815486 0 0 0 0 40.879646
-2.8905554 -4.050621 4.8523231 0 0 0 0 40.88459
-2.7373185 -3.8068662 4.8772082 0 0 0 0 40.889542
-2.9215076 -4.3727102 4.537365 0 0 0 0 40.894485
-2.9378724 -4.3585277 4.8303823 0 0 0 0 40.899437
-2.799628 -4.1117482 4.8522577 0 0 0 0 40.904381
-2.6583896 -3.8669806 4.8771329 0 0 0 0 40.909325
-2.7603891 -4.3526917 4.4596186 0 0 0 0 40.914276
-2.8209014 -4.4006324 4.8124022 0 0 0 0 40.91922
-2.7137241 -4.1809011 4.863163 0 0 0 0 40.924171
-2.5854828 -3.9341197 4.8880286 0 0 0 0 40.929115
-2.6343973 -4.3827901 4.4366846 0 0 0 0 40.934059
-2.6647646 -4.3755822 4.7246642 0 0 0 0 40.939011
-2.6248121 -4.2460499 4.8710828 0 0 0 0 40.943954
-2.5095694 -3.9982541 4.895937 0 0 0 0 40.948906
-2.5997875 -4.5682454 4.5741901 0 0 0 0 40.95385
-2.5357237 -4.3866234 4.6797895 0 0 0 0 40.958801
-2.5318913 -4.3051977 4.8770251 0 0 0 0 40.963745
-2.430655 -4.0613928 4.9038515 0 0 0 0 40.968689
-2.6234703 -4.8749776 4.8302708 0 0 0 0 40.97364
-2.3996453 -4.3806329 4.6209731 0 0 0 0 40.978584
-2.4349513 -4.3563275 4.8749948 0 0 0 0 40.983536
-2.3517389 -4.1225314 4.9117708 0 0 0 0 40.98848
-2.5035543 -4.9321675 4.8402491 0 0 0 0 40.993423
-2.2303915 -4.3014755 4.4914107 0 0 0 0 40.998375
-2.3189228 -4.3723702 4.8350902 0 0 0 0 41.003319
-2.2718284 -4.1846805 4.922689 0 0 0 0 41.00827
-2.384644 -4.9893684 4.8542256 0 0 0 0 41.013214
-2.0962894 -4.282465 4.4266315 0 0 0 0 41.018158
-2.169723 -4.3192463 4.7244287 0 0 0 0 41.023109
-2.1868961 -4.2378106 4.9246387 0 0 0 0 41.028053
-2.2607086 -5.0345502 4.8592434 0 0 0 0 41.033005
-1.9661895 -4.2614608 4.3658543 0 0 0 0 41.037949
-2.0416074 -4.2972074 4.6516509 0 0 0 0 41.0429
-2.1090059 -4.3059869 4.9455357 0 0 0 0 41.047844
-1.8481408 -4.2605062 4.3270044 0 0 0 0 41.057739
-1.9215184 -4.2841964 4.5918379 0 0 0 0 41.062683
-2.0069919 -4.3270354 4.9126 0 0 0 0 41.067635
-1.7412423 -4.2782779 4.3098693 0 0 0 0 41.6092
-1.7944983 -4.2508521 4.5138779 0 0 0 0 41.614143
-1.8819816 -4.2917061 4.8206267 0 0 0 0 41.619087
-1.6422991 -4.3154397 4.3158855 0 0 0 0 41.628983
-1.6783991 -4.2328386 4.45609 0 0 0 0 41.633934
-1.7668612 -4.2716494 4.7488437 0 0 0 0 41.638878
-1.7589381 -4.958221 4.9237161 0 0 0 0 41.648773
-1.5794072 -4.2539372 4.4411569 0 0 0 0 41.653717
-1.6557562 -4.2556119 4.6850433 0 0 0 0 41.658669
-1.6490331 -5.0074453 4.943706 0 0 0 0 41.668564
-1.5791733 -4.5568366 4.7202067 0 0 0 0 41.673508
-1.5476511 -4.238574 4.6222425 0 0 0 0 41.678452
-1.5578663 -4.8316717 4.9693694 0 0 0 0 41.693298
-1.4556727 -4.2656789 4.6112814 0 0 0 0 41.698242
-1.455964 -4.8828883 4.9893436 0 0 0 0 41.713081
-1.4373169 -4.5194592 4.8435063 0 0 0 0 41.718033
-1.3469948 -4.9080358 4.9844089 0 0 0 0 41.732872
-1.3897858 -4.7090588 5.005971 0 0 0 0 41.737816
-1.2420709 -4.9492354 4.9974184 0 0 0 0 41.752663
-1.2958767 -4.759254 5.0219374 0 0 0 0 41.757607
-1.19996 -4.8064442 5.0349164 0 0 0 0 41.777397
-1.1010187 -4.8426123 5.0399351 0 0 0 0 41.79718
-1.0010858 -4.8807955 5.0489483 0 0 0 0 41.816971
-0.89709967 -4.8989205 5.0380311 0 0 0 0 41.836761
-0.68611598 -5.0069356 4.9539862 0 0 0 0 41.851601
0.31214228 -4.242404 4.0338597 0 0 0 0 41.980225
0.4023689 -4.143312 3.9623129 0 0 0 0 42.000008
0.28798193 -4.2547207 4.1297836 0 0 0 0 42.004959
0.49638918 -4.12047 3.9665265 0 0 0 0 42.019798
0.37620306 -4.1626196 4.0562119 0 0 0 0 42.024742
0.26184466 -4.2739649 4.203681 0 0 0 0 42.029694
0.59336984 -4.1116819 3.9856994 0 0 0 0 42.039589
0.46628439 -4.1226864 4.0334754 0 0 0 0 42.044533
0.34808916 -4.1788187 4.1171174 0 0 0 0 42.049477
0.68935281 -4.100893 4.0048785 0 0 0 0 42.059372
0.55830681 -4.1028309 4.0336776 0 0 0 0 42.064323
0.43423575 -4.1187925 4.0674405 0 0 0 0 42.069267
0.31493199 -4.2160487 4.1889458 0 0 0 0 42.074211
0.78240168 -4.0737019 4.0120873 0 0 0 0 41.834915
0.64934897 -4.0856285 4.0378566 0 0 0 0 41.839867
0.52527809 -4.1075788 4.0676069 0 0 0 0 41.84481
0.39817554 -4.1375732 4.1123271 0 0 0 0 41.849754
0.85861909 -3.9726148 3.9465213 0 0 0 0 41.854706
0.74528199 -4.0968876 4.0729618 0 0 0 0 41.85965
0.61528474 -4.0977249 4.0697699 0 0 0 0 41.864601
0.48622486 -4.11765 4.0935187 0 0 0 0 41.869545
0.94566673 -3.9347446 3.944772 0 0 0 0 41.874496
0.82939869 -4.0389152 4.0402708 0 0 0 0 41.87944
0.70627362 -4.0928984 4.0799193 0 0 0 0 41.884384
0.57424992 -4.1057587 4.0846858 0 0 0 0 41.889336
1.0426066 -3.9360187 3.9839129 0 0 0 0 41.894279
0.90063691 -3.9347863 3.9637101 0 0 0 0 41.899231
0.79530263 -4.0720253 4.0761175 0 0 0 0 41.904175
0.66226143 -4.0978875 4.08184 0 0 0 0 41.909119
1.1435081 -3.9493496 4.039022 0 0 0 0 41.91407
0.99359244 -3.9350238 3.9928486 0 0 0 0 41.919014
0.86160326 -3.9508002 3.9716053 0 0 0 0 41.923965
0.75226986 -4.0890284 4.0820017 0 0 0 0 41.928909
1.2493776 -3.9727302 4.1071057 0 0 0 0 41.933853
1.0796179 -3.9081731 3.9970646 0 0 0 0 41.938805
0.94762999 -3.9289327 3.9708049 0 0 0 0 41.943748
0.83339614 -4.0370173 4.03829 0 0 0 0 41.9487
1.3453451 -3.9579868 4.1402988 0 0 0 0 41.953644
1.1924031 -3.9676497 4.0920434 0 0 0 0 41.958595
1.0385983 -3.928143 3.9919448 0 0 0 0 41.963539
0.8996706 -3.9288161 3.9417386 0 0 0 0 41.968483
1.4462839 -3.9532862 4.1844673 0 0 0 0 41.973434
1.2873666 -3.9608927 4.1212091 0 0 0 0 41.978378
1.1335404 -3.9353948 4.024065 0 0 0 0 41.98333
0.98865497 -3.9269917 3.9528787 0 0 0 0 41.988274
1.5492015 -3.9536219 4.2386231 0 0 0 0 41.993217
1.3823296 -3.9531395 4.1513791 0 0 0 0 41.998169
1.2344412 -3.9567068 4.0721493 0 0 0 0 42.003113
1.0717126 -3.8970761 3.9381022 0 0 0 0 42.008064
1.6501455 -3.9429271 4.283813 0 0 0 0 42.013008
1.4792867 -3.9454033 4.1855526 0 0 0 0 42.017952
1.3274122 -3.9509284 4.0953097 0 0 0 0 42.022903
1.17853 -3.9544797 4.0120783 0 0 0 0 42.027847
1.753073 -3.9372587 4.33599 0 0 0 0 42.032799
1.5782338 -3.9406834 4.2237196 0 0 0 0 42.037743
1.4223844 -3.9441538 4.1184778 0 0 0 0 42.042694
1.272501 -3.9536898 4.0312243 0 0 0 0 42.047638
1.8560092 -3.9265852 4.3861833 0 0 0 0 42.052582
1.677183 -3.9329677 4.2628975 0 0 0 0 42.057533
1.5193436 -3.9394052 4.1486421 0 0 0 0 42.062477
1.3664784 -3.9498942 4.0483809 0 0 0 0 42.067429
1.9231626 -3.8395998 4.3545737 0 0 0 0 42.072372
1.7751427 -3.9202421 4.2990909 0 0 0 0 42.077316
1.6143163 -3.9296386 4.173821 0 0 0 0 42.082268
1.4594733 -3.9380815 4.0605631 0 0 0 0 42.087212
2.0410123 -3.8550649 4.4407067 0 0 0 0 42.092163
1.873113 -3.9025078 4.3323016 0 0 0 0 42.097107
1.7122855 -3.9188867 4.2020082 0 0 0 0 42.102058
1.5534596 -3.9282839 4.0767403 0 0 0 0 42.107002
2.1429594 -3.8353937 4.490932 0 0 0 0 42.111946
1.94722 -3.8365769 4.3146353 0 0 0 0 42.116898
1.8122407 -3.912158 4.236186 0 0 0 0 42.121841
1.6504359 -3.9205072 4.0979166 0 0 0 0 42.126793
2.3344467 -3.9654319 4.7218003 0 0 0 0 42.131737
2.0610995 -3.8469858 4.3847799 0 0 0 0 42.136681
1.9002676 -3.8793294 4.2444329 0 0 0 0 42.141632
1.7474134 -3.9117317 4.1190972 0 0 0 0 42.146576
2.4344237 -3.9317327 4.7630696 0 0 0 0 42.151527
2.164042 -3.834307 4.4319844 0 0 0 0 42.156471
1.9783583 -3.8234129 4.2297416 0 0 0 0 42.161415
1.8483697 -3.9089913 4.1492643 0 0 0 0 42.166367
2.5224597 -3.8759496 4.7833948 0 0 0 0 42.17131
2.3525581 -3.9612865 4.6448574 0 0 0 0 42.176262
2.0922456 -3.8357999 4.2928801 0 0 0 0 42.181206
1.92647 -3.8540509 4.1275706 0 0 0 0 42.186157
2.6692212 -3.907603 4.9125214 0 0 0 0 42.191101
2.4694605 -3.956692 4.7110577 0 0 0 0 42.196045
2.2021654 -3.8351471 4.3450565 0 0 0 0 42.200996
2.0095427 -3.8081534 4.1168551 0 0 0 0 42.20594
2.8199792 -3.9362779 5.0456638 0 0 0 0 42.210892
2.5953257 -3.9621637 4.7932386 0 0 0 0 42.215836
2.3837354 -3.9490354 4.5319619 0 0 0 0 42.220779
2.1204588 -3.814491 4.1660104 0 0 0 0 42.225731
3.2186699 -4.2897091 5.6101055 0 0 0 0 42.230675
2.7679908 -4.0289636 4.9552879 0 0 0 0 42.235626
2.4966741 -3.9373772 4.5801806 0 0 0 0 42.24057
2.289099 -3.9132504 4.3189459 0 0 0 0 42.245514
3.0538185 -3.8841386 5.1892128 0 0 0 0 42.250465
3.2214351 -4.4767404 5.6004953 0 0 0 0 42.255409
2.6265328 -3.9498482 4.6603451 0 0 0 0 42.260361
2.4179609 -3.9336915 4.3910823 0 0 0 0 42.265305
3.1488335 -3.8264213 5.2245607 0 0 0 0 42.270256
3.323482 -4.4119787 5.6188741 0 0 0 0 42.2752
2.8002143 -4.017612 4.8103929 0 0 0 0 42.280144
2.535888 -3.9300432 4.4402823 0 0 0 0 42.285095
3.2737231 -3.8049173 5.3118358 0 0 0 0 42.290039
3.1058543 -3.9380448 5.1121345 0 0 0 0 42.294991
2.6707449 -3.9475119 4.5174389 0 0 0 0 42.304878
3.417625 -3.7969756 5.4279451 0 0 0 0 42.069374
3.1780441 -3.8516092 5.0984106 0 0 0 0 42.074318
3.6043015 -3.8328567 5.6111202 0 0 0 0 42.089165
3.2690852 -3.7898364 5.11976 0 0 0 0 42.094109
3.590409 -4.4929914 5.6489415 0 0 0 0 42.09906
3.7302175 -3.7943397 5.6954479 0 0 0 0 42.108948
3.4218981 -3.7954576 5.2369833 0 0 0 0 42.113899
3.2641137 -3.9044895 4.9993901 0 0 0 0 42.118843
3.5874503 -4.6155934 5.5105424 0 0 0 0 42.123795
3.815275 -3.7135789 5.7208548 0 0 0 0 42.128738
3.5846875 -3.8051331 5.366209 0 0 0 0 42.133682
3.3402381 -3.8195796 4.9847951 0 0 0 0 42.138634
3.6437261 -4.4804621 5.4350791 0 0 0 0 42.143578
3.8983364 -3.6308131 5.7452669 0 0 0 0 42.148529
3.7464907 -3.8077972 5.491457 0 0 0 0 42.153473
3.4382734 -3.7618198 5.0071449 0 0 0 0 42.158424
3.967438 -3.5369742 5.752696 0 0 0 0 42.168312
3.9232543 -3.817549 5.6367054 0 0 0 0 42.173264
3.5801539 -3.7503278 5.09341 0 0 0 0 42.178207
4.0365367 -3.4431427 5.7621274 0 0 0 0 42.188103
4.0631514 -3.785078 5.7280388 0 0 0 0 42.193047
3.7379923 -3.7479248 5.1996703 0 0 0 0 42.197998
3.6131623 -3.8850162 4.9700289 0 0 0 0 42.202942
4.1096158 -3.3533494 5.7815528 0 0 0 0 42.207893
4.1641841 -3.7123735 5.7634473 0 0 0 0 42.212837
3.9735873 -3.8129685 5.4098258 0 0 0 0 42.217781
3.7341537 -3.8403473 5.0103731 0 0 0 0 42.222733
4.173718 -3.2575123 5.790987 0 0 0 0 42.227676
4.2462716 -3.6225727 5.7768865 0 0 0 0 42.232628
4.1324477 -3.7955627 5.5131397 0 0 0 0 42.237572
4.4073625 -4.335794 5.7727623 0 0 0 0 42.242523
4.2358232 -3.159673 5.800426 0 0 0 0 42.247467
4.3333421 -3.5368056 5.7983212 0 0 0 0 42.252411
4.2564292 -3.7409506 5.5675254 0 0 0 0 42.257362
4.5254216 -4.2590642 5.79321 0 0 0 0 42.262306
4.2989159 -3.0648556 5.8158588 0 0 0 0 42.267258
4.4144244 -3.4470184 5.8157625 0 0 0 0 42.272202
4.4392347 -3.7316732 5.6988516 0 0 0 0 42.277145
4.6534472 -4.1894011 5.8296509 0 0 0 0 42.282097
4.3570232 -2.9660122 5.8252993 0 0 0 0 42.287041
4.4845395 -3.3471737 5.8202219 0 0 0 0 42.291992
4.5991201 -3.6972654 5.7992277 0 0 0 0 42.296936
4.3358064 -3.7313285 5.3187122 0 0 0 0 42.30188
4.4021626 -2.8591056 5.8207483 0 0 0 0 42.306831
4.567615 -3.2574069 5.84267 0 0 0 0 42.311775
4.7221212 -3.6286511 5.8516636 0 0 0 0 42.316727
4.4747753 -3.6797574 5.3791142 0 0 0 0 42.321671
4.5180917 -2.7996202 5.9141493 0 0 0 0 42.326622
4.6407132 -3.1596012 5.857131 0 0 0 0 42.331566
4.8082275 -3.5298457 5.8611469 0 0 0 0 42.33651
4.7114701 -3.7017081 5.5564213 0 0 0 0 42.341461
4.5781817 -2.7018182 5.9345946 0 0 0 0 42.346405
4.7088218 -3.0597725 5.8665934 0 0 0 0 42.351357
4.9033065 -3.4360995 5.8846278 0 0 0 0 42.3563
4.9033113 -3.6784091 5.6758132 0 0 0 0 42.361244
4.5784316 -2.5706828 5.8790617 0 0 0 0 42.366196
4.7759295 -2.9589498 5.8780599 0 0 0 0 42.37114
4.9874129 -3.3343031 5.8971219 0 0 0 0 42.376091
5.1510119 -3.6874015 5.8591838 0 0 0 0 42.381035
4.6195569 -2.4667993 5.8825021 0 0 0 0 42.385986
4.8420367 -2.8561332 5.8915329 0 0 0 0 42.39093
5.070519 -3.2315092 5.9106193 0 0 0 0 42.395874
5.2920103 -3.612839 5.9186735 0 0 0 0 42.400826
4.6716537 -2.3669813 5.9009476 0 0 0 0 42.405769
4.9101391 -2.7543299 5.9080076 0 0 0 0 42.410721
5.1586127 -3.1297498 5.9321232 0 0 0 0 42.415665
5.3981009 -3.511107 5.9412036 0 0 0 0 42.420609
4.7127695 -2.2641189 5.910388 0 0 0 0 42.42556
4.9782352 -2.6535373 5.9274812 0 0 0 0 42.430504
5.2377262 -3.0219519 5.9456358 0 0 0 0 42.435455
5.4982104 -3.4023476 5.9577503 0 0 0 0 42.440399
4.759872 -2.1632884 5.9268327 0 0 0 0 42.445343
5.0383463 -2.547718 5.9419613 0 0 0 0 42.450294
5.3108506 -2.9111333 5.9551516 0 0 0 0 42.455238
5.5983157 -3.2926028 5.9783025 0 0 0 0 42.46019
4.7989855 -2.0604308 5.9382734 0 0 0 0 42.465134
5.0924706 -2.4388707 5.9504442 0 0 0 0 42.470085
5.3939509 -2.8033726 5.9776745 0 0 0 0 42.475029
5.694428 -3.1798468 5.9968615 0 0 0 0 42.479973
4.8440866 -1.9586054 5.9567223 0 0 0 0 42.484924
5.1505809 -2.3320565 5.966929 0 0 0 0 42.489868
5.4700627 -2.69259 5.9961987 0 0 0 0 42.49482
5.7895417 -3.0640967 6.0174313 0 0 0 0 42.499763
4.8821959 -1.8557578 5.9711647 0 0 0 0 42.504707
5.2007093 -2.2212048 5.9754162 0 0 0 0 42.509659
5.5312061 -2.5727437 6.0017333 0 0 0 0 42.514603
5.8726802 -2.9412975 6.0280085 0 0 0 0 42.519554
4.9123225 -1.7498724 5.9776077 0 0 0 0 42.524498
5.2548261 -2.111383 5.9909086 0 0 0 0 42.529449
5.5963416 -2.4549167 6.0112696 0 0 0 0 42.534393
5.9598103 -2.8185246 6.0445943 0 0 0 0 42.539337
4.9334588 -1.6420325 5.9770942 0 0 0 0 42.573914
5.3069344 -2.0016484 6.0084472 0 0 0 0 42.578865
