# .PCD v0.7 - Point Cloud Data file format
VERSION 0.7
FIELDS x y z normal_x normal_y normal_z intensity curvature
SIZE 4 4 4 4 4 4 4 4
TYPE F F F F F F F F
COUNT 1 1 1 1 1 1 1 1
WIDTH 812
HEIGHT 1
VIEWPOINT 0 0 0 1 0 0 0
POINTS 812
DATA ascii
5.7767825 -2.3198349 2.9145057 0 0 0 0 28.987169
6.1895432 -1.8183984 2.8920791 0 0 0 0 29.00201
6.0673785 -2.0506265 3.5412636 0 0 0 0 29.006958
6.2623553 -1.6793236 2.9026101 0 0 0 0 29.021799
6.1462197 -1.9335473 3.5557323 0 0 0 0 29.026745
6.3411651 -1.5402569 2.9181416 0 0 0 0 29.041586
6.2230597 -1.8154746 3.5711992 0 0 0 0 29.046534
6.4179716 -1.3971902 2.9326801 0 0 0 0 29.061375
6.3178949 -1.6984082 3.5966733 0 0 0 0 29.06632
6.5027757 -1.2541317 2.9532208 0 0 0 0 29.081161
6.5815778 -1.1080788 2.9727623 0 0 0 0 29.10095
6.6613765 -0.96003443 2.9953065 0 0 0 0 29.120739
6.7501726 -0.81099331 3.0228565 0 0 0 0 29.140526
6.8289657 -0.65695721 3.0474102 0 0 0 0 29.160315
6.8128548 -0.67662048 3.2573543 0 0 0 0 29.175156
6.9067554 -0.4989228 3.0719712 0 0 0 0 29.180101
7.0075331 -0.33789688 3.1095538 0 0 0 0 29.19989
7.1103082 -0.17487757 3.1501396 0 0 0 0 29.219679
6.7165651 -0.62791574 3.6454844 0 0 0 0 29.224625
7.2160764 -0.0068635256 3.193738 0 0 0 0 29.239466
6.9483385 -0.50092471 3.7560573 0 0 0 0 29.244413
7.0091572 -0.35588774 3.7745554 0 0 0 0 29.264202
7.0699725 -0.20785704 3.7950585 0 0 0 0 29.283989
6.9565864 0.486137 3.0790536 0 0 0 0 29.29883
7.1637721 -0.056836139 3.8335903 0 0 0 0 29.303778
6.9205546 0.42553121 3.2668529 0 0 0 0 29.313671
6.8844247 0.64612478 3.0514829 0 0 0 0 29.318619
7.2085886 0.096190676 3.8480883 0 0 0 0 29.323565
6.8713961 0.58053434 3.2452831 0 0 0 0 29.33346
6.8792381 0.80910975 3.0549655 0 0 0 0 29.338406
7.2663956 0.25421381 3.8696067 0 0 0 0 29.343353
6.9093719 0.50095612 3.45908 0 0 0 0 29.348301
6.8252392 0.73453557 3.2257092 0 0 0 0 29.353247
6.9460149 0.98308969 3.0925276 0 0 0 0 29.358194
7.3321972 0.4132238 3.8991296 0 0 0 0 29.363142
6.8212438 0.64697796 3.4144521 0 0 0 0 29.368088
6.8840313 0.89951926 3.2592387 0 0 0 0 29.373035
7.0787501 1.1730624 3.1621795 0 0 0 0 29.377983
6.8602548 0.53336328 3.643151 0 0 0 0 29.382929
6.7990861 0.79798383 3.4048827 0 0 0 0 29.387877
6.9758 1.0754994 3.3088195 0 0 0 0 29.392824
7.1175303 1.3520294 3.1917269 0 0 0 0 29.39777
6.7831349 0.67540491 3.5975163 0 0 0 0 29.402718
6.8858714 0.96397156 3.4504304 0 0 0 0 29.407663
7.0395794 1.2504723 3.3483727 0 0 0 0 29.412611
7.2172685 1.5489886 3.2513649 0 0 0 0 29.417559
6.7899737 0.82341319 3.6009552 0 0 0 0 29.422504
6.9896407 1.1379493 3.5070088 0 0 0 0 29.427452
7.1183448 1.4334416 3.3959551 0 0 0 0 29.4324
7.3259969 1.7529453 3.3160243 0 0 0 0 29.437346
6.8667727 0.9844079 3.6404772 0 0 0 0 29.442293
7.0154476 1.3049337 3.5265074 0 0 0 0 29.447241
7.2250848 1.6293983 3.4605894 0 0 0 0 29.452187
7.4487038 1.9698886 3.3917253 0 0 0 0 29.457134
6.970458 1.1533691 3.6960428 0 0 0 0 29.411877
7.1211071 1.4888834 3.588124 0 0 0 0 29.416824
7.3247209 1.8293433 3.5222549 0 0 0 0 29.421772
7.5822892 2.195823 3.4734972 0 0 0 0 29.426718
6.9942741 1.3143618 3.7125239 0 0 0 0 29.431665
7.21486 1.6778456 3.6457305 0 0 0 0 29.436613
7.4834065 2.0522833 3.6160002 0 0 0 0 29.441559
7.6530108 2.4127514 3.531157 0 0 0 0 29.446507
7.090045 1.4913348 3.7680979 0 0 0 0 29.451454
7.3046117 1.870806 3.7023406 0 0 0 0 29.4564
7.5921183 2.2692201 3.6886866 0 0 0 0 29.461348
8.8958311 3.0346196 4.1357965 0 0 0 0 29.466293
7.1908031 1.6773031 3.8276963 0 0 0 0 29.471241
7.4842892 2.0957384 3.8091002 0 0 0 0 29.476189
7.6598496 2.4821534 3.7443268 0 0 0 0 29.481134
7.2925544 1.8692644 3.8903072 0 0 0 0 29.49103
7.5770183 2.3066833 3.8727524 0 0 0 0 29.495975
8.794733 3.0739439 4.3287854 0 0 0 0 29.500923
7.457253 2.0852034 3.9890249 0 0 0 0 29.510817
7.6517544 2.5176227 3.9303865 0 0 0 0 29.515764
9.2566795 3.9032822 4.4204216 0 0 0 0 29.525658
7.5280094 2.2841628 4.0386233 0 0 0 0 29.530605
8.3869514 2.969429 4.3311534 0 0 0 0 29.535553
7.630734 2.4991038 4.1092834 0 0 0 0 29.550394
8.3957043 3.1873603 4.3627462 0 0 0 0 29.55534
8.8209143 3.7806735 4.4437027 0 0 0 0 29.560287
8.1511106 2.8699336 4.4066625 0 0 0 0 29.570181
8.4783907 3.4382722 4.4344769 0 0 0 0 29.575129
8.8825836 4.0495605 4.5144601 0 0 0 0 29.580074
9.3137016 4.7208786 4.5956259 0 0 0 0 29.585022
8.2757902 3.1168528 4.4954123 0 0 0 0 29.58997
8.6210146 3.7231593 4.542336 0 0 0 0 29.594915
8.9762115 4.3424263 4.6072993 0 0 0 0 29.599863
9.3903017 5.0387135 4.6915126 0 0 0 0 29.604811
8.4673977 3.4047501 4.6223149 0 0 0 0 29.609756
8.8095818 4.041029 4.6773109 0 0 0 0 29.614704
9.1966982 4.7142596 4.7694359 0 0 0 0 29.619652
9.6297197 5.4585133 4.8737845 0 0 0 0 29.624598
9.5935593 4.6637397 5.1365247 0 0 0 0 29.634493
10.488434 6.2751751 5.3835607 0 0 0 0 29.644386
9.8060427 5.0445695 5.2976661 0 0 0 0 29.65428
10.705797 6.7469239 5.5759311 0 0 0 0 29.664175
9.4996777 4.5732369 5.2841201 0 0 0 0 29.669121
10.399435 6.2665272 5.5853457 0 0 0 0 29.679016
11.485475 7.6185269 6.073761 0 0 0 0 29.683962
10.403319 7.2545357 5.5909529 0 0 0 0 29.703751
10.381434 6.2629843 5.784193 0 0 0 0 29.713644
10.376927 7.5982943 5.6727824 0 0 0 0 29.723537
10.370304 7.2629313 5.8068013 0 0 0 0 29.738379
10.598202 8.1439657 5.898314 0 0 0 0 29.743326
10.352915 7.6087108 5.8866353 0 0 0 0 29.758167
10.906322 8.7925863 6.1831651 0 0 0 0 29.763115
10.342359 7.2384586 5.9795647 0 0 0 0 29.773008
10.503292 8.097414 6.0709543 0 0 0 0 29.777956
10.281039 7.5472789 6.0262642 0 0 0 0 29.792797
10.846384 8.7640247 6.3768616 0 0 0 0 29.797743
13.119133 11.614097 7.7439222 0 0 0 0 29.802691
10.361481 7.1590581 6.1492133 0 0 0 0 29.807638
10.425442 8.0250053 6.2005396 0 0 0 0 29.812584
11.187431 9.4695997 6.6968527 0 0 0 0 29.817532
13.990184 12.977315 8.4369602 0 0 0 0 29.822479
10.254233 7.4299207 6.1607766 0 0 0 0 29.827425
10.797513 8.7076111 6.5234933 0 0 0 0 29.832373
13.088181 11.605464 7.9836197 0 0 0 0 29.837318
12.67848 12.315428 7.8181963 0 0 0 0 29.842266
10.386674 7.8876772 6.3199821 0 0 0 0 29.847214
10.982796 9.2742701 6.7440014 0 0 0 0 29.85216
12.255795 11.372458 7.6243219 0 0 0 0 29.857107
13.258871 13.485685 8.3704939 0 0 0 0 29.862055
10.641928 8.4643593 6.5635676 0 0 0 0 29.867001
13.065326 11.550013 8.162199 0 0 0 0 29.871948
12.549724 12.19392 7.9715223 0 0 0 0 29.876896
13.10138 13.95325 8.478446 0 0 0 0 29.881842
10.830064 9.0217819 6.7716503 0 0 0 0 30.494087
12.129415 11.220972 7.7102537 0 0 0 0 30.499033
13.019064 13.237219 8.4442091 0 0 0 0 30.503981
12.610327 14.066006 8.3647928 0 0 0 0 30.508926
11.745588 10.242174 7.4587579 0 0 0 0 30.513874
12.524415 12.129487 8.1153488 0 0 0 0 30.518822
12.63401 13.451011 8.3833065 0 0 0 0 30.523767
12.177334 14.226768 8.2967367 0 0 0 0 30.528715
11.598342 10.587003 7.484314 0 0 0 0 30.533663
12.664702 12.840088 8.3718433 0 0 0 0 30.538609
12.208028 13.606816 8.2992496 0 0 0 0 30.543556
11.717391 14.346543 8.212574 0 0 0 0 30.548504
12.037339 11.498536 7.9024272 0 0 0 0 30.55345
12.286672 13.036923 8.2959099 0 0 0 0 30.558397
11.806025 13.777617 8.2292376 0 0 0 0 30.563345
11.271447 14.463319 8.1354113 0 0 0 0 30.568291
12.445316 12.445043 8.3215761 0 0 0 0 30.573238
11.932621 13.247745 8.238018 0 0 0 0 30.578186
11.412018 13.949413 8.1662312 0 0 0 0 30.583132
10.826521 14.563101 8.0582132 0 0 0 0 30.588079
12.161186 12.721877 8.2888699 0 0 0 0 30.593027
11.560593 13.442571 8.1710777 0 0 0 0 30.597973
10.990067 14.076227 8.0841093 0 0 0 0 30.602921
10.373615 14.646892 7.9739757 0 0 0 0 30.607868
11.830117 12.953728 8.2290363 0 0 0 0 30.612814
11.197561 13.63739 8.1131401 0 0 0 0 30.617762
10.572114 14.202036 8.0079861 0 0 0 0 30.622707
9.9257221 14.714687 7.8917069 0 0 0 0 30.627655
11.49006 13.17658 8.1651745 0 0 0 0 30.632603
10.814568 13.801222 8.0411215 0 0 0 0 30.637548
10.159173 14.31585 7.9328399 0 0 0 0 30.642496
9.4838285 14.782481 7.8144422 0 0 0 0 30.647444
11.148012 13.390425 8.1052904 0 0 0 0 30.65239
10.423592 13.951058 7.9650679 0 0 0 0 30.657337
9.7282734 14.392679 7.843605 0 0 0 0 30.662285
9.0190067 14.78731 7.7120323 0 0 0 0 30.667231
10.797974 13.597271 8.0423822 0 0 0 0 30.672178
10.032628 14.086891 7.891983 0 0 0 0 30.677126
9.2884016 14.446521 7.7463169 0 0 0 0 30.682072
8.5821476 14.819123 7.6306963 0 0 0 0 30.687019
10.452937 13.801113 7.9854679 0 0 0 0 30.691967
9.6466637 14.221723 7.8228974 0 0 0 0 30.696913
8.9473591 14.638281 7.7323723 0 0 0 0 30.70186
8.1452999 14.83994 7.5493393 0 0 0 0 30.706808
10.088936 13.975963 7.91748 0 0 0 0 30.711754
9.3006277 14.41752 7.7889595 0 0 0 0 30.716702
8.6143017 14.843033 7.7274566 0 0 0 0 30.721649
7.724443 14.863755 7.4769988 0 0 0 0 30.726595
9.7339144 14.165795 7.8625259 0 0 0 0 30.731543
8.9735651 14.634298 7.7740726 0 0 0 0 30.736488
8.0826607 14.692979 7.5436954 0 0 0 0 30.741436
7.3066001 14.87458 7.4026346 0 0 0 0 30.746384
9.3858919 14.357625 7.8135767 0 0 0 0 30.751329
8.646492 14.860066 7.7662005 0 0 0 0 30.756277
7.687758 14.762803 7.4804673 0 0 0 0 30.761225
6.8797898 14.854424 7.3172035 0 0 0 0 30.766171
9.0398674 14.549449 7.7696257 0 0 0 0 30.771118
8.1098633 14.704043 7.5664306 0 0 0 0 30.776066
7.2798982 14.791644 7.4041481 0 0 0 0 30.781012
6.4829316 14.871241 7.2588668 0 0 0 0 30.785959
8.70082 14.762256 7.738719 0 0 0 0 30.790907
7.7139626 14.776889 7.4932084 0 0 0 0 30.795853
6.8820233 14.832479 7.3368607 0 0 0 0 30.8008
6.0491934 14.781128 7.1522951 0 0 0 0 30.805748
8.2579908 14.783159 7.6163645 0 0 0 0 30.810694
7.3090911 14.822747 7.4109263 0 0 0 0 30.815641
6.4841776 14.844329 7.2635155 0 0 0 0 30.820589
5.7879834 15.106752 7.2506595 0 0 0 0 30.825535
7.8570952 14.859027 7.5311446 0 0 0 0 30.830482
6.9351592 14.918571 7.3607631 0 0 0 0 30.83543
6.0614018 14.792219 7.1610298 0 0 0 0 30.840376
5.468924 15.299456 7.2887201 0 0 0 0 30.845324
7.4701657 14.964879 7.4609928 0 0 0 0 30.850269
6.530314 14.937442 7.2754292 0 0 0 0 30.855217
5.8101611 15.153846 7.2654662 0 0 0 0 30.860165
5.0471892 15.200344 7.1911407 0 0 0 0 30.86511
7.0982113 15.090714 7.4078884 0 0 0 0 30.870058
6.1374454 14.974299 7.2031388 0 0 0 0 30.875006
5.5259919 15.454506 7.3417568 0 0 0 0 30.879951
4.6504107 15.137212 7.1156502 0 0 0 0 30.884899
6.6963277 15.151579 7.3276381 0 0 0 0 30.889847
5.8612628 15.29498 7.2724719 0 0 0 0 30.894793
5.0833073 15.315445 7.2110901 0 0 0 0 30.89974
3.3322089 11.788321 5.5081916 0 0 0 0 30.904688
6.3104224 15.229432 7.2614303 0 0 0 0 30.909634
5.5760698 15.627641 7.3498187 0 0 0 0 30.914581
4.6835203 15.264323 7.1306238 0 0 0 0 30.919529
3.8549454 14.917018 6.9334946 0 0 0 0 30.924475
6.1149907 15.792994 7.4282722 0 0 0 0 30.929422
5.1483235 15.54956 7.2372818 0 0 0 0 30.93437
3.3104601 11.745522 5.4428816 0 0 0 0 30.939316
3.4990907 14.913845 6.901154 0 0 0 0 30.944263
5.7549772 15.973774 7.4152727 0 0 0 0 30.949211
4.7594643 15.572408 7.1779652 0 0 0 0 30.954157
3.5723138 13.872962 6.3850365 0 0 0 0 30.959105
3.1074328 14.724807 6.7854371 0 0 0 0 30.96405
5.3094721 15.903878 7.2940893 0 0 0 0 30.709919
3.5224788 15.095081 6.907382 0 0 0 0 30.719812
2.7599242 14.724703 6.7621727 0 0 0 0 30.72476
4.9145846 15.9597 7.236824 0 0 0 0 30.729708
3.1516736 15.055937 6.8469462 0 0 0 0 30.739601
2.0645297 12.565242 5.7511578 0 0 0 0 30.744549
4.4788585 15.873619 7.1162438 0 0 0 0 30.749495
2.805119 12.143561 5.4535937 0 0 0 0 30.754442
2.7689862 14.90887 6.7452841 0 0 0 0 30.75939
1.8718736 13.246519 6.0473437 0 0 0 0 30.764336
3.70068 14.409476 6.3916426 0 0 0 0 30.769283
3.1676557 15.331099 6.8352385 0 0 0 0 30.774231
2.4300575 14.971641 6.7430825 0 0 0 0 30.779177
1.4035816 11.839509 5.3930717 0 0 0 0 30.784124
2.8077598 15.374901 6.8079815 0 0 0 0 30.794018
1.5226743 10.971633 4.918263 0 0 0 0 30.798965
0.96073323 10.015886 4.5549965 0 0 0 0 30.803913
1.7973962 11.330786 4.9840527 0 0 0 0 30.813807
1.2886029 11.132371 4.9723659 0 0 0 0 30.818752
0.69540691 9.4951973 4.3127098 0 0 0 0 30.8237
2.8915417 15.859033 6.8417172 0 0 0 0 30.828648
1.490809 11.059867 4.8372374 0 0 0 0 30.833595
0.91411078 9.8622732 4.3904972 0 0 0 0 30.838541
0.48446164 9.5260401 4.3245807 0 0 0 0 30.843489
1.8482147 11.721869 5.0126705 0 0 0 0 30.848434
1.2457738 11.19364 4.8702779 0 0 0 0 30.853382
0.67833698 9.7432489 4.3260489 0 0 0 0 30.85833
0.27736408 9.6947594 4.4017315 0 0 0 0 30.863276
1.4839835 11.123189 4.7211709 0 0 0 0 30.868223
0.88213032 10.04442 4.3496852 0 0 0 0 30.873171
0.45351461 9.666193 4.2826943 0 0 0 0 30.878117
0.059447646 9.6996202 4.4045458 0 0 0 0 30.883064
1.2507522 11.444833 4.8255897 0 0 0 0 30.888012
0.6442557 10.021324 4.3204284 0 0 0 0 30.892958
0.23262723 9.6470861 4.2674599 0 0 0 0 30.897905
-0.21562891 13.539974 6.1559529 0 0 0 0 30.902853
0.96991932 11.396749 4.7742448 0 0 0 0 30.907799
0.40939319 9.9842358 4.2901478 0 0 0 0 30.912746
0.012666988 9.6949215 4.2833605 0 0 0 0 30.917694
-0.51035643 13.391919 6.0963836 0 0 0 0 30.92264
0.17452212 9.9541416 4.2638831 0 0 0 0 30.932533
-0.29573205 13.90807 6.144403 0 0 0 0 30.937481
-0.77766728 12.851234 5.861063 0 0 0 0 30.942429
-0.077767253 14.117531 6.0348129 0 0 0 0 30.952322
-0.58394456 13.276451 5.864893 0 0 0 0 30.95727
-1.040255 12.562321 5.7432504 0 0 0 0 30.962215
0.19381179 14.705758 6.0669808 0 0 0 0 30.967163
-0.40043068 13.915527 5.9371247 0 0 0 0 30.972111
-0.87868059 13.133402 5.8033452 0 0 0 0 30.977057
-1.3049942 12.412281 5.6907139 0 0 0 0 30.982004
-0.15594684 14.60267 6.0004659 0 0 0 0 30.986952
-0.72220677 13.817432 5.8876448 0 0 0 0 30.991898
-1.1664299 12.999346 5.7498231 0 0 0 0 30.996845
-1.5667388 12.265242 5.6401906 0 0 0 0 31.001793
-0.50272644 14.516567 5.9449892 0 0 0 0 31.006739
-1.0329098 13.645404 5.8100319 0 0 0 0 31.011686
-1.4491588 12.842308 5.6892648 0 0 0 0 31.016634
-1.821491 12.121198 5.5956807 0 0 0 0 31.02158
-0.84647703 14.399487 5.8794589 0 0 0 0 31.026527
-1.3396531 13.509345 5.7504959 0 0 0 0 31.031475
-1.723895 12.689271 5.6327229 0 0 0 0 31.036421
-2.0672071 11.940194 5.53511 0 0 0 0 31.041368
-1.1811907 14.241439 5.8028603 0 0 0 0 31.046314
-1.6383523 13.326327 5.6738796 0 0 0 0 31.051262
-1.993637 12.538234 5.5801926 0 0 0 0 31.05621
-2.3049328 11.765189 5.4795599 0 0 0 0 31.061157
-1.5068847 14.059409 5.7212262 0 0 0 0 31.066103
-1.9361149 13.201256 5.6273789 0 0 0 0 31.071051
-2.2573614 12.367215 5.5206327 0 0 0 0 31.075996
-2.5416844 11.612164 5.436058 0 0 0 0 31.080944
-1.8376526 13.948322 5.6697292 0 0 0 0 31.085892
-2.221832 13.028233 5.5617995 0 0 0 0 31.090837
-2.517107 12.213181 5.4721127 0 0 0 0 31.095785
-2.7734284 11.448148 5.3905425 0 0 0 0 31.100733
-2.158396 13.808255 5.6121874 0 0 0 0 31.105679
-2.5075676 12.870194 5.5052533 0 0 0 0 31.110626
-2.7668352 12.039172 5.4155655 0 0 0 0 31.115574
-2.9961672 11.277147 5.3410239 0 0 0 0 31.12052
-2.4701016 13.627229 5.5385795 0 0 0 0 31.125467
-2.784296 12.701165 5.4476967 0 0 0 0 31.130415
-3.0175831 11.881144 5.3700523 0 0 0 0 31.135361
-3.2109001 11.096155 5.2914958 0 0 0 0 31.140308
-2.7818518 13.48616 5.4880509 0 0 0 0 31.145256
-3.0520151 12.519152 5.3871264 0 0 0 0 31.150202
-3.2533035 11.69215 5.3124948 0 0 0 0 31.155149
-3.4266486 10.928153 5.2479968 0 0 0 0 31.160095
-3.0655026 13.23919 5.3973479 0 0 0 0 31.165043
-3.3167355 12.33414 5.3285575 0 0 0 0 31.169991
-3.4880431 11.519143 5.2639732 0 0 0 0 31.174938
-3.629385 10.745172 5.1994815 0 0 0 0 31.179884
-3.335469 12.955178 5.2950187 0 0 0 0 30.945002
-3.5777593 12.160026 5.2783175 0 0 0 0 30.949949
-3.7170007 11.332055 5.2136064 0 0 0 0 30.954897
-3.8313015 10.567092 5.1560359 0 0 0 0 30.959843
-3.6251969 12.793121 5.2444468 0 0 0 0 30.96479
-3.83248 11.982997 5.228744 0 0 0 0 30.969738
-3.9377162 11.143059 5.1620374 0 0 0 0 30.974684
-4.0270324 10.386101 5.112505 0 0 0 0 30.979631
-3.9279842 12.684004 5.2199769 0 0 0 0 30.984579
-4.0681529 11.757025 5.1590915 0 0 0 0 30.989525
-4.1584549 10.973043 5.121511 0 0 0 0 30.994473
-4.2217798 10.2181 5.076005 0 0 0 0 30.99942
-4.2117114 12.513949 5.1724033 0 0 0 0 31.004366
-4.3790669 11.758793 5.1928473 0 0 0 0 31.009314
-4.3721776 10.785048 5.0739594 0 0 0 0 31.014259
-4.4065156 10.036117 5.0344882 0 0 0 0 31.019207
-4.4753976 12.300943 5.1097622 0 0 0 0 31.024155
-4.7190332 11.809492 5.2526846 0 0 0 0 31.029102
-4.5758996 10.593062 5.0264101 0 0 0 0 31.034048
-4.59126 9.8601284 4.9959888 0 0 0 0 31.038996
-4.7210603 12.059969 5.0390835 0 0 0 0 31.043941
-4.9567413 11.608487 5.2030935 0 0 0 0 31.048889
-4.7756276 10.402074 4.9828706 0 0 0 0 31.053837
-4.7790275 9.7031155 4.9705286 0 0 0 0 31.058783
-5.1261177 12.205556 5.1330681 0 0 0 0 31.06373
-5.1824384 11.392501 5.1494856 0 0 0 0 31.068678
-4.9422927 10.14917 4.909236 0 0 0 0 31.073624
-4.9467645 9.5141506 4.9290233 0 0 0 0 31.078571
-5.4339333 12.109407 5.1306419 0 0 0 0 31.083519
-5.4121504 11.188502 5.1019049 0 0 0 0 31.088465
-5.3424487 10.367643 5.0683818 0 0 0 0 31.093412
-5.1165128 9.3331757 4.8925366 0 0 0 0 31.09836
-5.6816182 11.880411 5.0750012 0 0 0 0 31.103306
-5.6228447 10.961529 5.0492964 0 0 0 0 31.108253
-5.5441942 10.18664 5.0358739 0 0 0 0 31.113201
-5.2752542 9.1432152 4.8530445 0 0 0 0 31.118147
-5.9152832 11.627443 5.0103292 0 0 0 0 31.123095
-5.8355546 10.747544 5.0027184 0 0 0 0 31.12804
-5.7269101 9.9736786 4.9893212 0 0 0 0 31.132988
-5.4169798 8.9342871 4.8045311 0 0 0 0 31.137936
-6.1529789 11.400446 4.960711 0 0 0 0 31.142883
-6.036252 10.517581 4.9501228 0 0 0 0 31.147829
-5.8896074 9.7397518 4.9327455 0 0 0 0 31.152777
-5.5877585 8.7742863 4.7830997 0 0 0 0 31.157722
-6.3896866 11.18144 4.9171147 0 0 0 0 31.16267
-6.2369666 10.300603 4.9065576 0 0 0 0 31.167618
-5.8780384 9.2382088 4.7407675 0 0 0 0 31.172564
-5.7325082 8.5833349 4.7466283 0 0 0 0 31.177511
-6.6063652 10.929476 4.8604746 0 0 0 0 31.182459
-6.4376917 10.089618 4.8680096 0 0 0 0 31.187405
-6.0467854 9.0452366 4.7062793 0 0 0 0 31.192352
-5.8692551 8.387394 4.7081571 0 0 0 0 31.1973
-6.8170543 10.682506 4.8098531 0 0 0 0 31.202246
-6.3970675 9.5231285 4.6569362 0 0 0 0 31.207193
-6.2015209 8.8372869 4.6657763 0 0 0 0 31.212141
-6.007009 8.1954489 4.6716986 0 0 0 0 31.217087
-7.0407715 10.461504 4.7722802 0 0 0 0 31.222034
-6.5597763 9.2871885 4.608377 0 0 0 0 31.226982
-6.3632736 8.6423168 4.6342993 0 0 0 0 31.231928
-6.1828251 8.0614119 4.6713319 0 0 0 0 31.236876
-6.9570775 9.8090858 4.5380816 0 0 0 0 31.241821
-6.7505317 9.0951881 4.58289 0 0 0 0 31.246769
-6.5320439 8.4633265 4.6118531 0 0 0 0 31.251717
-6.235486 7.7716293 4.5807476 0 0 0 0 31.256664
-7.1578035 9.5870972 4.5025349 0 0 0 0 31.26161
-6.8892269 8.8382845 4.5253177 0 0 0 0 31.266558
-6.9090776 8.5459232 4.7367816 0 0 0 0 31.271503
-6.5184441 7.7723684 4.6635814 0 0 0 0 31.276451
-7.3325057 9.3351507 4.4549532 0 0 0 0 31.281399
-7.2021451 8.8060417 4.5870695 0 0 0 0 31.286345
-7.0588231 8.3359699 4.704298 0 0 0 0 31.291292
-6.7843723 7.7421522 4.7313695 0 0 0 0 31.29624
-7.4912009 9.0722227 4.404366 0 0 0 0 31.301186
-7.4730048 8.7118855 4.6207347 0 0 0 0 31.306133
-7.1905584 8.1130447 4.6638055 0 0 0 0 31.311081
-6.9081335 7.5442152 4.7009311 0 0 0 0 31.316027
-7.9622512 9.1787453 4.5382919 0 0 0 0 31.320974
-7.6227269 8.4729509 4.579206 0 0 0 0 31.325922
-7.3263059 7.8981066 4.630331 0 0 0 0 31.330868
-7.0279002 7.3482795 4.6715031 0 0 0 0 31.335815
-8.118948 8.9098167 4.4917068 0 0 0 0 31.340763
-7.8044944 8.2759495 4.5637422 0 0 0 0 31.345709
-7.4530492 7.6761799 4.5938544 0 0 0 0 31.350657
-7.1396651 7.1483545 4.6400771 0 0 0 0 31.355602
-8.2826595 8.652873 4.4511466 0 0 0 0 31.36055
-7.9352164 8.0290308 4.5222206 0 0 0 0 31.365498
-7.5848083 7.4672351 4.5664043 0 0 0 0 31.370445
-7.2464294 6.9444351 4.6076522 0 0 0 0 31.375391
-8.4513874 8.4089127 4.4196138 0 0 0 0 31.380339
-8.071949 7.7890997 4.4857154 0 0 0 0 31.385284
-7.6945539 7.2413239 4.5289412 0 0 0 0 31.390232
-7.3532019 6.7465096 4.5792427 0 0 0 0 31.39518
-8.5810852 8.1280069 4.3720422 0 0 0 0 31.400126
-8.2126961 7.5611529 4.4572353 0 0 0 0 31.405073
-7.8193164 7.029387 4.5005002 0 0 0 0 31.410021
-7.4589801 6.5515814 4.5528445 0 0 0 0 31.414967
-8.727479 7.8735285 4.3373475 0 0 0 0 31.503628
-8.3221016 7.3057089 4.4135857 0 0 0 0 31.508574
-7.9317713 6.8139076 4.4719429 0 0 0 0 31.513521
-7.5664682 6.3600879 4.5303535 0 0 0 0 31.518469
-8.8501978 7.5996199 4.2958212 0 0 0 0 31.523415
-8.4468565 7.0717788 4.3841295 0 0 0 0 31.528362
-8.0355358 6.5909944 4.439518 0 0 0 0 31.53331
-7.6572509 6.1581759 4.5019727 0 0 0 0 31.538256
-8.9899368 7.3436828 4.2653241 0 0 0 0 31.543203
-8.5636129 6.8348541 4.3546772 0 0 0 0 31.548151
-8.1433115 6.377068 4.4141116 0 0 0 0 31.553097
-7.7570467 5.9672456 4.4816108 0 0 0 0 31.558044
-9.1126738 7.0807614 4.23283 0 0 0 0 31.562992
-8.6883802 6.606914 4.3322434 0 0 0 0 31.567938
-8.2430868 6.1601491 4.3877101 0 0 0 0 31.572886
-7.7988019 5.7314057 4.428206 0 0 0 0 31.577831
-9.2404222 6.8258295 4.2053533 0 0 0 0 31.582779
-8.7871323 6.3590097 4.2987943 0 0 0 0 31.587727
-8.3298597 5.9372454 4.3573093 0 0 0 0 31.592674
-7.7545109 5.4446869 4.3327613 0 0 0 0 31.59762
-9.3801804 6.5788794 4.1848912 0 0 0 0 31.602568
-8.893899 6.1240873 4.2733688 0 0 0 0 31.607513
-8.4376507 5.72931 4.3389297 0 0 0 0 31.612461
-7.7952857 5.2238336 4.2873926 0 0 0 0 31.617409
-9.4829254 6.3119698 4.1544194 0 0 0 0 31.622355
-8.9856615 5.8791819 4.2439404 0 0 0 0 31.627302
-8.5184307 5.5074081 4.310545 0 0 0 0 31.63225
-7.8000464 4.9860268 4.226018 0 0 0 0 31.637196
-9.5836754 6.0470591 4.1259589 0 0 0 0 31.642143
-9.0794325 5.6402688 4.2185268 0 0 0 0 31.647091
-8.6022177 5.288497 4.2871695 0 0 0 0 31.652037
-7.8618493 4.7891302 4.198689 0 0 0 0 31.656984
-9.6744251 5.7771583 4.0955019 0 0 0 0 31.661932
-9.1552 5.3943744 4.189116 0 0 0 0 31.666878
-8.5239201 4.978807 4.1857238 0 0 0 0 31.671825
-7.932662 4.5992179 4.1783729 0 0 0 0 31.676773
-9.4069986 5.3107014 3.9198899 0 0 0 0 31.681719
-8.9048023 4.9679041 4.0135622 0 0 0 0 31.686666
-8.428627 4.6711264 4.0822945 0 0 0 0 31.691612
-7.9974751 4.407311 4.1570611 0 0 0 0 31.69656
-9.5167828 5.0707588 3.9074862 0 0 0 0 31.701508
-8.993597 4.7439785 3.9971933 0 0 0 0 31.706455
-8.5074348 4.4662056 4.0659609 0 0 0 0 31.711401
-8.0783005 4.226378 4.1467643 0 0 0 0 31.716349
-9.5845499 4.8088651 3.8800719 0 0 0 0 31.721294
-9.0643845 4.5100746 3.9738224 0 0 0 0 31.726242
-8.5812426 4.2592893 4.0486312 0 0 0 0 31.73119
-8.1401205 4.0354705 4.1274648 0 0 0 0 31.736135
-9.6563253 4.5539618 3.8576729 0 0 0 0 31.741083
-9.1381826 4.2831597 3.9574668 0 0 0 0 31.746031
-8.6470518 4.0493798 4.0303059 0 0 0 0 31.750977
-8.1979427 3.8455648 4.1091738 0 0 0 0 31.755924
-8.8967638 3.9320371 3.5090482 0 0 0 0 31.760872
-9.1909752 4.0482693 3.9331133 0 0 0 0 31.765818
-8.7028618 3.8384798 4.0099883 0 0 0 0 31.770765
-8.2557669 3.6546574 4.091886 0 0 0 0 31.775713
-8.4194412 3.4733708 3.5625718 0 0 0 0 31.785606
-8.4605541 3.505949 3.8566077 0 0 0 0 31.790554
-8.3055935 3.4637566 4.073606 0 0 0 0 31.7955
-8.3494215 3.2718594 4.0553322 0 0 0 0 31.815289
-0.47420529 0.16801727 0.17671843 0 0 0 0 31.820236
-0.45619932 0.16201887 0.18472414 0 0 0 0 31.825182
-8.338233 3.0610299 4.0120554 0 0 0 0 31.835075
-0.47217765 0.15799315 0.20475222 0 0 0 0 31.849916
-0.45614177 0.13706003 0.16674438 0 0 0 0 31.859812
-0.46414512 0.1410327 0.18475506 0 0 0 0 31.864758
-0.49015751 0.154963 0.22778122 0 0 0 0 31.874653
-0.4681195 0.13302141 0.19978231 0 0 0 0 31.889494
-0.45508546 0.1130827 0.16377538 0 0 0 0 31.899387
-0.47009081 0.11904784 0.18478642 0 0 0 0 31.904335
-0.49310127 0.13198528 0.22481221 0 0 0 0 31.914228
-0.47106475 0.11104139 0.19781528 0 0 0 0 31.92907
-0.42802393 0.08413168 0.15180962 0 0 0 0 31.938963
-0.4500306 0.092092223 0.173821 0 0 0 0 31.943911
-0.48104286 0.1070224 0.2168467 0 0 0 0 31.953804
-0.44900531 0.085086882 0.18685238 0 0 0 0 31.968645
-0.42237398 0.0624066 0.14979932 0 0 0 0 32.557545
-0.43637574 0.068385452 0.16880976 0 0 0 0 32.562492
-0.48338374 0.08632718 0.21683162 0 0 0 0 32.572384
-0.44435194 0.063379608 0.18384379 0 0 0 0 32.587227
-0.41532475 0.041430019 0.14584653 0 0 0 0 32.597122
-0.43832707 0.047403473 0.16785482 0 0 0 0 32.602066
-0.46233061 0.061365254 0.20487842 0 0 0 0 32.611961
-0.44630373 0.043398093 0.18289025 0 0 0 0 32.626801
-0.4102765 0.02045057 0.14389423 0 0 0 0 32.636696
-0.43127817 0.026427325 0.16390301 0 0 0 0 32.641644
-0.46028197 0.04138764 0.20192628 0 0 0 0 32.651539
-0.42425361 0.022432709 0.17294234 0 0 0 0 32.666378
-0.40622932 0.00046968687 0.14294355 0 0 0 0 32.676273
-0.42023015 0.0064521502 0.15995397 0 0 0 0 32.681221
-0.4532333 0.020412359 0.19797537 0 0 0 0 32.691113
-0.42820686 0.0024483055 0.17399026 0 0 0 0 32.705956
-0.4271847 -0.018526308 0.14998913 0 0 0 0 32.715847
-0.44218564 -0.012544388 0.16799933 0 0 0 0 32.720795
-0.4451856 0.0014378869 0.19302732 0 0 0 0 32.73069
-0.44316229 -0.015543622 0.18003851 0 0 0 0 32.745529
-0.42713854 -0.039509904 0.15103875 0 0 0 0 32.755424
-0.44413933 -0.033527981 0.16904853 0 0 0 0 32.760372
-0.45514029 -0.017549984 0.19707626 0 0 0 0 32.770264
-0.44511589 -0.036526062 0.18008812 0 0 0 0 32.785107
-0.44109333 -0.062501699 0.15708485 0 0 0 0 32.795002
-0.44409329 -0.054510076 0.16909921 0 0 0 0 32.799946
-0.46009439 -0.038534336 0.19912571 0 0 0 0 32.809841
-0.47207186 -0.059525236 0.19213207 0 0 0 0 32.824684
-0.44104812 -0.083484903 0.15813668 0 0 0 0 32.834576
-0.45604843 -0.077500299 0.17514692 0 0 0 0 32.839523
-0.49305055 -0.06253574 0.21316825 0 0 0 0 32.849419
-0.46602601 -0.080503218 0.19018559 0 0 0 0 32.864258
-0.43900311 -0.10546751 0.15918918 0 0 0 0 32.874153
-0.45300305 -0.099481277 0.17519963 0 0 0 0 32.879101
-0.46700379 -0.080500826 0.20222844 0 0 0 0 32.888992
-0.45598075 -0.10047963 0.18724158 0 0 0 0 32.903835
-0.43295869 -0.12644832 0.15924424 0 0 0 0 32.913727
-0.45295861 -0.12146457 0.1772528 0 0 0 0 32.918674
-0.47895926 -0.10448932 0.20827763 0 0 0 0 32.92857
-0.46093655 -0.12346528 0.19129349 0 0 0 0 32.943409
-0.44291478 -0.15243828 0.16629373 0 0 0 0 32.953304
-0.45691454 -0.14545019 0.18130489 0 0 0 0 32.958252
-0.48491487 -0.12847434 0.21232925 0 0 0 0 32.968147
-0.46989226 -0.1494523 0.19634376 0 0 0 0 32.982986
-0.45887059 -0.18343049 0.1753401 0 0 0 0 32.992882
-0.47487038 -0.176443 0.19135091 0 0 0 0 32.997826
-0.48287076 -0.15045442 0.21238489 0 0 0 0 33.007721
-0.47384873 -0.17443767 0.20139699 0 0 0 0 33.022564
-0.49019501 -0.22261657 0.19167075 0 0 0 0 32.645252
-0.49619699 -0.21062614 0.2026892 0 0 0 0 32.6502
-0.50120199 -0.18164088 0.22273199 0 0 0 0 32.660095
-0.49717626 -0.20862325 0.21273591 0 0 0 0 32.674934
-0.50114805 -0.25660914 0.20071094 0 0 0 0 32.68483
-0.48915139 -0.23460536 0.20374206 0 0 0 0 32.689774
-0.5071559 -0.20862731 0.22777879 0 0 0 0 32.699669
-3.1138988 -1.695387 1.2769206 0 0 0 0 32.704617
-0.48413095 -0.23059855 0.21179211 0 0 0 0 32.714512
-3.0338657 -1.7463102 1.2619568 0 0 0 0 32.724403
-3.1528988 -1.7014239 1.3619845 0 0 0 0 32.729351
-0.49911004 -0.23260382 0.22683257 0 0 0 0 32.739246
-2.9468353 -1.7902309 1.2450011 0 0 0 0 32.744194
-3.0498676 -1.7383285 1.334038 0 0 0 0 32.749138
-3.1788988 -1.6944394 1.4300624 0 0 0 0 32.754086
-2.8638058 -1.8331549 1.229046 0 0 0 0 32.763981
-2.9748359 -1.7872536 1.3180759 0 0 0 0 32.768929
-3.0858667 -1.7353481 1.4031106 0 0 0 0 32.773872
-3.2169018 -1.6774576 1.5001459 0 0 0 0 32.77882
-2.7837772 -1.8760822 1.2140908 0 0 0 0 32.783768
-2.8908064 -1.8291749 1.2991222 0 0 0 0 32.788715
-2.9988356 -1.7772628 1.3791574 0 0 0 0 32.793663
-3.1278689 -1.7203668 1.4721919 0 0 0 0 32.798611
-2.7097497 -1.9200157 1.2031342 0 0 0 0 32.803555
-2.8097775 -1.8700984 1.2801694 0 0 0 0 32.808502
-2.9218049 -1.8221853 1.3592002 0 0 0 0 32.81345
-3.0488362 -1.767283 1.4472333 0 0 0 0 32.818398
-2.6297238 -1.9579463 1.1891842 0 0 0 0 32.823345
-2.7417493 -1.9170333 1.2692095 0 0 0 0 32.828293
-2.8417764 -1.8631083 1.3392473 0 0 0 0 32.833237
-2.9608064 -1.8041958 1.4192851 0 0 0 0 32.838184
-2.5676973 -2.0058894 1.1832232 0 0 0 0 32.843132
-2.6597233 -1.95296 1.2512618 0 0 0 0 32.84808
-2.7627487 -1.902033 1.3192964 0 0 0 0 32.853027
-2.8847766 -1.848119 1.3983293 0 0 0 0 32.857975
-2.4916732 -2.042825 1.1712743 0 0 0 0 32.862919
-2.5846982 -1.9908923 1.2363116 0 0 0 0 32.867867
-2.686722 -1.9409615 1.3013453 0 0 0 0 32.872814
-2.8027487 -1.8850391 1.3733808 0 0 0 0 32.877762
-2.4156506 -2.076762 1.1593281 0 0 0 0 32.88271
-2.5216725 -2.0358336 1.2273542 0 0 0 0 32.887657
-2.6166956 -1.9828951 1.2863914 0 0 0 0 32.892601
-2.7267213 -1.9249653 1.3524292 0 0 0 0 32.897549
-2.3546271 -2.1217096 1.1553713 0 0 0 0 32.902496
-2.4476495 -2.0707703 1.2144072 0 0 0 0 32.907444
-2.5446708 -2.0208297 1.2714415 0 0 0 0 32.912392
-2.6576951 -1.9658976 1.3354762 0 0 0 0 32.917336
-2.2836058 -2.1556523 1.146425 0 0 0 0 32.922283
-2.3756268 -2.1057084 1.2014602 0 0 0 0 32.927231
-2.4806464 -2.0627694 1.2594876 0 0 0 0 32.932178
-2.5846698 -2.0028279 1.3155273 0 0 0 0 32.937126
-2.2145848 -2.191597 1.1384774 0 0 0 0 32.942074
-2.3106043 -2.145653 1.1935087 0 0 0 0 32.947018
-2.4096231 -2.0987062 1.24454 0 0 0 0 32.951965
-2.5136452 -2.0407624 1.2985779 0 0 0 0 32.956913
-2.1515644 -2.2305472 1.1345272 0 0 0 0 32.961861
-2.2435834 -2.1805966 1.1835618 0 0 0 0 32.966808
-2.3386014 -2.1326444 1.2295942 0 0 0 0 32.971756
-2.4516211 -2.0817022 1.2846252 0 0 0 0 32.9767
-2.0775464 -2.2554903 1.1235892 0 0 0 0 32.981647
-2.1815622 -2.2205455 1.1776109 0 0 0 0 32.986595
-2.2765791 -2.1725903 1.220643 0 0 0 0 32.991543
-2.3805988 -2.1166391 1.267679 0 0 0 0 32.99649
-2.023526 -2.3014479 1.1246334 0 0 0 0 33.001434
-2.1195421 -2.2574944 1.1706626 0 0 0 0 33.006382
-2.2065592 -2.203532 1.2077 0 0 0 0 33.01133
-2.3105774 -2.1485782 1.251735 0 0 0 0 33.016277
-1.9555086 -2.331398 1.1186917 0 0 0 0 33.021225
-2.0535235 -2.2904427 1.1627184 0 0 0 0 33.026173
-2.1445389 -2.2404799 1.1987522 0 0 0 0 33.03112
-2.2455556 -2.1855209 1.2377872 0 0 0 0 33.036064
-1.8944908 -2.3673532 1.1167452 0 0 0 0 33.041012
-1.9885051 -2.3233922 1.1547743 0 0 0 0 33.045959
-2.0785201 -2.2724261 1.1878085 0 0 0 0 33.050907
-2.184535 -2.2234674 1.2268386 0 0 0 0 33.055855
-1.8354731 -2.4063103 1.1157969 0 0 0 0 33.060799
-1.9254875 -2.3563442 1.1488303 0 0 0 0 33.065746
-2.0165009 -2.3083763 1.1798623 0 0 0 0 33.070694
-2.1185157 -2.2564127 1.2138946 0 0 0 0 33.075642
-1.7764565 -2.4422684 1.1148511 0 0 0 0 33.080589
-1.8624705 -2.389298 1.1438868 0 0 0 0 33.085533
-1.9524833 -2.3403265 1.1709193 0 0 0 0 33.090481
-2.0584962 -2.2943621 1.2039469 0 0 0 0 33.095428
-1.7114412 -2.4712238 1.1109113 0 0 0 0 33.100376
-1.8014539 -2.4222527 1.1389434 0 0 0 0 33.105324
-1.8914654 -2.3762796 1.1639738 0 0 0 0 33.110271
-1.9894788 -2.3203082 1.1900086 0 0 0 0 33.115219
-1.6505444 -2.5035853 1.108982 0 0 0 0 32.831585
-1.7435603 -2.4606264 1.1360135 0 0 0 0 32.836533
-1.8305769 -2.4096599 1.1560525 0 0 0 0 32.84148
-1.9275948 -2.3556981 1.1790916 0 0 0 0 32.846428
-1.5925263 -2.5405428 1.1110327 0 0 0 0 32.851376
-1.6825423 -2.4925783 1.1330686 0 0 0 0 32.856323
-1.771557 -2.44561 1.1511037 0 0 0 0 32.861267
-1.8675743 -2.3896444 1.1701442 0 0 0 0 32.866215
-1.5285102 -2.568496 1.1090921 0 0 0 0 32.871162
-1.616526 -2.5165267 1.1261311 0 0 0 0 32.87611
-1.7085388 -2.4755585 1.1441609 0 0 0 0 32.881058
-1.8065543 -2.4235911 1.1611975 0 0 0 0 32.886002
-1.4704933 -2.6034548 1.1111454 0 0 0 0 32.890949
-1.5585077 -2.5534825 1.1251825 0 0 0 0 32.895897
-1.6485208 -2.5075104 1.1392163 0 0 0 0 32.900845
-1.7445354 -2.4545388 1.1522539 0 0 0 0 32.905792
-1.4124767 -2.639415 1.1141984 0 0 0 0 32.91074
-1.4994911 -2.5864396 1.1252377 0 0 0 0 32.915684
-1.5895025 -2.5434639 1.135269 0 0 0 0 32.920631
-1.6855164 -2.4904904 1.1463062 0 0 0 0 32.925579
-1.352461 -2.6733747 1.1162539 0 0 0 0 32.930527
-1.4404745 -2.6203966 1.1242926 0 0 0 0 32.935474
-1.5314853 -2.57742 1.1333234 0 0 0 0 32.940422
-1.6274979 -2.5264437 1.141359 0 0 0 0 32.945366
-1.2904466 -2.7023337 1.1173137 0 0 0 0 32.950314
-1.3834578 -2.6583571 1.1263448 0 0 0 0 32.955261
-1.4704689 -2.6093748 1.1293805 0 0 0 0 32.960209
-1.5634817 -2.5523934 1.1324205 0 0 0 0 32.965157
-1.234431 -2.7422991 1.1243651 0 0 0 0 32.9701
-1.3204435 -2.6853139 1.1244065 0 0 0 0 32.975048
-1.4094532 -2.6393301 1.1254393 0 0 0 0 32.979996
-1.5054638 -2.5893483 1.1274736 0 0 0 0 32.984943
-1.1744168 -2.776262 1.128422 0 0 0 0 32.989891
-1.2644272 -2.7262774 1.1284574 0 0 0 0 32.994839
-1.3514371 -2.6752899 1.1254939 0 0 0 0 32.999786
-1.444448 -2.6203034 1.1225318 0 0 0 0 33.00473
-1.1134036 -2.807225 1.1324817 0 0 0 0 33.009678
-1.2054126 -2.7612398 1.1315137 0 0 0 0 33.014626
-1.2894225 -2.7052472 1.1225537 0 0 0 0 33.019573
-1.3804332 -2.6452568 1.1145949 0 0 0 0 33.024521
-1.0523905 -2.8391891 1.136541 0 0 0 0 33.029465
-1.1453985 -2.7942014 1.1325721 0 0 0 0 33.034412
-1.2284083 -2.7352064 1.1206137 0 0 0 0 33.03936
-1.3254164 -2.6882188 1.1156449 0 0 0 0 33.044308
-0.99337679 -2.8781564 1.1445959 0 0 0 0 33.049255
-1.082386 -2.8221631 1.1336344 0 0 0 0 33.054199
-1.1723925 -2.7791712 1.1246643 0 0 0 0 33.059147
-1.2644014 -2.7211769 1.1117033 0 0 0 0 33.064095
-0.93136501 -2.9091225 1.1506571 0 0 0 0 33.069042
-1.0233724 -2.859129 1.1386908 0 0 0 0 33.07399
-1.1103792 -2.8091323 1.1237254 0 0 0 0 33.078938
-1.2013879 -2.7481349 1.1067661 0 0 0 0 33.083885
-0.86835331 -2.9410889 1.156718 0 0 0 0 33.088829
-0.9613598 -2.8930938 1.1427503 0 0 0 0 33.093777
-1.0493659 -2.8430953 1.1247844 0 0 0 0 33.098724
-1.1443722 -2.7920985 1.1078176 0 0 0 0 33.103672
-0.74637359 -2.7539914 1.0779237 0 0 0 0 33.10862
-0.89934778 -2.9250591 1.1458113 0 0 0 0 33.113564
-0.98735332 -2.8750591 1.1258451 0 0 0 0 33.118511
-1.0823592 -2.8230603 1.1058787 0 0 0 0 33.123459
-0.63938951 -2.5859053 1.0071101 0 0 0 0 33.128407
-0.81134909 -2.8649993 1.1149321 0 0 0 0 33.133354
-0.92434138 -2.906023 1.126907 0 0 0 0 33.138302
-1.0183469 -2.8510215 1.1029422 0 0 0 0 33.143246
-0.54440182 -2.4358296 0.94527936 0 0 0 0 33.148193
-0.68836927 -2.6599014 1.0281413 0 0 0 0 33.153141
-0.85933101 -2.9279859 1.124975 0 0 0 0 33.158089
-0.95633394 -2.8869858 1.1030012 0 0 0 0 33.163036
-0.46240991 -2.3077645 0.89242959 0 0 0 0 33.167984
-0.58538306 -2.4918203 0.95732039 0 0 0 0 33.172928
-0.74034584 -2.7558973 1.049162 0 0 0 0 33.177876
-0.89332241 -2.9179509 1.1030636 0 0 0 0 33.182823
-0.38741577 -2.1877046 0.8425706 0 0 0 0 33.187771
-0.50038975 -2.3687558 0.90446687 0 0 0 0 33.192719
-0.63235885 -2.5888159 0.97733974 0 0 0 0 33.197662
-0.81331742 -2.8969016 1.082158 0 0 0 0 33.20261
-0.32041961 -2.0776513 0.79870152 0 0 0 0 33.207558
-0.42139548 -2.2466955 0.85360831 0 0 0 0 33.212505
-0.53436977 -2.4277415 0.90950799 0 0 0 0 33.217453
-0.6823377 -2.6648037 0.98537332 0 0 0 0 33.222401
-0.26241904 -1.9966077 0.76581234 0 0 0 0 33.227348
-0.35039943 -2.1306405 0.80574197 0 0 0 0 33.232292
-0.45237514 -2.3036807 0.85664964 0 0 0 0 33.23724
-0.57934785 -2.5047295 0.91654003 0 0 0 0 33.242188
-0.20841804 -1.9145665 0.73392081 0 0 0 0 33.247135
-0.28740016 -2.0355933 0.76686013 0 0 0 0 33.252083
-0.37837842 -2.189626 0.80878133 0 0 0 0 33.257027
-0.49135417 -2.3696668 0.85968703 0 0 0 0 33.261974
-0.15741679 -1.8265258 0.69902956 0 0 0 0 33.266922
-0.23139876 -1.9525515 0.73296845 0 0 0 0 33.27187
-0.31138012 -2.0825768 0.76490533 0 0 0 0 33.276817
-0.41135791 -2.2476103 0.80782259 0 0 0 0 33.281761
-0.11241237 -1.7624924 0.67412305 0 0 0 0 33.286709
-0.17839722 -1.8635108 0.69707704 0 0 0 0 33.291656
-0.25037983 -1.9855322 0.72502047 0 0 0 0 33.296604
-0.33936039 -2.1285586 0.75895208 0 0 0 0 33.301552
-0.071359284 -1.6954075 0.64943939 0 0 0 0 33.389793
-0.13034704 -1.7894194 0.66740453 0 0 0 0 33.394741
-0.19533409 -1.8944331 0.6883648 0 0 0 0 33.399689
-0.27531868 -2.0324526 0.71930987 0 0 0 0 33.404636
-0.032351997 -1.6363804 0.62652242 0 0 0 0 33.409584
-0.087340422 -1.7263905 0.6424908 0 0 0 0 33.414528
-0.14532851 -1.8214008 0.6584574 0 0 0 0 33.419476
-0.21731506 -1.9394153 0.68141341 0 0 0 0 33.424423
0.0036559615 -1.5793551 0.60460258 0 0 0 0 33.429371
-0.046333745 -1.6563623 0.61557794 0 0 0 0 33.434319
-0.099322267 -1.7503711 0.63054663 0 0 0 0 33.439262
-0.16430996 -1.8563818 0.64750969 0 0 0 0 33.44421
0.036664642 -1.5283326 0.58667833 0 0 0 0 33.449158
-0.0083254073 -1.6033382 0.59565604 0 0 0 0 33.454105
-0.057314947 -1.6863443 0.60563064 0 0 0 0 33.459053
-0.11530372 -1.7813519 0.61760008 0 0 0 0 33.464001
0.067673653 -1.4723101 0.56575441 0 0 0 0 33.468948
0.024683164 -1.5453147 0.57373393 0 0 0 0 33.473892
-0.018307025 -1.6223187 0.5807125 0 0 0 0 33.47884
-0.071296327 -1.7153252 0.59168434 0 0 0 0 33.483788
0.096683711 -1.42629 0.54882497 0 0 0 0 33.488735
0.057692636 -1.493293 0.55380803 0 0 0 0 33.493683
0.017701983 -1.5692966 0.56078809 0 0 0 0 33.498627
-0.030287899 -1.6573011 0.56876343 0 0 0 0 33.503574
0.12469441 -1.3872724 0.53589153 0 0 0 0 33.508522
0.088702485 -1.442273 0.53588003 0 0 0 0 33.51347
0.051711451 -1.5132747 0.53886312 0 0 0 0 33.518417
0.0077205333 -1.5892771 0.54284418 0 0 0 0 33.523361
0.15070546 -1.3452549 0.52095783 0 0 0 0 33.528309
0.11771354 -1.4062557 0.52294517 0 0 0 0 33.533257
0.082721382 -1.460255 0.51993519 0 0 0 0 33.538204
0.042729985 -1.5322562 0.52191889 0 0 0 0 33.543152
0.17471662 -1.2982377 0.50502437 0 0 0 0 33.5481
0.14472471 -1.3632383 0.50701141 0 0 0 0 33.553047
0.11373255 -1.4222375 0.50500071 0 0 0 0 33.557991
0.076740198 -1.4782364 0.50099087 0 0 0 0 33.562939
0.19872881 -1.2672232 0.49508446 0 0 0 0 33.567886
0.16973609 -1.3172218 0.49107724 0 0 0 0 33.572834
0.14074335 -1.36922 0.48706967 0 0 0 0 33.577782
0.10775109 -1.432219 0.48405859 0 0 0 0 33.582726
0.22074118 -1.2302085 0.48214534 0 0 0 0 33.587673
0.19574843 -1.2882075 0.4811365 0 0 0 0 33.592621
0.16875538 -1.3382056 0.4761304 0 0 0 0 33.597569
0.13776253 -1.3912029 0.46912333 0 0 0 0 33.602516
0.24375407 -1.2031958 0.47420222 0 0 0 0 33.607464
0.21876082 -1.2501934 0.46819741 0 0 0 0 33.612408
0.19376743 -1.2941902 0.46019378 0 0 0 0 33.617355
0.16477425 -1.3461875 0.45318779 0 0 0 0 33.622303
0.26476726 -1.1751834 0.46525842 0 0 0 0 33.627251
0.24077371 -1.2181803 0.45725539 0 0 0 0 33.632198
0.21677986 -1.251176 0.44525552 0 0 0 0 33.637146
0.19178644 -1.3071736 0.44024929 0 0 0 0 33.64209
0.28278059 -1.1411711 0.45431525 0 0 0 0 33.647038
0.26178679 -1.185168 0.44731268 0 0 0 0 33.651985
0.23979284 -1.2181635 0.4343133 0 0 0 0 33.656933
0.21479896 -1.2611598 0.42431125 0 0 0 0 33.66188
0.30179432 -1.1121596 0.44536987 0 0 0 0 33.666824
0.28180024 -1.1511561 0.43636918 0 0 0 0 33.671772
0.26080605 -1.1831515 0.42337051 0 0 0 0 33.67672
0.23881201 -1.2261474 0.41236916 0 0 0 0 33.681667
0.31880829 -1.0811487 0.43642402 0 0 0 0 33.686615
0.29981405 -1.1151445 0.4244251 0 0 0 0 33.691563
0.28281972 -1.1561406 0.41442484 0 0 0 0 33.69651
0.2608254 -1.190136 0.40042618 0 0 0 0 33.701454
0.3368226 -1.059139 0.43047518 0 0 0 0 33.706402
0.31882814 -1.0881343 0.41647792 0 0 0 0 33.711349
0.30183363 -1.1221298 0.40347978 0 0 0 0 33.716297
0.28183907 -1.1551251 0.38948187 0 0 0 0 33.721245
0.35183716 -1.0271287 0.42052779 0 0 0 0 33.726189
0.33584252 -1.0591244 0.40753031 0 0 0 0 33.731136
0.32184783 -1.09312 0.39453274 0 0 0 0 33.736084
0.30285314 -1.1221149 0.37853616 0 0 0 0 33.741032
0.36985195 -1.0071199 0.41557714 0 0 0 0 33.745979
0.35185722 -1.0291148 0.39858201 0 0 0 0 33.750923
0.33986232 -1.0631105 0.38558495 0 0 0 0 33.755871
0.32286739 -1.0931059 0.37058857 0 0 0 0 33.760818
0.38486692 -0.98311132 0.40962648 0 0 0 0 33.765766
0.36887211 -1.0051061 0.39163175 0 0 0 0 33.770714
0.35687703 -1.0351017 0.37763584 0 0 0 0 33.775661
0.340882 -1.0620968 0.36064047 0 0 0 0 33.780609
0.39788225 -0.95510262 0.40167582 0 0 0 0 33.785553
0.38488725 -0.98009777 0.3846809 0 0 0 0 33.790501
0.37389207 -1.0080934 0.36968577 0 0 0 0 33.795448
0.35989681 -1.0360887 0.35369059 0 0 0 0 33.800396
0.41289777 -0.93409467 0.39572325 0 0 0 0 33.805344
0.39990261 -0.95708996 0.37872896 0 0 0 0 33.810287
0.38890728 -0.98108548 0.36273479 0 0 0 0 33.815235
0.37591195 -1.0060807 0.34474051 0 0 0 0 33.820183
0.42591351 -0.909087 0.3897706 0 0 0 0 33.82513
0.41591811 -0.93608266 0.37377611 0 0 0 0 33.830078
0.40692261 -0.96107841 0.35778213 0 0 0 0 33.835026
0.39392728 -0.9810735 0.33778888 0 0 0 0 33.83997
0.44292915 -0.89508027 0.3878158 0 0 0 0 33.844917
0.42993397 -0.91207534 0.36682296 0 0 0 0 33.849865
0.42293823 -0.93907142 0.35182902 0 0 0 0 33.854813
0.41094279 -0.95906675 0.33183604 0 0 0 0 33.85976
