# .PCD v0.7 - Point Cloud Data file format
VERSION 0.7
FIELDS x y z normal_x normal_y normal_z intensity curvature
SIZE 4 4 4 4 4 4 4 4
TYPE F F F F F F F F
COUNT 1 1 1 1 1 1 1 1
WIDTH 957
HEIGHT 1
VIEWPOINT 0 0 0 1 0 0 0
POINTS 957
DATA ascii
-0.27257088 -0.21360879 0.078644022 0 0 0 0 72.134972
-0.27072039 -0.2184384 0.091801494 0 0 0 0 72.159706
-3.6687806 -2.5636303 0.096507765 0 0 0 0 72.164658
-0.29486462 -0.25146511 0.077127598 0 0 0 0 72.174545
-3.7230601 -2.6789799 0.241873 0 0 0 0 72.189392
-0.27090618 -0.25565359 0.079508446 0 0 0 0 72.214127
-2.4896772 -3.976234 -0.12150333 0 0 0 0 72.225204
-2.4336793 -3.9415314 0.022574363 0 0 0 0 72.249939
-2.5541513 -3.9876938 0.14225064 0 0 0 0 72.25489
-2.4271717 -3.9887652 0.14345859 0 0 0 0 72.274673
-2.4959185 -3.9503696 0.26230425 0 0 0 0 72.279625
-1.2305334 -5.2851415 -0.043287899 0 0 0 0 72.502235
-1.3742388 -5.3581023 0.075594023 0 0 0 0 72.507187
-1.2319473 -5.3172441 0.081319682 0 0 0 0 72.52697
-1.3509429 -5.3266926 0.1814454 0 0 0 0 72.531921
-1.3378445 -5.3242831 0.28164941 0 0 0 0 72.556656
-0.36556196 -5.5758638 0.013497431 0 0 0 0 72.640755
-0.23455647 -5.5638542 0.023574864 0 0 0 0 72.660545
-0.36645764 -5.5682778 0.11750597 0 0 0 0 72.665489
-0.10632212 -5.644876 0.031058162 0 0 0 0 72.680328
-0.23752935 -5.5703254 0.12278081 0 0 0 0 72.68528
-0.3559764 -5.5421553 0.197327 0 0 0 0 72.690224
0.023150342 -5.6829505 0.040531754 0 0 0 0 72.831543
-0.11070971 -5.6884379 0.12845664 0 0 0 0 72.836487
-0.23040856 -5.5762863 0.1996897 0 0 0 0 72.841431
-0.34959495 -5.5221643 0.26982224 0 0 0 0 72.846382
0.15899661 -5.8080392 0.048775986 0 0 0 0 72.851326
0.019025875 -5.7124968 0.13408579 0 0 0 0 72.856277
-0.10343021 -5.6913743 0.20269819 0 0 0 0 72.861221
-0.2261188 -5.583272 0.2689645 0 0 0 0 72.866165
0.303022 -6.0302372 0.055596314 0 0 0 0 72.871117
0.15493236 -5.8326168 0.14025567 0 0 0 0 72.87606
0.026384305 -5.7104959 0.20425214 0 0 0 0 72.881012
-0.098940335 -5.6773944 0.26965237 0 0 0 0 72.885956
0.45281181 -6.1604323 0.065051638 0 0 0 0 72.8909
0.29813057 -6.0348096 0.14676246 0 0 0 0 72.895851
0.16200228 -5.8656421 0.20896253 0 0 0 0 72.900795
0.030699974 -5.7195592 0.26856139 0 0 0 0 72.905746
0.60959983 -6.290688 0.074574016 0 0 0 0 72.91069
0.44783258 -6.1780491 0.1534204 0 0 0 0 72.915642
0.30539146 -6.0478687 0.21316494 0 0 0 0 72.920586
0.16693313 -5.9217529 0.27100694 0 0 0 0 72.925529
0.76945627 -6.4129729 0.084004007 0 0 0 0 72.930481
0.60362887 -6.3103423 0.15996715 0 0 0 0 72.935425
0.45604026 -6.1991467 0.21795779 0 0 0 0 72.940376
0.31163567 -6.0700254 0.27269831 0 0 0 0 72.94532
0.95898145 -6.6895313 0.094091125 0 0 0 0 72.950264
0.77481097 -6.5127645 0.16774106 0 0 0 0 72.955215
0.61278361 -6.3404942 0.22165509 0 0 0 0 72.960159
0.46050265 -6.1993361 0.27413705 0 0 0 0 72.965111
1.164363 -6.9822273 0.1045765 0 0 0 0 72.970055
0.95500785 -6.7122498 0.17655522 0 0 0 0 72.974998
0.7840696 -6.532949 0.22727841 0 0 0 0 72.97995
0.61909688 -6.3607445 0.27516353 0 0 0 0 72.984894
1.3637736 -7.1528215 0.11712339 0 0 0 0 72.989845
1.1613523 -7.0099688 0.18613105 0 0 0 0 72.994789
0.96620446 -6.7435122 0.23228417 0 0 0 0 72.999741
0.79234695 -6.5602622 0.27791649 0 0 0 0 73.004684
1.5750155 -7.343533 0.12909266 0 0 0 0 73.009628
1.3588675 -7.1726098 0.1945399 0 0 0 0 73.01458
1.1716962 -7.026257 0.2396241 0 0 0 0 73.019524
0.97554219 -6.7668819 0.27987346 0 0 0 0 73.024475
1.5682141 -7.3543525 0.20335568 0 0 0 0 73.034363
1.3683512 -7.1759381 0.24482654 0 0 0 0 73.039314
1.1839274 -7.0646977 0.28447682 0 0 0 0 73.044258
1.579697 -7.3617601 0.24972601 0 0 0 0 73.059105
1.3787487 -7.1994267 0.2854329 0 0 0 0 73.064049
2.8745465 -10.006496 0.18747897 0 0 0 0 73.068993
2.2650023 -6.2296014 0.18869923 0 0 0 0 73.128357
2.3379228 -5.9970999 0.19685234 0 0 0 0 73.148148
2.2606525 -6.2310615 0.2228259 0 0 0 0 73.153091
3.8745654 -11.448186 0.34459028 0 0 0 0 73.158043
2.4674358 -5.9271054 0.20604196 0 0 0 0 73.167938
2.3385403 -6.0086946 0.22517879 0 0 0 0 73.172882
2.2725167 -6.228971 0.2370404 0 0 0 0 73.177826
3.8874795 -11.438128 0.35774904 0 0 0 0 73.182777
2.6439781 -5.9675102 0.21737517 0 0 0 0 73.187721
2.4680982 -5.9377632 0.23035373 0 0 0 0 73.192673
2.3494687 -6.0056896 0.23336798 0 0 0 0 73.197617
2.2756746 -6.2059927 0.23884909 0 0 0 0 73.20256
5.6112919 -11.93749 0.35229126 0 0 0 0 73.207512
2.6457028 -5.9762549 0.23666741 0 0 0 0 73.212456
2.4771605 -5.9248209 0.23337048 0 0 0 0 73.217407
2.356576 -5.9928069 0.23136717 0 0 0 0 73.222351
3.0740256 -6.1639485 0.24454634 0 0 0 0 73.227303
5.6355124 -11.988271 0.38351762 0 0 0 0 73.232246
2.6577656 -5.9674015 0.23577568 0 0 0 0 73.23719
2.4921803 -5.927084 0.2266764 0 0 0 0 73.242142
3.2233517 -6.1141138 0.25523433 0 0 0 0 73.247086
3.0729182 -6.1628118 0.25466183 0 0 0 0 73.252037
5.6676474 -11.978776 0.37186992 0 0 0 0 73.256981
2.6679633 -5.9547024 0.22380528 0 0 0 0 73.261925
6.3315487 -11.378993 0.40760976 0 0 0 0 73.266876
3.2292104 -6.1231303 0.25957063 0 0 0 0 73.27182
3.0861232 -6.1481261 0.24369194 0 0 0 0 73.276772
2.9635942 -6.2253265 0.22681344 0 0 0 0 73.281715
4.1672997 -7.1058135 0.30848885 0 0 0 0 73.286667
6.3345284 -11.376079 0.40680084 0 0 0 0 73.291611
3.2503452 -6.120575 0.24486172 0 0 0 0 73.296555
3.1013837 -6.1386285 0.22181976 0 0 0 0 73.301506
4.2782683 -6.933126 0.3201443 0 0 0 0 73.659119
4.1856813 -7.1295877 0.30442175 0 0 0 0 73.66407
6.3790131 -11.381769 0.37049049 0 0 0 0 73.669014
3.2643445 -6.1055598 0.21991797 0 0 0 0 73.673965
7.3899231 -11.394026 0.48302406 0 0 0 0 73.678909
4.2902932 -6.9404683 0.30752355 0 0 0 0 73.683861
4.1932797 -7.0911765 0.27303764 0 0 0 0 73.688805
4.0322065 -7.1383643 0.23433393 0 0 0 0 73.693748
7.0343289 -10.324914 0.47108874 0 0 0 0 73.6987
8.0640621 -12.407273 0.48137984 0 0 0 0 73.703644
4.2970014 -6.8951297 0.2710197 0 0 0 0 73.708595
4.1705084 -6.9946938 0.22845703 0 0 0 0 73.713539
11.222419 -15.699598 0.69737273 0 0 0 0 73.718483
7.0625448 -10.336837 0.43173197 0 0 0 0 73.723434
6.9212708 -10.553719 0.36189026 0 0 0 0 73.728378
4.3097491 -6.8590479 0.22171423 0 0 0 0 73.73333
11.564539 -15.425238 0.72440135 0 0 0 0 73.738274
11.226452 -15.653899 0.62095416 0 0 0 0 73.743217
7.1478796 -10.368761 0.36120909 0 0 0 0 73.748169
7.0619445 -10.674342 0.27927366 0 0 0 0 73.753113
11.864087 -15.106557 0.74733859 0 0 0 0 73.758064
11.584586 -15.3929 0.63433701 0 0 0 0 73.763008
11.322653 -15.641793 0.49590126 0 0 0 0 73.76796
11.07845 -15.924903 0.354168 0 0 0 0 73.772903
11.66116 -14.181706 0.74409127 0 0 0 0 73.777847
11.936732 -15.132882 0.64567941 0 0 0 0 73.782799
11.685907 -15.382063 0.49534848 0 0 0 0 73.787743
11.426138 -15.631259 0.33893529 0 0 0 0 73.792694
15.01986 -17.451244 0.93778944 0 0 0 0 73.797638
12.037335 -15.103232 0.49438471 0 0 0 0 73.807533
11.761937 -15.32653 0.32241666 0 0 0 0 73.812477
8.8316221 -9.8040943 0.60033262 0 0 0 0 73.817429
15.116103 -17.466661 0.78120613 0 0 0 0 73.822372
8.1786957 -8.6826353 0.56776392 0 0 0 0 73.837212
8.1944485 -9.0413914 0.46960676 0 0 0 0 73.842163
11.156096 -11.317977 0.74298471 0 0 0 0 73.857002
7.2262864 -7.6162419 0.42531237 0 0 0 0 73.861946
7.6290398 -8.3164682 0.33011457 0 0 0 0 73.866898
11.718298 -11.368471 0.78114218 0 0 0 0 73.876793
6.8040857 -7.0824003 0.30013713 0 0 0 0 73.886681
6.3055425 -6.474874 0.1740775 0 0 0 0 73.911423
5.9740763 -5.8540268 0.16231398 0 0 0 0 73.931206
5.7662244 -5.3892694 0.15315172 0 0 0 0 73.950996
8.7162933 -7.0645685 0.62398165 0 0 0 0 73.95594
8.3328438 -6.4493766 0.60482961 0 0 0 0 73.975731
8.0423851 -5.9439464 0.59126502 0 0 0 0 73.995522
8.382513 -6.4060845 0.46474966 0 0 0 0 74.000465
6.5898571 -5.3380303 0.13628106 0 0 0 0 74.010361
7.7467265 -5.462481 0.57702273 0 0 0 0 74.015305
7.9361229 -5.7853332 0.44490805 0 0 0 0 74.020256
8.1854095 -6.135951 0.29878581 0 0 0 0 74.0252
6.7818589 -5.2308693 0.13046928 0 0 0 0 74.030144
7.5591278 -5.0829115 0.56838727 0 0 0 0 74.035095
7.553978 -5.2491393 0.42698979 0 0 0 0 74.040039
7.8680243 -5.6212502 0.2868098 0 0 0 0 74.044991
7.3375535 -4.7030725 0.55742633 0 0 0 0 74.054886
7.3643475 -4.8735509 0.41839173 0 0 0 0 74.05983
7.5871649 -5.1598649 0.27600825 0 0 0 0 74.064774
9.4013824 -5.733788 0.68701285 0 0 0 0 74.074669
6.5402746 -4.1196356 0.38190633 0 0 0 0 74.07962
6.4679661 -4.1831369 0.24725503 0 0 0 0 74.084564
6.4433761 -4.2821212 0.10960852 0 0 0 0 74.089508
9.3362074 -5.4111905 0.68741429 0 0 0 0 74.09446
6.6872387 -4.0048871 0.38755047 0 0 0 0 74.099403
6.6796656 -4.1040545 0.24806415 0 0 0 0 74.104355
7.272656 -4.0034199 0.56204849 0 0 0 0 74.114243
6.8322754 -3.8821237 0.39304873 0 0 0 0 74.119194
6.8108578 -3.96925 0.24824238 0 0 0 0 74.124138
6.7018995 -4.0096688 0.097882383 0 0 0 0 74.129089
7.7332668 -4.0355711 0.59235263 0 0 0 0 73.867874
6.7217684 -3.6187077 0.38646007 0 0 0 0 73.872818
7.0128551 -3.8725576 0.24715695 0 0 0 0 73.877769
7.3668938 -3.641608 0.57086188 0 0 0 0 73.887657
6.6518049 -3.3901482 0.38230631 0 0 0 0 73.892609
6.8335533 -3.5700438 0.24082936 0 0 0 0 73.897552
7.4711609 -3.4874046 0.58049136 0 0 0 0 73.907448
6.5797715 -3.1685536 0.37923995 0 0 0 0 73.912392
6.7437463 -3.3253279 0.23523441 0 0 0 0 73.917343
6.7494345 -3.4118564 0.079659186 0 0 0 0 73.922287
6.5116596 -2.9570074 0.37536484 0 0 0 0 73.932182
6.6199617 -3.077296 0.23026998 0 0 0 0 73.937134
6.6376948 -3.1589322 0.074727997 0 0 0 0 73.942078
6.4554496 -2.7555494 0.37275559 0 0 0 0 73.951973
6.5468974 -2.860708 0.22626628 0 0 0 0 73.956917
6.3951883 -2.5600548 0.3702001 0 0 0 0 73.971756
6.5245881 -2.6715648 0.22316167 0 0 0 0 73.976707
6.3577919 -2.3797598 0.3680931 0 0 0 0 73.991547
6.490273 -2.4833155 0.21995752 0 0 0 0 73.99649
5.8593287 -2.2940617 0.066139311 0 0 0 0 74.001442
6.3213429 -2.2054727 0.36608717 0 0 0 0 74.011337
6.4399514 -2.2949085 0.21760038 0 0 0 0 74.016281
5.7800031 -2.1074128 0.062537894 0 0 0 0 74.021233
6.2948408 -2.0362568 0.36525074 0 0 0 0 74.03112
6.4185038 -2.1217709 0.2147487 0 0 0 0 74.036072
5.7544856 -1.9432524 0.058786467 0 0 0 0 74.041016
9.3846922 -2.7194717 0.72473788 0 0 0 0 74.045967
6.2872305 -1.8792067 0.36477923 0 0 0 0 74.050911
6.3830681 -1.9475094 0.21174724 0 0 0 0 74.055855
5.6979995 -1.7748026 0.055678546 0 0 0 0 74.060806
8.5460415 -2.273726 0.67301679 0 0 0 0 74.06575
6.2536783 -1.7169433 0.36298272 0 0 0 0 74.070702
6.3306437 -1.7720977 0.20856772 0 0 0 0 74.075645
5.6614137 -1.6185433 0.05194509 0 0 0 0 74.080597
7.9653378 -1.934072 0.63635314 0 0 0 0 74.085541
6.2230916 -1.5587054 0.36127487 0 0 0 0 74.090485
6.3081198 -1.607949 0.20584048 0 0 0 0 74.095436
5.6527557 -1.47053 0.048598085 0 0 0 0 74.10038
7.7604575 -1.7033981 0.6258893 0 0 0 0 74.105331
6.1984692 -1.4035041 0.36066797 0 0 0 0 74.110275
6.2665896 -1.4436162 0.20393214 0 0 0 0 74.115219
5.5861931 -1.3109893 0.045530297 0 0 0 0 74.120171
7.7161055 -1.5170135 0.62561047 0 0 0 0 74.125114
6.1778212 -1.2523533 0.35915959 0 0 0 0 74.130066
6.2449965 -1.2874748 0.20133559 0 0 0 0 74.13501
5.5525126 -1.1647379 0.042975213 0 0 0 0 74.139954
7.6707282 -1.334635 0.62438262 0 0 0 0 74.144905
6.1511469 -1.1031327 0.35862389 0 0 0 0 74.149849
6.2243958 -1.1323417 0.1987617 0 0 0 0 74.1548
5.5138159 -1.0214577 0.039418433 0 0 0 0 74.159744
7.6502776 -1.1574291 0.62646508 0 0 0 0 74.164696
6.1404285 -0.95905316 0.35831532 0 0 0 0 74.16964
6.1837893 -0.97803116 0.19601327 0 0 0 0 74.174583
5.5010643 -0.88440657 0.036198553 0 0 0 0 74.179535
7.6857061 -0.99168563 0.63124496 0 0 0 0 74.184479
6.1067314 -0.81378549 0.35677263 0 0 0 0 74.18943
6.1671181 -0.82991624 0.19458273 0 0 0 0 74.194374
5.4912953 -0.74836582 0.034020338 0 0 0 0 74.199318
7.7141547 -0.82388067 0.63592517 0 0 0 0 74.204269
6.0850163 -0.67062378 0.35537195 0 0 0 0 74.209213
6.1314597 -0.68164855 0.19197135 0 0 0 0 74.214165
5.4815187 -0.61434078 0.03087195 0 0 0 0 74.219109
7.7286515 -0.65196824 0.63940799 0 0 0 0 74.224052
6.0852556 -0.53062469 0.35622317 0 0 0 0 74.229004
6.0988021 -0.53239137 0.19036949 0 0 0 0 74.233948
7.7491217 -0.48209295 0.64397639 0 0 0 0 74.243843
6.0724969 -0.39152598 0.355966 0 0 0 0 74.248795
6.0830994 -0.38929999 0.18802063 0 0 0 0 74.253738
7.804563 -0.31451237 0.64990354 0 0 0 0 74.263634
6.0637298 -0.25346249 0.3557601 0 0 0 0 74.268578
6.0363822 -0.2469168 0.18639331 0 0 0 0 74.273529
7.8600235 -0.14391668 0.65678066 0 0 0 0 74.283417
6.0809531 -0.11662994 0.35581285 0 0 0 0 74.288368
5.9866757 -0.10452256 0.18373528 0 0 0 0 74.293312
4.2071857 -0.071745731 0.038696121 0 0 0 0 74.298264
7.9105048 0.027706901 0.66259289 0 0 0 0 74.303207
6.0831609 0.019352043 0.35673809 0 0 0 0 74.308159
5.955905 0.031720065 0.18234907 0 0 0 0 74.313103
4.2070885 0.027218038 0.0371827 0 0 0 0 74.318047
7.9460063 0.20146327 0.66822976 0 0 0 0 74.322998
6.0773883 0.15638904 0.35657007 0 0 0 0 74.327942
5.9321537 0.1699003 0.18099464 0 0 0 0 74.332893
4.1940117 0.12728129 0.034529448 0 0 0 0 74.337837
6.0717525 0.29278132 0.35786498 0 0 0 0 74.719902
5.9165545 0.30633622 0.18017936 0 0 0 0 74.724854
4.161067 0.22602127 0.035012957 0 0 0 0 74.729797
8.0562305 0.56091243 0.68425274 0 0 0 0 74.734741
6.0810194 0.43369952 0.35875094 0 0 0 0 74.739693
5.861783 0.4407979 0.17856756 0 0 0 0 74.744637
4.1700072 0.32688755 0.03253438 0 0 0 0 74.749588
6.0812616 0.57169908 0.35959733 0 0 0 0 74.759476
5.8330197 0.57602602 0.17718492 0 0 0 0 74.764427
4.1469054 0.42405835 0.030813538 0 0 0 0 74.769371
6.0825138 0.70967352 0.35945135 0 0 0 0 74.779266
5.7812138 0.70646214 0.17566119 0 0 0 0 74.784218
4.1258225 0.523211 0.029077904 0 0 0 0 74.789162
6.1737881 0.8360039 0.55635327 0 0 0 0 74.794106
6.0867939 0.85163635 0.36026728 0 0 0 0 74.799057
5.7444167 0.83674753 0.17327821 0 0 0 0 74.804001
4.1217394 0.62119472 0.026519028 0 0 0 0 74.808952
6.0949483 0.9606536 0.55266666 0 0 0 0 74.813896
6.1060648 0.99348044 0.36222404 0 0 0 0 74.81884
5.6976032 0.96613955 0.17181346 0 0 0 0 74.823792
4.1126666 0.72123933 0.02487847 0 0 0 0 74.828735
6.0941658 1.0976962 0.55551142 0 0 0 0 74.833687
6.068315 1.1297902 0.36073193 0 0 0 0 74.838631
5.6417556 1.0916138 0.17032485 0 0 0 0 74.843575
4.0865684 0.8184377 0.023122368 0 0 0 0 74.848526
5.6039529 1.2219255 0.16892512 0 0 0 0 74.863365
4.0835152 0.92042804 0.021503624 0 0 0 0 74.868317
6.0438786 1.4130137 0.36204955 0 0 0 0 74.878204
5.6232567 1.3637213 0.1678742 0 0 0 0 74.883156
4.0664363 1.0195452 0.019797875 0 0 0 0 74.8881
6.0578661 1.510082 0.56069243 0 0 0 0 74.893051
6.0562191 1.5609035 0.36283427 0 0 0 0 74.897995
5.538341 1.4814595 0.16623046 0 0 0 0 74.902939
4.0563855 1.1205828 0.017125309 0 0 0 0 74.90789
6.0471258 1.6501986 0.56238472 0 0 0 0 74.912834
6.1417379 1.731179 0.36694315 0 0 0 0 74.917786
5.510541 1.6116817 0.16491947 0 0 0 0 74.922729
4.0453358 1.2226455 0.015425215 0 0 0 0 74.927681
6.1095357 1.8127494 0.57040066 0 0 0 0 74.932625
6.1761894 1.8928998 0.3697077 0 0 0 0 74.937569
5.4606795 1.7351041 0.1635088 0 0 0 0 74.94252
4.0403228 1.3286533 0.013716229 0 0 0 0 74.947464
6.1649756 1.9773464 0.57731551 0 0 0 0 74.952415
6.2427864 2.0713444 0.37350151 0 0 0 0 74.957359
5.4419179 1.8692447 0.1622148 0 0 0 0 74.962303
4.030293 1.4327068 0.011990058 0 0 0 0 74.967255
6.180356 2.1322575 0.58100748 0 0 0 0 74.972198
6.2843409 2.243999 0.376151 0 0 0 0 74.97715
5.3970857 1.9966382 0.16178255 0 0 0 0 74.982094
4.0263095 1.5417051 0.010238796 0 0 0 0 74.987038
6.2398987 2.3088319 0.58876216 0 0 0 0 74.991989
6.3028812 2.413846 0.37762645 0 0 0 0 74.996933
5.3863902 2.1377058 0.16044746 0 0 0 0 75.001884
4.0233455 1.651678 0.0074794427 0 0 0 0 75.006828
6.2944803 2.4894507 0.59640211 0 0 0 0 75.01178
6.3254499 2.587672 0.38007295 0 0 0 0 75.016724
5.3556142 2.270972 0.16004767 0 0 0 0 75.021667
4.0153828 1.7627121 0.0056540603 0 0 0 0 75.026619
6.3902335 2.6917429 0.60707617 0 0 0 0 75.031563
6.4484429 2.8126652 0.38763323 0 0 0 0 75.036514
5.3449392 2.4140396 0.15867566 0 0 0 0 75.041458
4.0315385 1.8865269 0.0038465771 0 0 0 0 75.046402
6.5011163 2.9099281 0.61963248 0 0 0 0 75.051353
6.5835662 3.0505297 0.39409587 0 0 0 0 75.056297
5.3503561 2.5679762 0.15827653 0 0 0 0 75.061249
4.0366783 2.0074253 0.00098057953 0 0 0 0 75.066193
6.6482086 3.153831 0.63511008 0 0 0 0 75.071136
6.1273427 3.008389 0.37552488 0 0 0 0 75.076088
4.0448647 2.1343117 -0.00095586723 0 0 0 0 75.085983
6.8927903 3.4589732 0.65851021 0 0 0 0 75.090927
6.10182 3.1706364 0.37669486 0 0 0 0 75.095879
4.0691895 2.2750342 -0.0039673839 0 0 0 0 75.105766
7.3624668 3.9013517 0.69980216 0 0 0 0 75.110718
6.1024623 3.3516614 0.37880352 0 0 0 0 75.115662
4.1233687 2.3419662 0.14651991 0 0 0 0 75.120613
4.0935526 2.4197557 -0.0070457193 0 0 0 0 75.125557
7.6837745 4.2939315 0.73149812 0 0 0 0 75.130501
4.140667 2.4828017 0.14643764 0 0 0 0 75.140396
4.1189723 2.5704668 -0.010213849 0 0 0 0 75.145348
6.0545716 3.6911108 0.3799153 0 0 0 0 75.155243
4.1449213 2.6187561 0.14630952 0 0 0 0 75.160187
4.2722692 2.812959 -0.016672228 0 0 0 0 75.165131
6.0000205 3.8486068 0.37987658 0 0 0 0 75.175026
4.170351 2.7735162 0.14607278 0 0 0 0 75.179977
4.2495108 2.9461408 -0.01801453 0 0 0 0 75.184921
5.9511657 4.0105391 0.37911153 0 0 0 0 74.905861
4.2186937 2.9514852 0.14596209 0 0 0 0 74.910805
4.3765349 3.1933017 -0.025495691 0 0 0 0 74.915756
4.3861866 3.2249849 0.14714664 0 0 0 0 74.930595
4.4274359 3.3957617 -0.030258251 0 0 0 0 74.935547
4.4622035 3.4452984 0.1473304 0 0 0 0 74.950386
4.4129386 3.5578644 -0.031983532 0 0 0 0 74.95533
4.5946794 3.5709305 0.32360283 0 0 0 0 74.965225
4.6259685 3.748843 0.14898604 0 0 0 0 74.970169
4.2573423 3.6043181 -0.029160921 0 0 0 0 74.975121
4.7060156 3.833034 0.33043724 0 0 0 0 74.985016
5.0630465 4.3079562 0.15306062 0 0 0 0 74.98996
4.2338023 3.7615042 -0.030896517 0 0 0 0 74.994904
4.9061456 4.1874223 0.34260604 0 0 0 0 75.004799
4.8734107 4.3456535 0.15169904 0 0 0 0 75.00975
4.2002463 3.9167809 -0.032698199 0 0 0 0 75.014694
5.4391112 4.6575499 0.58806086 0 0 0 0 75.019646
5.3564353 4.7907486 0.3670831 0 0 0 0 75.02459
4.8420496 4.5239391 0.15154117 0 0 0 0 75.029533
4.1061535 4.0166602 -0.031171698 0 0 0 0 75.034485
5.5438118 4.9678526 0.60304052 0 0 0 0 75.039429
3.7141466 3.8073792 -0.020424685 0 0 0 0 75.054268
6.621202 6.2107816 0.70602959 0 0 0 0 75.059219
5.1417742 5.0406418 0.36306128 0 0 0 0 75.064163
3.6936932 3.9735391 -0.02228657 0 0 0 0 75.074059
4.2707229 4.5910711 0.14816144 0 0 0 0 75.088898
3.6685607 4.1294327 0.1430295 0 0 0 0 75.108688
3.1085873 3.865088 -0.0069375783 0 0 0 0 75.133423
3.0152473 3.9369538 -0.0059582312 0 0 0 0 75.153214
3.1127698 4.0364299 0.14039373 0 0 0 0 75.168053
2.6503544 3.6324513 0.0065963906 0 0 0 0 75.172997
2.5649393 3.6962488 0.0077805691 0 0 0 0 75.192787
4.2701945 5.4773788 0.53593826 0 0 0 0 75.197731
3.0406718 4.3511086 0.14063604 0 0 0 0 75.207626
2.5170856 3.8196838 0.0073438263 0 0 0 0 75.212578
3.7495995 5.0353479 0.49025005 0 0 0 0 75.217522
3.1898918 4.5301757 0.29017422 0 0 0 0 75.222466
2.7375696 4.117816 0.13860846 0 0 0 0 75.227417
2.3687885 3.7900956 0.01145574 0 0 0 0 75.232361
2.4483438 3.8714004 0.13692828 0 0 0 0 75.247208
2.1309342 3.5943718 0.019436322 0 0 0 0 75.252151
1.9619802 3.4939814 0.02451067 0 0 0 0 75.271942
3.5540912 8.6124411 0.59091514 0 0 0 0 75.197235
3.2198298 8.3340292 0.56429499 0 0 0 0 75.217026
2.9055555 8.0544386 0.53788501 0 0 0 0 75.236809
2.4941885 7.6908565 0.33389425 0 0 0 0 75.24176
2.6114156 7.7906814 0.51240873 0 0 0 0 75.256599
2.2363095 7.4710102 0.32304716 0 0 0 0 75.261551
1.8816761 7.1236115 0.16233942 0 0 0 0 75.266495
2.3558247 7.5926671 0.49222437 0 0 0 0 75.27639
1.9946121 7.2720332 0.3130132 0 0 0 0 75.281334
1.6661677 6.9555564 0.16205072 0 0 0 0 75.286285
1.3590159 6.67698 0.016671158 0 0 0 0 75.291229
2.1070831 7.3785939 0.47236902 0 0 0 0 75.296173
1.7658747 7.0699563 0.30415431 0 0 0 0 75.301125
1.4576015 6.7814407 0.16192798 0 0 0 0 75.306068
1.168529 6.5198288 0.024444522 0 0 0 0 75.31102
1.8765142 7.1843715 0.45336223 0 0 0 0 75.315964
1.5512921 6.8847508 0.29515445 0 0 0 0 75.320908
1.265227 6.6291928 0.16260166 0 0 0 0 75.325859
0.98716962 6.376595 0.032077182 0 0 0 0 75.330803
1.6590441 7.0030627 0.43626958 0 0 0 0 75.335754
1.3549562 6.7284102 0.28785601 0 0 0 0 75.340698
1.0798693 6.4778666 0.16232741 0 0 0 0 75.34565
0.81683612 6.2352452 0.038784254 0 0 0 0 75.350594
1.4556642 6.8326426 0.42013332 0 0 0 0 75.355537
1.1644888 6.5570035 0.27986115 0 0 0 0 75.360489
0.90664834 6.3414302 0.161925 0 0 0 0 75.365433
0.65363032 6.1088476 0.046314582 0 0 0 0 75.370384
1.259217 6.6551614 0.40417981 0 0 0 0 75.375328
0.98733407 6.4215055 0.27340478 0 0 0 0 75.380272
0.73729563 6.191977 0.16277389 0 0 0 0 75.385223
0.49842289 5.9813614 0.052939273 0 0 0 0 75.390167
1.0779988 6.5055885 0.39091453 0 0 0 0 75.395119
0.81714946 6.2839622 0.26804906 0 0 0 0 75.400063
0.5790152 6.0494075 0.16261581 0 0 0 0 75.405006
0.34812096 5.8438334 0.059776288 0 0 0 0 75.409958
0.9068436 6.3619084 0.37664878 0 0 0 0 75.414902
0.65599102 6.1483212 0.26174858 0 0 0 0 75.419853
0.42798364 5.9347868 0.16306843 0 0 0 0 75.424797
0.20809595 5.7351937 0.065237015 0 0 0 0 75.429749
0.73965865 6.217226 0.36443844 0 0 0 0 75.434692
0.50282115 6.0126247 0.25652596 0 0 0 0 75.439636
0.28389466 5.8141046 0.16368733 0 0 0 0 75.444588
0.070976436 5.6175461 0.071874186 0 0 0 0 75.449532
0.58473164 6.1014466 0.35287055 0 0 0 0 75.454483
0.35481718 5.8948808 0.25105807 0 0 0 0 75.459427
0.14579476 5.692369 0.16438128 0 0 0 0 75.464371
-0.057949226 5.5198064 0.077262409 0 0 0 0 75.469322
0.43360797 5.9646358 0.34168538 0 0 0 0 75.474266
0.21383931 5.7810898 0.24659286 0 0 0 0 75.479218
0.012869965 5.5906019 0.1657968 0 0 0 0 75.484161
-0.18393192 5.4160414 0.082778268 0 0 0 0 75.489113
0.28959408 5.840776 0.3313559 0 0 0 0 75.494057
0.078841299 5.6652451 0.24221906 0 0 0 0 75.499001
-0.1150932 5.4837742 0.16634323 0 0 0 0 75.503952
-0.30410263 5.2932429 0.089663744 0 0 0 0 75.508896
0.15264376 5.7238517 0.32098022 0 0 0 0 75.513847
-0.051158123 5.549356 0.2378943 0 0 0 0 75.518791
-0.23614155 5.366869 0.16612206 0 0 0 0 75.523735
-0.42186442 5.2134027 0.094865076 0 0 0 0 75.528687
0.020766374 5.6158972 0.311506 0 0 0 0 75.53363
-0.1760378 5.4464197 0.23340565 0 0 0 0 75.538582
-0.35513562 5.257978 0.16778953 0 0 0 0 75.543526
-0.533786 5.1165118 0.10040349 0 0 0 0 75.54847
-0.10609366 5.5098982 0.30204797 0 0 0 0 75.553421
-0.29797482 5.3384743 0.23002835 0 0 0 0 75.558365
-0.46992561 5.1700315 0.16815226 0 0 0 0 75.563316
-0.64368057 5.022603 0.1059126 0 0 0 0 75.56826
-0.22901109 5.398881 0.2937111 0 0 0 0 75.573212
-0.41290379 5.2304492 0.22571981 0 0 0 0 75.578156
-0.58179152 5.0750756 0.16965911 0 0 0 0 75.583099
-0.75054836 4.9316673 0.11140209 0 0 0 0 75.588051
-0.34886438 5.2948356 0.28528911 0 0 0 0 75.592995
-0.52675021 5.1334472 0.22324073 0 0 0 0 75.597946
-0.69146246 5.0010996 0.17084117 0 0 0 0 75.60289
-0.85430527 4.8527031 0.11672419 0 0 0 0 75.607834
-0.46339914 5.1977034 0.27790022 0 0 0 0 75.792625
-0.63525337 5.0443277 0.21978211 0 0 0 0 75.797569
-0.79701751 4.9120383 0.17241363 0 0 0 0 75.802513
-0.95482844 4.7716646 0.12221683 0 0 0 0 75.807465
-0.57517439 5.1036048 0.27039453 0 0 0 0 75.812408
-0.74392766 4.9672985 0.21802467 0 0 0 0 75.81736
-0.89781541 4.8239713 0.1729158 0 0 0 0 75.822304
-1.0545717 4.6946692 0.12754679 0 0 0 0 75.827248
-0.68291318 5.0134702 0.26286238 0 0 0 0 75.832199
-0.84577161 4.8701763 0.21466631 0 0 0 0 75.837143
-0.99854881 4.7449365 0.17526947 0 0 0 0 75.842094
-1.1483727 4.6116209 0.13303472 0 0 0 0 75.847038
-0.78769058 4.9193087 0.25542602 0 0 0 0 75.85199
-0.94648528 4.7880592 0.21207045 0 0 0 0 75.856934
-1.0943112 4.6618404 0.17673862 0 0 0 0 75.861877
-1.2431272 4.5335817 0.13843073 0 0 0 0 75.866829
-0.89131892 4.8431692 0.24970226 0 0 0 0 75.871773
-1.048134 4.7139678 0.21033281 0 0 0 0 75.876724
-1.1899991 4.5857272 0.1770927 0 0 0 0 75.881668
-1.3348169 4.4614978 0.14275749 0 0 0 0 75.886612
-0.99200433 4.7599874 0.24312395 0 0 0 0 75.891563
-1.1428685 4.6297975 0.20782936 0 0 0 0 75.896507
-1.2836977 4.5106301 0.17944977 0 0 0 0 75.901459
-1.4235547 4.3854046 0.14817984 0 0 0 0 75.906403
-1.0877568 4.6697612 0.2367107 0 0 0 0 75.911346
-1.236585 4.5486345 0.20628634 0 0 0 0 75.916298
-1.3714819 4.4254632 0.18103145 0 0 0 0 75.921242
-1.5112933 4.3093033 0.15361235 0 0 0 0 75.926193
-1.1843596 4.5965586 0.2310068 0 0 0 0 75.931137
-1.3292176 4.4754457 0.2036214 0 0 0 0 75.936089
-1.4611255 4.3553128 0.1823459 0 0 0 0 75.941032
-1.5989573 4.2412009 0.15891284 0 0 0 0 75.945976
-1.277076 4.511322 0.22554094 0 0 0 0 75.950928
-1.4188888 4.3992467 0.20203559 0 0 0 0 75.955872
-1.5517416 4.2891884 0.18458439 0 0 0 0 75.960823
-1.6796978 4.1640196 0.16343141 0 0 0 0 75.965767
-1.3686899 4.4370747 0.21990322 0 0 0 0 75.970711
-1.5095323 4.3260574 0.20039064 0 0 0 0 75.975662
-1.6374151 4.2160029 0.18598825 0 0 0 0 75.980606
-1.7643822 4.0938921 0.16879506 0 0 0 0 75.985558
-1.4563708 4.3568091 0.21540426 0 0 0 0 75.990501
-1.5961863 4.251832 0.19880182 0 0 0 0 75.995453
-1.7181652 4.1347737 0.18757403 0 0 0 0 76.000397
-1.8519354 4.0388064 0.17488086 0 0 0 0 76.005341
-1.54892 4.2905879 0.21062468 0 0 0 0 76.010292
-1.6778885 4.1725616 0.1973453 0 0 0 0 76.015236
-1.8057175 4.0756226 0.18972678 0 0 0 0 76.020187
-1.9326118 3.9686265 0.17928447 0 0 0 0 76.025131
-1.6326023 4.20927 0.20518251 0 0 0 0 76.030075
-1.7644969 4.104353 0.19665758 0 0 0 0 76.035027
-1.8883746 4.0054278 0.19211116 0 0 0 0 76.03997
-2.0103085 3.8974361 0.1847343 0 0 0 0 76.044922
-1.7191912 4.1400118 0.20151193 0 0 0 0 76.049866
-1.8510681 4.0401444 0.19590378 0 0 0 0 76.05481
-1.9650797 3.9291627 0.19365455 0 0 0 0 76.059761
-2.0939107 3.837317 0.19094282 0 0 0 0 76.064705
-1.80379 4.0687194 0.19689468 0 0 0 0 76.069656
-1.9316969 3.9688659 0.19432549 0 0 0 0 76.0746
-2.0525959 3.8740132 0.19574153 0 0 0 0 76.079552
-2.1715515 3.7711108 0.19531049 0 0 0 0 76.084496
-1.8903329 4.0044618 0.19314167 0 0 0 0 76.089439
-2.0133073 3.9006131 0.19368775 0 0 0 0 76.094391
-2.1292648 3.8027656 0.19820245 0 0 0 0 76.099335
-1.9699615 3.9301248 0.18862404 0 0 0 0 76.10923
-2.09589 3.8353698 0.19299063 0 0 0 0 76.114174
-2.205925 3.7325182 0.20064715 0 0 0 0 76.119125
-0.21447405 0.33976263 0.12160476 0 0 0 0 76.124069
-2.0505815 3.8567975 0.18408035 0 0 0 0 76.129021
-2.1725209 3.764056 0.19145273 0 0 0 0 76.133965
-2.1311548 3.7894866 0.18043709 0 0 0 0 76.148804
-0.21652524 0.33276746 0.12178723 0 0 0 0 76.158699
-0.22466454 0.31885898 0.12295325 0 0 0 0 76.163651
-2.2136908 3.7261941 0.17670794 0 0 0 0 76.168594
-0.21644296 0.33974302 0.1207078 0 0 0 0 76.173538
-0.22569688 0.31283772 0.1221294 0 0 0 0 76.198273
-0.23283641 0.29892004 0.12330546 0 0 0 0 76.203224
-0.2164842 0.33067945 0.11794394 0 0 0 0 76.208168
-0.22364295 0.31577864 0.12013648 0 0 0 0 76.21312
-0.23684971 0.29492638 0.12241899 0 0 0 0 76.237854
-0.24694197 0.28705239 0.12446544 0 0 0 0 76.242798
-0.22961751 0.31376967 0.11719716 0 0 0 0 76.247749
-0.23379591 0.29785803 0.12043595 0 0 0 0 76.252693
-0.25105605 0.28315499 0.12191877 0 0 0 0 76.012306
-0.26711002 0.28136814 0.12580636 0 0 0 0 76.017258
-0.23988199 0.29596317 0.11683694 0 0 0 0 76.022202
-0.24900217 0.28507978 0.11894279 0 0 0 0 76.027145
-0.2740851 0.28038535 0.12384067 0 0 0 0 76.051888
-0.29113907 0.27860799 0.12771827 0 0 0 0 76.056831
-0.25497702 0.28307095 0.11600379 0 0 0 0 76.061775
-0.26805967 0.2782571 0.11997049 0 0 0 0 76.066727
-0.28323787 0.26245555 0.12414933 0 0 0 0 76.091461
-0.28045407 0.24247934 0.12752265 0 0 0 0 76.096405
-0.28394839 0.2843231 0.11580037 0 0 0 0 76.101357
-0.28811696 0.2704275 0.120005 0 0 0 0 76.1063
-0.27551514 0.23035382 0.12385858 0 0 0 0 76.131035
-0.27370337 0.21440291 0.12815581 0 0 0 0 76.135986
-0.2812061 0.25426736 0.11542692 0 0 0 0 76.14093
-0.2784228 0.23530771 0.11978386 0 0 0 0 76.145874
-0.26875505 0.20226052 0.12349257 0 0 0 0 76.170609
-0.27686709 0.19541775 0.12854166 0 0 0 0 76.17556
-0.2774455 0.22620188 0.11503104 0 0 0 0 76.180504
-0.27067226 0.20620525 0.11944444 0 0 0 0 76.185455
-0.2699286 0.18225683 0.12391528 0 0 0 0 76.21019
-0.27803129 0.17641403 0.12894776 0 0 0 0 76.215134
-0.27366644 0.20013593 0.1146028 0 0 0 0 76.220085
-0.27681696 0.1892475 0.11976787 0 0 0 0 76.225029
-0.27307391 0.16527125 0.12426883 0 0 0 0 76.249763
-0.27122506 0.15433633 0.12948346 0 0 0 0 76.254715
-0.28179187 0.18417992 0.11389024 0 0 0 0 76.259659
-0.28196204 0.17228056 0.12010157 0 0 0 0 76.264603
-0.27720046 0.15029468 0.1245796 0 0 0 0 76.289337
-0.27835172 0.1404044 0.13074791 0 0 0 0 76.294289
-0.27202365 0.15705812 0.11353945 0 0 0 0 76.299232
-0.27416533 0.14817697 0.11968122 0 0 0 0 76.304184
-0.29029819 0.13941824 0.12573478 0 0 0 0 76.328918
-0.29642063 0.1325742 0.13180368 0 0 0 0 76.333862
-0.28412107 0.14515556 0.11372136 0 0 0 0 76.338814
-0.29721466 0.14239293 0.12065401 0 0 0 0 76.343758
-0.29842511 0.12549591 0.12698966 0 0 0 0 76.368492
-0.31948948 0.12580769 0.13379292 0 0 0 0 76.373436
-0.29821855 0.1332719 0.11388359 0 0 0 0 76.378387
-0.30832198 0.12948166 0.1208626 0 0 0 0 76.383331
-0.32747421 0.11976863 0.12790291 0 0 0 0 76.408066
-0.33162612 0.11194003 0.13600808 0 0 0 0 76.413017
-0.319287 0.12445343 0.11392634 0 0 0 0 76.417961
-0.33439034 0.12172679 0.12183884 0 0 0 0 76.422913
-0.35057184 0.11000331 0.12994209 0 0 0 0 76.447647
-0.36569455 0.10629396 0.13887103 0 0 0 0 76.452591
-0.34137461 0.11364502 0.11399255 0 0 0 0 76.457535
-0.36046815 0.11195593 0.12184849 0 0 0 0 76.462486
-0.38151845 0.10015491 0.13292156 0 0 0 0 76.890015
-0.39466214 0.09544687 0.14288637 0 0 0 0 76.894966
-0.37827009 0.10681525 0.11486181 0 0 0 0 76.89991
-0.39142337 0.10110743 0.12484349 0 0 0 0 76.904854
-0.39167634 0.083254218 0.1342089 0 0 0 0 76.929596
-0.42279968 0.082750104 0.14592496 0 0 0 0 76.93454
-0.39441738 0.089954056 0.11508908 0 0 0 0 76.939484
-0.39559123 0.082133286 0.12522505 0 0 0 0 76.944435
-0.43579322 0.072708733 0.13705309 0 0 0 0 76.96917
-0.45196635 0.067063965 0.14900418 0 0 0 0 76.974113
-0.4255442 0.075234897 0.11513203 0 0 0 0 76.979065
-0.43770781 0.069535218 0.1261235 0 0 0 0 76.984009
-0.43599105 0.050697882 0.13752614 0 0 0 0 77.008743
-0.45215467 0.046053246 0.14946027 0 0 0 0 77.013695
-0.42573196 0.05320657 0.1146054 0 0 0 0 77.018639
-0.43291575 0.046476983 0.12666394 0 0 0 0 77.023582
-0.46915761 0.034033384 0.1395826 0 0 0 0 77.048317
-0.48136091 0.027385656 0.15359046 0 0 0 0 77.053268
-0.44790852 0.033403739 0.11482392 0 0 0 0 77.058212
-0.46708199 0.028805027 0.1277276 0 0 0 0 77.063164
-0.49837342 0.013349366 0.142747 0 0 0 0 77.087898
-0.57660109 0.01043088 0.16203797 0 0 0 0 77.092842
-0.57804656 0.01966059 0.11586944 0 0 0 0 77.097794
-0.57028157 0.011857659 0.13209526 0 0 0 0 77.102737
-0.59263253 -0.0086644106 0.1482897 0 0 0 0 77.127472
-0.59085751 -0.015410272 0.1644382 0 0 0 0 77.132416
-0.57431346 -0.0093860198 0.11650242 0 0 0 0 77.137367
-0.58452761 -0.01501797 0.13251297 0 0 0 0 77.142311
-5.3429627 -0.028137188 0.41559681 0 0 0 0 77.147263
-5.3550181 -0.089546077 0.56156313 0 0 0 0 77.152206
-5.2451682 -0.096498765 0.27373058 0 0 0 0 77.162102
-5.2491088 -0.15005325 0.4156428 0 0 0 0 77.167046
-4.8926306 -0.19358343 0.52895588 0 0 0 0 77.171997
-0.57856047 -0.037373837 0.1160388 0 0 0 0 77.176941
-4.7890258 -0.20310578 0.2631115 0 0 0 0 77.181892
-4.7967801 -0.24881139 0.39385048 0 0 0 0 77.186836
-4.7895846 -0.2976245 0.52679175 0 0 0 0 77.19178
-4.6992507 -0.26729456 0.12709978 0 0 0 0 77.196732
-4.7000656 -0.31296372 0.26390871 0 0 0 0 77.201675
-4.4333768 -0.33362591 0.37694252 0 0 0 0 77.206627
-4.7095284 -0.39841375 0.52634633 0 0 0 0 77.211571
-4.595283 -0.37528035 0.12901607 0 0 0 0 77.216515
-4.3737488 -0.39625731 0.25661063 0 0 0 0 77.221466
-4.4113841 -0.43577942 0.38094693 0 0 0 0 77.22641
-4.6284542 -0.49721357 0.52587926 0 0 0 0 77.231361
-4.4992766 -0.47919154 0.13078597 0 0 0 0 77.236305
-4.5220132 -0.51868457 0.26527208 0 0 0 0 77.241257
-4.5336227 -0.55240297 0.39276856 0 0 0 0 77.246201
-4.536303 -0.58913755 0.52440649 0 0 0 0 77.251144
-4.4212499 -0.58093232 0.13234226 0 0 0 0 77.256096
-4.4359288 -0.61551869 0.26582468 0 0 0 0 77.26104
-4.4394922 -0.64533037 0.39233455 0 0 0 0 77.265991
-4.4511433 -0.67999572 0.52284807 0 0 0 0 77.270935
-4.3371854 -0.6787318 0.13389328 0 0 0 0 77.275879
-4.346808 -0.70838296 0.26634169 0 0 0 0 77.28083
-4.361361 -0.73708898 0.39272368 0 0 0 0 77.285774
-4.3749738 -0.76875198 0.52216649 0 0 0 0 77.290726
-4.2160187 -0.7658872 0.1356333 0 0 0 0 77.29567
-4.2386308 -0.79644746 0.26596805 0 0 0 0 77.300613
-4.278182 -0.82491398 0.3920975 0 0 0 0 77.305565
-4.3489275 -0.86494428 0.52611637 0 0 0 0 77.310509
-4.1669531 -0.86233711 0.13781732 0 0 0 0 77.31546
-4.1805182 -0.8879832 0.26815823 0 0 0 0 77.320404
-4.2150512 -0.91551369 0.39332169 0 0 0 0 77.325356
-4.1994925 -0.93352318 0.51882082 0 0 0 0 77.330299
-4.0767951 -0.95019788 0.13926502 0 0 0 0 77.335243
-4.0893021 -0.97087073 0.26853129 0 0 0 0 77.340195
-4.0686359 -0.98301482 0.38897994 0 0 0 0 77.345139
-4.0931616 -1.0076056 0.51619351 0 0 0 0 77.35009
-3.9445119 -1.021579 0.14022994 0 0 0 0 77.066162
-3.9930739 -1.0499399 0.2682687 0 0 0 0 77.071114
-4.0355392 -1.0734434 0.39128396 0 0 0 0 77.076057
-4.0710745 -1.0989271 0.51940268 0 0 0 0 77.081009
-3.9114408 -1.1168587 0.14322774 0 0 0 0 77.085953
-3.9268715 -1.1325516 0.27037847 0 0 0 0 77.090897
-3.9271665 -1.1425241 0.38958001 0 0 0 0 77.095848
-3.9295304 -1.1554083 0.5128116 0 0 0 0 77.100792
-3.8793514 -1.2111467 0.14520042 0 0 0 0 77.105743
-3.9047918 -1.2267264 0.27325046 0 0 0 0 77.110687
-3.9432302 -1.2462494 0.39723828 0 0 0 0 77.115631
-3.9556134 -1.2590034 0.52236897 0 0 0 0 77.120583
-3.8452535 -1.3034372 0.14816077 0 0 0 0 77.125526
-3.8817322 -1.3218935 0.27715099 0 0 0 0 77.130478
-3.9100947 -1.3345289 0.40012097 0 0 0 0 77.135422
-3.9264884 -1.3472269 0.52621138 0 0 0 0 77.140366
-3.8442886 -1.4094113 0.15102813 0 0 0 0 77.145317
-3.8727112 -1.4209268 0.28097996 0 0 0 0 77.150261
-3.8990846 -1.4325463 0.40595293 0 0 0 0 77.155212
-3.929517 -1.4470752 0.5339359 0 0 0 0 77.160156
-3.8584011 -1.5222242 0.15486465 0 0 0 0 77.165108
-3.8888247 -1.5316857 0.28676203 0 0 0 0 77.170052
-3.9151895 -1.5412873 0.41270092 0 0 0 0 77.174995
-3.9496422 -1.554726 0.54362613 0 0 0 0 77.179947
-4.4532847 -1.8648144 0.60699135 0 0 0 0 77.19973
-4.4042535 -1.9622242 0.61119467 0 0 0 0 77.219521
-4.3592134 -2.0585966 0.61534244 0 0 0 0 77.239311
-4.2870202 -2.1422806 0.61654407 0 0 0 0 77.259094
-4.2440104 -2.240617 0.62170929 0 0 0 0 77.278885
-4.1768484 -2.326237 0.62389809 0 0 0 0 77.298676
-4.116725 -2.4147725 0.62706888 0 0 0 0 77.318459
-4.0435162 -2.4954517 0.62923688 0 0 0 0 77.338249
-3.6551285 -2.6036413 0.19594939 0 0 0 0 77.362984
-3.7105896 -2.601614 0.34140426 0 0 0 0 77.367928
-3.7427886 -2.5829813 0.47680363 0 0 0 0 77.372879
-3.8268151 -2.7304828 0.63460231 0 0 0 0 77.397614
-2.5040116 -3.9445243 0.28630251 0 0 0 0 77.866806
-2.4978724 -3.9841211 0.42917109 0 0 0 0 77.891541
-2.580981 -3.9641213 0.55502814 0 0 0 0 77.896484
-2.5655961 -3.9920294 0.68478435 0 0 0 0 77.921219
-1.4081621 -5.3593335 0.41909897 0 0 0 0 78.124046
-1.4053574 -5.3329477 0.55780333 0 0 0 0 78.148781
-1.4005989 -5.3319244 0.67696697 0 0 0 0 78.173523
-1.5474932 -5.3902779 0.80354422 0 0 0 0 78.178467
-1.406019 -5.350832 0.79437578 0 0 0 0 78.198257
-0.38490832 -5.5862455 0.48999879 0 0 0 0 78.027191
-0.25425878 -5.6113782 0.49985549 0 0 0 0 78.046982
-0.40631351 -5.5999436 0.6111626 0 0 0 0 78.051926
-0.1261144 -5.6844301 0.51352555 0 0 0 0 78.066765
-0.27878267 -5.6390781 0.61923277 0 0 0 0 78.071716
-0.41669679 -5.632091 0.71275628 0 0 0 0 78.07666
0.0058900495 -5.7705016 0.52846467 0 0 0 0 78.086555
-0.14855011 -5.7051854 0.63080382 0 0 0 0 78.091499
-0.28892833 -5.6512995 0.71648127 0 0 0 0 78.096451
-0.42785212 -5.6483521 0.80706376 0 0 0 0 78.101395
0.14521779 -6.0164728 0.55527651 0 0 0 0 78.106346
-0.018446926 -5.7842913 0.64260298 0 0 0 0 78.11129
-0.15972582 -5.7224307 0.72613072 0 0 0 0 78.116234
-0.30120277 -5.6805654 0.81000543 0 0 0 0 78.121185
0.29175183 -6.1456132 0.57512301 0 0 0 0 78.126129
0.11793821 -6.0232162 0.67026514 0 0 0 0 78.131081
-0.03052401 -5.7935629 0.7357825 0 0 0 0 78.136024
-0.17365293 -5.7227883 0.813133 0 0 0 0 78.140976
0.4433732 -6.2658057 0.59486794 0 0 0 0 78.14592
0.26351085 -6.1493649 0.68905133 0 0 0 0 78.150864
0.10500818 -6.0184984 0.7621941 0 0 0 0 78.155815
-0.044610523 -5.8099174 0.82306427 0 0 0 0 78.160759
0.60717809 -6.4630222 0.6210885 0 0 0 0 78.16571
0.41217136 -6.2675633 0.70673281 0 0 0 0 78.170654
0.24858031 -6.1466622 0.77899677 0 0 0 0 78.175598
0.090009399 -6.0268617 0.8483296 0 0 0 0 78.18055
0.78294992 -6.6623392 0.64847207 0 0 0 0 78.185493
0.57495481 -6.4667697 0.73298055 0 0 0 0 78.190445
0.39812055 -6.2768679 0.79689938 0 0 0 0 78.195389
0.23249139 -6.165031 0.86429822 0 0 0 0 78.200333
0.98065394 -6.960722 0.68581969 0 0 0 0 78.205284
0.74869525 -6.6690664 0.76039845 0 0 0 0 78.210228
0.55804199 -6.4640822 0.82091039 0 0 0 0 78.215179
0.3812001 -6.2822995 0.87796712 0 0 0 0 78.220123
1.178359 -7.1642194 0.71551001 0 0 0 0 78.225075
0.9425264 -6.9544115 0.79748213 0 0 0 0 78.230019
0.72968197 -6.6773744 0.84750223 0 0 0 0 78.234962
0.54008067 -6.4745207 0.90105772 0 0 0 0 78.239914
1.38615 -7.3578 0.74613422 0 0 0 0 78.244858
1.1381705 -7.164906 0.82627684 0 0 0 0 78.249809
0.92357069 -6.9577384 0.88350278 0 0 0 0 78.254753
0.70987874 -6.6748486 0.92440593 0 0 0 0 78.259697
1.3439801 -7.3574848 0.85586596 0 0 0 0 78.269592
1.1172931 -7.161232 0.91115803 0 0 0 0 78.274544
0.90270585 -6.9612012 0.96050447 0 0 0 0 78.279488
1.318192 -7.3488336 0.93661183 0 0 0 0 78.294327
1.094507 -7.1597295 0.98505533 0 0 0 0 78.299278
2.617029 -10.034508 1.0390413 0 0 0 0 78.304222
1.2944448 -7.3453569 1.0084671 0 0 0 0 78.319061
2.5545101 -10.045627 1.1698028 0 0 0 0 78.328957
2.5330031 -10.088699 1.269537 0 0 0 0 78.353691
2.5011072 -10.090004 1.3494275 0 0 0 0 78.378426
4.7008824 -13.010027 1.4342455 0 0 0 0 78.383377
3.7667398 -11.441461 1.3741721 0 0 0 0 78.388321
4.9422517 -12.757278 1.4414383 0 0 0 0 78.40316
4.6337824 -13.065907 1.5767895 0 0 0 0 78.408112
3.7296948 -11.449595 1.4611514 0 0 0 0 78.413055
4.9035854 -11.851334 1.3819835 0 0 0 0 78.86821
4.8672638 -12.79077 1.5743823 0 0 0 0 78.873154
4.5924382 -13.070349 1.67158 0 0 0 0 78.878098
3.6879301 -11.439384 1.5312816 0 0 0 0 78.883049
5.2691574 -11.94829 1.4256514 0 0 0 0 78.887993
4.8399096 -11.89373 1.4953107 0 0 0 0 78.892944
4.8321915 -12.806015 1.655524 0 0 0 0 78.897888
4.5660415 -13.124797 1.746508 0 0 0 0 78.902832
2.9579463 -6.3094449 0.8265816 0 0 0 0 78.907784
5.2045631 -11.9898 1.531955 0 0 0 0 78.912727
4.8070464 -11.903244 1.5623616 0 0 0 0 78.917679
4.804121 -12.840661 1.7180792 0 0 0 0 78.922623
3.1455154 -6.3309984 0.84701949 0 0 0 0 78.927567
2.936857 -6.3582969 0.88138705 0 0 0 0 78.932518
5.1435122 -11.933292 1.5835397 0 0 0 0 78.937462
4.7782669 -11.923116 1.611635 0 0 0 0 78.942413
8.8878422 -16.920597 2.1211598 0 0 0 0 78.947357
3.0736454 -6.2746253 0.88442558 0 0 0 0 78.952309
5.791501 -12.633154 1.6878796 0 0 0 0 78.957253
5.085546 -11.889166 1.6153709 0 0 0 0 78.962196
9.3254175 -16.81529 2.1630363 0 0 0 0 78.967148
8.6971579 -16.782101 2.21102 0 0 0 0 78.972092
3.0710239 -6.3061566 0.91110855 0 0 0 0 78.977043
5.7638712 -12.653305 1.7221793 0 0 0 0 78.981987
9.7640543 -16.703995 2.2048197 0 0 0 0 78.986931
9.1710854 -16.74827 2.2475441 0 0 0 0 78.991882
8.8980799 -17.272345 2.3201292 0 0 0 0 78.996826
3.0568004 -6.3128238 0.92322594 0 0 0 0 79.001778
10.103604 -16.420023 2.2264993 0 0 0 0 79.006721
9.6814623 -16.762691 2.2913103 0 0 0 0 79.011673
9.0922947 -16.688023 2.2749386 0 0 0 0 79.016617
8.9124975 -17.387985 2.3526275 0 0 0 0 79.021561
10.439228 -16.127996 2.2489939 0 0 0 0 79.026512
10.01927 -16.468969 2.2977941 0 0 0 0 79.031456
9.644021 -16.770922 2.3163555 0 0 0 0 79.036407
9.0412655 -16.678507 2.2775178 0 0 0 0 79.041351
10.773732 -15.84898 2.2707069 0 0 0 0 79.046295
10.361968 -16.184263 2.3064885 0 0 0 0 79.051247
9.9908628 -16.48752 2.3101132 0 0 0 0 79.05619
9.6177683 -16.791792 2.3117354 0 0 0 0 79.061142
11.102261 -15.56587 2.2942843 0 0 0 0 79.066086
10.696689 -15.89748 2.3150618 0 0 0 0 79.07103
10.337726 -16.19907 2.3067803 0 0 0 0 79.075981
9.9717245 -16.510695 2.2926044 0 0 0 0 79.080925
11.438698 -15.289805 2.3200686 0 0 0 0 79.085876
11.028403 -15.610652 2.3246021 0 0 0 0 79.09082
10.679564 -15.914589 2.302465 0 0 0 0 79.095772
10.330611 -16.232576 2.2775774 0 0 0 0 79.100716
11.302917 -14.420411 2.2573438 0 0 0 0 79.105659
11.369976 -15.335888 2.3364589 0 0 0 0 79.110611
11.017383 -15.631054 2.2991238 0 0 0 0 79.115555
10.666767 -15.931293 2.2588995 0 0 0 0 79.120506
14.559169 -17.737947 2.8307059 0 0 0 0 79.12545
11.198029 -14.406512 2.2512736 0 0 0 0 79.130394
11.359202 -15.345528 2.2977874 0 0 0 0 79.135345
11.011723 -15.647044 2.2436159 0 0 0 0 79.140289
12.393466 -14.421143 2.3931239 0 0 0 0 79.145241
14.480793 -17.781513 2.8149853 0 0 0 0 79.150185
11.645733 -14.997583 2.2877586 0 0 0 0 79.155128
11.357638 -15.365789 2.2293949 0 0 0 0 79.16008
12.720851 -14.147943 2.4218605 0 0 0 0 79.165024
12.341211 -14.464121 2.368618 0 0 0 0 79.169975
14.479418 -17.788918 2.7394044 0 0 0 0 79.174919
11.664161 -15.030242 2.2087915 0 0 0 0 79.179871
13.07688 -13.905959 2.4554527 0 0 0 0 79.184814
12.696466 -14.215395 2.3870788 0 0 0 0 79.189758
12.345825 -14.474577 2.2931101 0 0 0 0 79.19471
14.482528 -17.788044 2.6257138 0 0 0 0 79.199654
13.399412 -13.617701 2.4848673 0 0 0 0 79.204605
13.026081 -13.934473 2.4016957 0 0 0 0 79.209549
12.699409 -14.207069 2.2982142 0 0 0 0 79.214493
12.363771 -14.483702 2.1877108 0 0 0 0 79.219444
15.422462 -14.987761 2.8117013 0 0 0 0 79.224388
13.341914 -13.632418 2.4157896 0 0 0 0 79.22934
13.044059 -13.934495 2.3021338 0 0 0 0 79.234283
12.736297 -14.23358 2.1823204 0 0 0 0 79.239235
15.783248 -14.669826 2.845 0 0 0 0 79.244179
15.391895 -15.030126 2.7224185 0 0 0 0 79.249123
13.366988 -13.637762 2.3023927 0 0 0 0 79.254074
13.047667 -13.909002 2.1669576 0 0 0 0 79.259018
16.151985 -14.353919 2.8814173 0 0 0 0 79.263969
15.75792 -14.703495 2.7416124 0 0 0 0 79.268913
15.415484 -15.011948 2.5816038 0 0 0 0 79.273857
13.412351 -13.642793 2.1621957 0 0 0 0 79.278809
16.648487 -14.138923 2.9409754 0 0 0 0 79.283752
16.137806 -14.389988 2.7621841 0 0 0 0 79.288704
15.801564 -14.693752 2.5881536 0 0 0 0 79.293648
15.034132 -14.586309 2.3432472 0 0 0 0 79.298592
17.070795 -13.856393 2.9875493 0 0 0 0 79.303543
16.622721 -14.153202 2.8032284 0 0 0 0 79.308487
16.188656 -14.372535 2.5966587 0 0 0 0 79.313438
15.408403 -14.264248 2.3355958 0 0 0 0 79.318382
17.460545 -13.53258 3.0310419 0 0 0 0 79.323334
17.07107 -13.880165 2.8372402 0 0 0 0 79.328278
16.691696 -14.140218 2.6219687 0 0 0 0 79.333221
16.241037 -14.343797 2.3919382 0 0 0 0 79.338173
17.832417 -13.196618 3.0685425 0 0 0 0 79.03933
17.472013 -13.552743 2.8611782 0 0 0 0 79.044281
17.141336 -13.853453 2.63713 0 0 0 0 79.049225
16.785009 -14.12907 2.403367 0 0 0 0 79.054169
17.667974 -12.478732 3.0202565 0 0 0 0 79.05912
17.847139 -13.21011 2.8851886 0 0 0 0 79.064064
17.539513 -13.519279 2.6485279 0 0 0 0 79.069016
17.212156 -13.811413 2.4023573 0 0 0 0 79.073959
17.883053 -12.045573 3.0379844 0 0 0 0 79.078911
17.710688 -12.499608 2.8313153 0 0 0 0 79.083855
17.919971 -13.15997 2.6572912 0 0 0 0 79.088799
17.648296 -13.493833 2.4024415 0 0 0 0 79.09375
16.161579 -10.371134 2.7414131 0 0 0 0 79.098694
17.917131 -12.04867 2.83163 0 0 0 0 79.103645
17.742048 -12.410275 2.5902781 0 0 0 0 79.108589
15.03532 -10.947743 2.0180378 0 0 0 0 79.113533
19.420643 -11.862406 3.2541466 0 0 0 0 79.118484
16.240305 -10.392365 2.5528238 0 0 0 0 79.123428
18.033052 -12.006229 2.5893033 0 0 0 0 79.12838
13.381426 -9.2671099 1.7700098 0 0 0 0 79.133324
19.81963 -11.506543 3.3051658 0 0 0 0 79.138268
19.47629 -11.850423 3.008745 0 0 0 0 79.143219
16.101032 -10.187648 2.2909203 0 0 0 0 79.148163
13.775288 -9.0679111 1.7817203 0 0 0 0 79.153114
20.244474 -11.16392 3.3576887 0 0 0 0 79.158058
19.917257 -11.512245 3.0455122 0 0 0 0 79.16301
14.583442 -8.7651768 2.0578895 0 0 0 0 79.167953
12.370542 -7.7300296 1.5803567 0 0 0 0 79.172897
17.571386 -9.1922674 2.9198163 0 0 0 0 79.177849
16.914089 -9.269619 2.5833559 0 0 0 0 79.182793
16.829594 -9.5934725 2.3232663 0 0 0 0 79.187744
11.365842 -6.7373028 1.4333003 0 0 0 0 79.192688
20.865885 -10.334853 3.4337802 0 0 0 0 79.197632
16.841618 -8.7423925 2.552361 0 0 0 0 79.202583
13.624164 -7.3574367 1.8800645 0 0 0 0 79.207527
11.156051 -6.2630258 1.3827764 0 0 0 0 79.212479
21.294909 -9.9712114 3.4899647 0 0 0 0 79.217422
16.57917 -8.1386919 2.4950094 0 0 0 0 79.222374
14.049683 -7.1742368 1.9103818 0 0 0 0 79.227318
11.123892 -5.9041672 1.3551607 0 0 0 0 79.232262
21.775764 -9.6118755 3.5587659 0 0 0 0 79.237213
16.525208 -7.6555567 2.469979 0 0 0 0 79.242157
14.4555 -6.9618473 1.9399724 0 0 0 0 79.247108
11.117488 -5.5665102 1.3311876 0 0 0 0 79.252052
19.110674 -7.9361691 3.1301672 0 0 0 0 79.256996
14.878272 -6.4870644 2.2220495 0 0 0 0 79.261948
14.797814 -6.7069392 1.9621394 0 0 0 0 79.266891
11.061255 -5.2154107 1.3034493 0 0 0 0 79.271843
19.734152 -7.6918645 3.2234924 0 0 0 0 79.276787
15.231401 -6.2370329 2.2574172 0 0 0 0 79.281731
15.014879 -6.3930397 1.9679414 0 0 0 0 79.286682
10.98504 -4.8631124 1.2754756 0 0 0 0 79.291626
18.120481 -6.6099262 2.9644446 0 0 0 0 79.296577
14.789778 -5.6677814 2.1847656 0 0 0 0 79.301521
15.105634 -6.0241008 1.9594358 0 0 0 0 79.306473
10.926591 -4.5329709 1.2490786 0 0 0 0 79.311417
17.602537 -5.9841032 2.8799922 0 0 0 0 79.31636
14.36275 -5.1376505 2.1139557 0 0 0 0 79.321312
10.9033 -4.063365 1.434552 0 0 0 0 79.326256
10.892928 -4.2200031 1.2272433 0 0 0 0 79.331207
17.097137 -5.40238 2.7974484 0 0 0 0 79.336151
13.954359 -4.6406465 2.0469232 0 0 0 0 79.341095
10.797741 -3.743732 1.4088416 0 0 0 0 79.346046
10.872113 -3.9191091 1.2087541 0 0 0 0 79.35099
16.667164 -4.8641706 2.729461 0 0 0 0 79.355942
13.596467 -4.1849966 1.9891503 0 0 0 0 79.360886
10.642311 -3.4146543 1.3794352 0 0 0 0 79.365829
10.803461 -3.6078274 1.1845738 0 0 0 0 79.370781
16.263775 -4.3641663 2.6654258 0 0 0 0 79.375725
13.201522 -3.7380266 1.928136 0 0 0 0 79.380676
10.166058 -3.003948 1.3132032 0 0 0 0 79.38562
10.52057 -3.2376771 1.1420926 0 0 0 0 79.390572
19.009598 -4.651567 3.0964756 0 0 0 0 79.395515
12.938779 -3.3530841 1.8856088 0 0 0 0 79.400459
13.157258 -3.5545323 1.652492 0 0 0 0 79.405411
8.7310915 -2.4626403 0.95657867 0 0 0 0 79.410355
18.530743 -4.1089778 3.0218825 0 0 0 0 79.415306
12.634056 -2.9707909 1.8386821 0 0 0 0 79.42025
12.839731 -3.1531155 1.6050891 0 0 0 0 79.425194
8.2391148 -2.115618 0.89930201 0 0 0 0 79.430145
15.191769 -3.0220737 2.5015411 0 0 0 0 79.435089
12.303219 -2.6032863 1.7887396 0 0 0 0 79.440041
12.501098 -2.7645199 1.5556871 0 0 0 0 79.444984
7.9063449 -1.8329469 0.85783887 0 0 0 0 79.449936
14.89014 -2.6297982 2.4554672 0 0 0 0 79.45488
12.015051 -2.2620966 1.7457089 0 0 0 0 79.459824
12.174202 -2.398983 1.5098145 0 0 0 0 79.464775
14.551497 -2.242203 2.4060817 0 0 0 0 79.47467
11.809458 -1.9515325 1.7150873 0 0 0 0 79.479614
11.961783 -2.0723722 1.4778332 0 0 0 0 79.484558
14.244569 -1.8788491 2.3614562 0 0 0 0 79.494453
11.619733 -1.651071 1.6878076 0 0 0 0 79.499405
11.771192 -1.7609414 1.4483471 0 0 0 0 79.504349
7.6480789 -1.2071332 0.81116116 0 0 0 0 79.509293
14.007216 -1.5356126 2.3303692 0 0 0 0 79.740791
11.37795 -1.3577583 1.6544076 0 0 0 0 79.745735
11.501616 -1.4483814 1.4143238 0 0 0 0 79.750687
7.6540132 -1.021757 0.80505854 0 0 0 0 79.75563
16.334551 -1.429857 2.7021232 0 0 0 0 79.760574
11.167064 -1.0771073 1.6252149 0 0 0 0 79.765526
11.24991 -1.1543945 1.3804598 0 0 0 0 79.77047
7.6729016 -0.83902371 0.80104017 0 0 0 0 79.775421
16.055717 -1.0516349 2.665467 0 0 0 0 79.780365
10.93707 -0.80929667 1.5940473 0 0 0 0 79.785309
11.043017 -0.87376636 1.3523037 0 0 0 0 79.79026
7.6748247 -0.65515566 0.79481965 0 0 0 0 79.795204
