# .PCD v0.7 - Point Cloud Data file format
VERSION 0.7
FIELDS x y z normal_x normal_y normal_z intensity curvature
SIZE 4 4 4 4 4 4 4 4
TYPE F F F F F F F F
COUNT 1 1 1 1 1 1 1 1
WIDTH 955
HEIGHT 1
VIEWPOINT 0 0 0 1 0 0 0
POINTS 955
DATA ascii
-5.2852354 17.209631 3.4507587 0 0 0 0 26.96921
-5.9389596 17.263397 3.8782904 0 0 0 0 26.974154
-6.6106448 17.305136 4.3238392 0 0 0 0 26.979101
-5.0435367 17.236036 3.0375557 0 0 0 0 26.984049
-5.7401581 17.242718 3.4721346 0 0 0 0 26.988997
-6.4089179 17.320463 3.9186692 0 0 0 0 26.993944
-7.1418719 17.514093 4.4212232 0 0 0 0 26.998892
-5.5094943 17.284098 3.0519364 0 0 0 0 27.003836
-6.2201481 17.31176 3.5025175 0 0 0 0 27.008783
-6.9270682 17.481441 3.9860549 0 0 0 0 27.013731
-5.981421 17.316153 3.0633225 0 0 0 0 27.023626
-6.7332525 17.443745 3.5499067 0 0 0 0 27.028574
-6.4975061 17.432125 3.0917177 0 0 0 0 27.043413
-7.2342329 17.511759 3.5872993 0 0 0 0 27.048361
-8.6728201 17.756113 4.6304064 0 0 0 0 27.058256
-7.0306101 17.560074 3.1261199 0 0 0 0 27.0632
-8.1217823 18.415035 3.7987719 0 0 0 0 27.068148
-9.2258368 17.859049 4.7138214 0 0 0 0 27.078043
-7.9131904 18.467354 3.3015857 0 0 0 0 27.082991
-9.7396765 17.867064 4.7752266 0 0 0 0 27.09783
-9.9994402 18.658489 4.46521 0 0 0 0 27.112673
-10.338726 17.991924 4.871664 0 0 0 0 27.117617
-9.8918877 18.73061 3.9640958 0 0 0 0 27.127512
-10.915657 18.053831 4.9560966 0 0 0 0 27.137407
-9.7805672 18.910732 3.4429498 0 0 0 0 27.142355
-11.490527 18.084749 5.0375314 0 0 0 0 27.157194
-11.459164 18.24872 4.5314488 0 0 0 0 27.172037
-11.767533 17.633238 4.9848576 0 0 0 0 27.176981
-11.790792 18.953997 4.1415057 0 0 0 0 27.186876
-12.048985 18.248613 4.5938973 0 0 0 0 27.191824
-12.051606 17.217718 4.9441767 0 0 0 0 27.196772
-11.662292 19.024141 3.5543718 0 0 0 0 27.201715
-12.748029 18.374306 4.6933932 0 0 0 0 27.211611
-12.327691 16.806217 4.9044857 0 0 0 0 27.216558
-13.43999 18.457018 4.78689 0 0 0 0 27.231398
-12.605796 16.403717 4.8697906 0 0 0 0 27.236345
-13.382365 18.465031 4.1998243 0 0 0 0 27.246241
-14.092794 18.454813 4.8653731 0 0 0 0 27.251188
-12.847856 15.972292 4.8250732 0 0 0 0 27.256136
-13.326541 18.548161 3.5860262 0 0 0 0 27.02471
-14.159025 18.596659 4.2946916 0 0 0 0 27.029657
-14.060511 17.554993 4.7058935 0 0 0 0 27.034605
-13.074258 15.534058 4.7816391 0 0 0 0 27.039553
-14.112596 18.669638 3.6586125 0 0 0 0 27.044497
-15.168554 18.981709 4.4533834 0 0 0 0 27.049444
-14.516849 17.299137 4.7193098 0 0 0 0 27.054392
-13.332364 15.140588 4.7499342 0 0 0 0 27.05934
-15.134123 19.043657 3.7863147 0 0 0 0 27.064287
-15.754992 18.7836 4.4808846 0 0 0 0 27.069235
-14.864954 16.914497 4.7006698 0 0 0 0 27.074179
-13.488302 14.650324 4.68817 0 0 0 0 27.079126
-15.684432 18.77562 3.792804 0 0 0 0 27.084074
-15.845369 18.01247 4.3741374 0 0 0 0 27.089022
-15.012662 16.309256 4.6209254 0 0 0 0 27.093969
-13.783532 14.321793 4.6794724 0 0 0 0 27.098917
-15.78377 17.987476 3.6950686 0 0 0 0 27.103861
-15.981906 17.322256 4.2874031 0 0 0 0 27.108809
-15.228559 15.804884 4.5712056 0 0 0 0 27.113756
-13.869392 13.781671 4.6006618 0 0 0 0 27.118704
-15.911245 17.268282 3.6103346 0 0 0 0 27.123652
-16.080437 16.625118 4.197639 0 0 0 0 27.128599
-15.344308 15.214711 4.4944277 0 0 0 0 27.133543
-14.105555 13.410262 4.5799241 0 0 0 0 27.138491
-16.030756 16.565105 3.5315881 0 0 0 0 27.143438
-16.182037 15.960979 4.1158657 0 0 0 0 27.148386
-15.940903 15.094608 4.5599022 0 0 0 0 27.153334
-14.157438 12.876211 4.5010815 0 0 0 0 27.158278
-16.130302 15.875971 3.4548199 0 0 0 0 27.163225
-16.281677 15.314846 4.0390849 0 0 0 0 27.168173
-16.379211 14.814819 4.5812898 0 0 0 0 27.17312
-14.304498 12.438979 4.4552865 0 0 0 0 27.178068
-16.231916 15.217836 3.3840437 0 0 0 0 27.183016
-16.378372 14.694722 3.967293 0 0 0 0 27.18796
-16.471975 14.224704 4.5094857 0 0 0 0 27.192907
-14.44658 12.01276 4.4134831 0 0 0 0 27.197855
-16.329556 14.571712 3.3162589 0 0 0 0 27.202803
-16.45208 14.075645 3.8954811 0 0 0 0 27.20775
-16.583811 13.672554 4.4476848 0 0 0 0 27.212698
-14.861053 11.813023 4.4588304 0 0 0 0 27.217642
-16.425257 13.954596 3.2554636 0 0 0 0 27.222589
-16.558867 13.498507 3.8346827 0 0 0 0 27.227537
-16.678663 13.12444 4.3858681 0 0 0 0 27.232485
-15.213423 11.551408 4.482142 0 0 0 0 27.237432
-16.515995 13.353491 3.1996584 0 0 0 0 27.24238
-16.64267 12.927416 3.7768626 0 0 0 0 27.247324
-15.041292 11.28365 3.8780539 0 0 0 0 27.252272
-15.409597 11.173096 4.4623613 0 0 0 0 27.257219
-16.613771 12.770374 3.1458521 0 0 0 0 27.262167
-16.732519 12.376316 3.7220409 0 0 0 0 27.267115
-16.856436 12.056241 4.2712135 0 0 0 0 27.272058
-15.312435 10.591345 4.3614063 0 0 0 0 27.277006
-16.706589 12.206269 3.0980358 0 0 0 0 27.281954
-16.818386 11.832225 3.6692126 0 0 0 0 27.286901
-16.939363 11.541156 4.2183743 0 0 0 0 27.291849
-15.590736 10.283882 4.3716669 0 0 0 0 27.296797
-16.792433 11.653181 3.0542092 0 0 0 0 27.301741
-16.904291 11.307137 3.6223779 0 0 0 0 27.306688
-17.021311 11.033074 4.167531 0 0 0 0 27.311636
-15.668829 9.8468018 4.3268061 0 0 0 0 27.316584
-16.886307 11.11208 3.0113845 0 0 0 0 27.321531
-16.985216 10.790059 3.5775359 0 0 0 0 27.326479
-17.109295 10.543985 4.1236858 0 0 0 0 27.331423
-15.06227 9.0050173 4.0965323 0 0 0 0 27.33637
-16.965202 10.581008 2.9715443 0 0 0 0 27.341318
-17.07217 10.284973 3.5376942 0 0 0 0 27.346266
-17.179287 10.053931 4.0778265 0 0 0 0 27.351213
-17.043121 10.060941 2.935699 0 0 0 0 27.361105
-0.40595734 0.21567909 0.073792294 0 0 0 0 27.385839
-0.41893896 0.2166564 0.088805892 0 0 0 0 27.390787
-0.42291242 0.21265072 0.10181406 0 0 0 0 27.395735
-0.41493917 0.21565421 0.06181141 0 0 0 0 27.400682
-0.40584007 0.19166741 0.071831658 0 0 0 0 27.425417
-0.41882452 0.1936446 0.085844889 0 0 0 0 27.430365
-0.4197982 0.18964474 0.098850794 0 0 0 0 27.435312
-0.41782117 0.19163713 0.060852908 0 0 0 0 27.44026
-0.42073652 0.17562768 0.072879881 0 0 0 0 27.464994
-0.42371488 0.17362373 0.084886715 0 0 0 0 27.469942
-0.42368874 0.16962579 0.09789186 0 0 0 0 27.474886
-0.4267107 0.1716089 0.060897641 0 0 0 0 27.479834
-0.43603888 0.15864989 0.07374198 0 0 0 0 27.279367
-0.45002231 0.16062486 0.088756315 0 0 0 0 27.284315
-0.44299504 0.15564036 0.099756338 0 0 0 0 27.289259
-0.46302283 0.16059004 0.064774476 0 0 0 0 27.294207
-0.40590972 0.12669629 0.066760316 0 0 0 0 27.318941
-0.38287857 0.11774176 0.072749279 0 0 0 0 27.323889
-0.35784629 0.10779081 0.077737033 0 0 0 0 27.328836
-0.38887087 0.11472147 0.051762927 0 0 0 0 27.333784
-0.34877843 0.091793709 0.055759449 0 0 0 0 27.358519
-0.37176752 0.095750742 0.068779916 0 0 0 0 27.363466
-0.36374602 0.092767328 0.077778816 0 0 0 0 27.368414
-0.35274768 0.08577878 0.04577655 0 0 0 0 27.373358
-0.3526772 0.075773813 0.054800004 0 0 0 0 27.398096
-0.3626613 0.076756112 0.06681136 0 0 0 0 27.40304
-0.35964459 0.0757626 0.074813537 0 0 0 0 27.407988
-0.35564378 0.068761177 0.045816574 0 0 0 0 27.412935
-0.35257366 0.05876201 0.054837767 0 0 0 0 27.43767
-0.3665598 0.060736705 0.066851735 0 0 0 0 27.442617
-0.36154318 0.059747003 0.074852452 0 0 0 0 27.447565
-0.34653798 0.049766228 0.04384819 0 0 0 0 27.452513
-0.34447202 0.041765023 0.052869633 0 0 0 0 27.477247
-0.36445826 0.043728363 0.064887896 0 0 0 0 27.482195
-0.36144292 0.043735024 0.073889844 0 0 0 0 27.487139
-0.36143735 0.034726184 0.045896359 0 0 0 0 27.492086
-0.34337005 0.024754765 0.05190666 0 0 0 0 27.516821
-0.36435756 0.027716698 0.064925224 0 0 0 0 27.521769
-0.36234495 0.028721141 0.072927654 0 0 0 0 27.526716
-0.35433549 0.017727548 0.044928912 0 0 0 0 27.531664
-0.35826936 0.0097152339 0.054954603 0 0 0 0 27.556398
-0.37125653 0.011692047 0.06596753 0 0 0 0 27.561346
-0.36824399 0.012698356 0.073969252 0 0 0 0 27.566294
-0.35723519 0.0017101123 0.044968408 0 0 0 0 27.571238
-0.35617197 -0.0052930024 0.053990241 0 0 0 0 27.595976
-0.36515996 -0.0033087849 0.064000227 0 0 0 0 27.60092
-0.36414865 -0.0013060294 0.073003136 0 0 0 0 27.605867
-0.36613014 -0.016317982 0.047012575 0 0 0 0 27.610815
-0.36006981 -0.022311972 0.055030584 0 0 0 0 27.63555
-0.37205786 -0.020333249 0.0650426 0 0 0 0 27.640497
-0.36904919 -0.017327037 0.073043853 0 0 0 0 27.645445
-0.36402884 -0.033325881 0.047048628 0 0 0 0 27.650393
-0.35996878 -0.039323684 0.055068064 0 0 0 0 27.675127
-0.37895367 -0.03835728 0.067085072 0 0 0 0 27.680075
-0.36895016 -0.033338659 0.073081009 0 0 0 0 27.685019
-0.36392796 -0.050337531 0.047086056 0 0 0 0 27.689966
-0.35987005 -0.055335395 0.055105247 0 0 0 0 27.714701
-0.37885317 -0.05536877 0.067122355 0 0 0 0 27.719648
-0.36984971 -0.050352123 0.073119059 0 0 0 0 27.724596
-0.360825 -0.068343408 0.048121657 0 0 0 0 27.729544
-0.36004227 -0.073299952 0.056010891 0 0 0 0 27.596201
-0.36903295 -0.070315987 0.065020606 0 0 0 0 27.601145
-0.36103141 -0.064300872 0.071017519 0 0 0 0 27.606092
-0.362997 -0.086311772 0.049028765 0 0 0 0 27.61104
-0.34495062 -0.086284161 0.054036789 0 0 0 0 27.635775
-0.35593942 -0.084303856 0.063048109 0 0 0 0 27.640722
-0.35493529 -0.079301663 0.070050254 0 0 0 0 27.64567
-0.34990293 -0.10029948 0.048056319 0 0 0 0 27.650618
-0.34884778 -0.10430323 0.055077337 0 0 0 0 27.675352
-0.35783741 -0.10231934 0.063087188 0 0 0 0 27.6803
-0.35783514 -0.096319005 0.070089772 0 0 0 0 27.685244
-0.36878529 -0.12534544 0.052108921 0 0 0 0 27.690191
-0.38770506 -0.13637741 0.063192599 0 0 0 0 27.714926
-0.37771064 -0.12635952 0.068186209 0 0 0 0 27.719873
-0.34673125 -0.11030471 0.068161227 0 0 0 0 27.724821
-0.38765442 -0.15338327 0.056208927 0 0 0 0 27.729769
-0.38160452 -0.15437791 0.063224919 0 0 0 0 27.754503
-0.3935923 -0.1523989 0.072238356 0 0 0 0 27.759451
-0.3905952 -0.14339353 0.078237973 0 0 0 0 27.764399
-0.42750713 -0.1934645 0.065283634 0 0 0 0 27.769342
-0.41845942 -0.19345354 0.072296806 0 0 0 0 27.794081
-0.40647292 -0.17943251 0.076288015 0 0 0 0 27.799025
-0.39149073 -0.1634064 0.079276383 0 0 0 0 27.803972
-0.41939968 -0.21546078 0.066314921 0 0 0 0 27.80892
-0.41235399 -0.21445356 0.073329553 0 0 0 0 27.833654
-0.4213489 -0.20946936 0.080339707 0 0 0 0 27.838602
-0.42634833 -0.2014778 0.088345982 0 0 0 0 27.84355
-0.427277 -0.2454852 0.069360852 0 0 0 0 27.848497
-5.1592879 -3.2256725 0.93981344 0 0 0 0 27.868284
-0.45718628 -0.2665416 0.084409803 0 0 0 0 27.873232
-0.44021529 -0.24451245 0.086395405 0 0 0 0 27.87818
-0.43223208 -0.22849879 0.090389535 0 0 0 0 27.883127
-5.1541514 -3.2516115 1.0368123 0 0 0 0 27.893019
-5.2042809 -3.1416762 1.1148264 0 0 0 0 27.897966
-5.0160103 -3.3313484 1.0237193 0 0 0 0 27.912806
-5.0331931 -3.1963577 1.0897019 0 0 0 0 27.917753
-4.8711033 -3.2510562 1.0675855 0 0 0 0 27.937544
-5.1759291 -3.2925546 1.1948327 0 0 0 0 27.942488
-4.7509627 -3.3318284 1.0535088 0 0 0 0 27.957331
-4.8021274 -3.2068977 1.1175203 0 0 0 0 27.962278
-4.6620307 -3.2666385 1.094424 0 0 0 0 27.982065
-4.5748625 -3.3624699 1.0843776 0 0 0 0 28.001852
-3.36443 -3.4367988 0.76865631 0 0 0 0 29.016584
-3.3272333 -3.5647321 0.78166223 0 0 0 0 29.036375
-3.3614008 -3.4287703 0.81465787 0 0 0 0 29.041319
-3.3351941 -3.564719 0.82767171 0 0 0 0 29.06111
-3.3793504 -3.4407728 0.85067528 0 0 0 0 29.066057
-3.3381746 -3.5577021 0.85767692 0 0 0 0 29.085844
-3.3863459 -3.4237616 0.87668091 0 0 0 0 29.090792
-3.3461776 -3.5376935 0.8796826 0 0 0 0 29.110579
-2.227231 -2.8862092 0.59192371 0 0 0 0 29.115526
-2.1102433 -2.8710458 0.58086264 0 0 0 0 29.135313
-2.0162163 -2.8819144 0.57582015 0 0 0 0 29.1551
-2.1272044 -2.8760586 0.60488391 0 0 0 0 29.160048
-1.9261868 -2.8947895 0.57078087 0 0 0 0 29.174891
-2.0261953 -2.8759191 0.59483582 0 0 0 0 29.179838
-2.144172 -2.881073 0.61790502 0 0 0 0 29.184782
-1.8461385 -2.9206786 0.56875014 0 0 0 0 29.194677
-1.9381629 -2.8917978 0.5877986 0 0 0 0 29.199625
-2.0321872 -2.8649204 0.60284835 0 0 0 0 29.204573
-2.162159 -2.8740892 0.62492436 0 0 0 0 29.209517
-1.7261893 -2.8775172 0.55468541 0 0 0 0 29.214464
-1.8621099 -2.9216928 0.58477116 0 0 0 0 29.219412
-1.9461546 -2.8818028 0.59381276 0 0 0 0 29.22436
-2.0571637 -2.865947 0.60887343 0 0 0 0 29.229307
-1.666101 -2.930434 0.55967182 0 0 0 0 29.234255
-1.7451549 -2.8835368 0.56870937 0 0 0 0 29.239199
-1.8780872 -2.922709 0.59079188 0 0 0 0 29.244146
-1.9691372 -2.8798277 0.59683651 0 0 0 0 29.249094
-1.6000279 -2.9733438 0.56265348 0 0 0 0 29.254042
-1.680084 -2.9254479 0.5696913 0 0 0 0 29.258989
-1.7751029 -2.9055719 0.57674205 0 0 0 0 29.263937
-1.8950866 -2.9097273 0.58981061 0 0 0 0 29.268881
-1.5678599 -3.0832968 0.57866591 0 0 0 0 29.273829
-1.6190026 -2.9753649 0.57167709 0 0 0 0 29.278776
-1.6880839 -2.912456 0.56770593 0 0 0 0 29.283724
-1.8120567 -2.9256165 0.5797779 0 0 0 0 29.288671
-1.4270018 -2.9751146 0.55358106 0 0 0 0 29.293619
-1.5828507 -3.0753138 0.58368564 0 0 0 0 29.298563
-1.6339885 -2.9733829 0.56969774 0 0 0 0 29.303511
-1.7030931 -2.8944743 0.56072348 0 0 0 0 29.308458
-1.3489716 -2.9880126 0.55155241 0 0 0 0 29.313406
-1.4499689 -2.984143 0.55960864 0 0 0 0 29.318354
-1.5918539 -3.0623248 0.57770109 0 0 0 0 29.323298
-1.6420169 -2.9423928 0.55870932 0 0 0 0 29.328245
-1.2729367 -3.0039136 0.55152595 0 0 0 0 29.333193
-1.3639598 -2.983032 0.55257356 0 0 0 0 29.33814
-1.4749306 -3.0011749 0.55663854 0 0 0 0 29.343088
-1.5919099 -3.0133259 0.55970544 0 0 0 0 29.348036
-1.1949121 -3.0128136 0.5494976 0 0 0 0 29.35298
-1.2879323 -2.9949341 0.54854661 0 0 0 0 29.357927
-1.3839393 -2.9880586 0.54559898 0 0 0 0 29.362875
-1.5298338 -3.0622447 0.55769163 0 0 0 0 29.367823
-1.1198806 -3.0267179 0.54847234 0 0 0 0 29.37277
-1.2128999 -3.0098383 0.54652131 0 0 0 0 29.377718
-1.3039223 -2.9929569 0.53856897 0 0 0 0 29.382662
-1.4029454 -2.975085 0.53162056 0 0 0 0 29.387609
-1.0488387 -3.0476282 0.55045086 0 0 0 0 29.392557
-1.1398625 -3.0287461 0.54449815 0 0 0 0 29.397505
-1.2298898 -3.0088632 0.53454459 0 0 0 0 29.402452
-1.3259187 -2.9879875 0.52359384 0 0 0 0 29.4074
-0.97182089 -3.051532 0.54842383 0 0 0 0 29.412344
-1.0648401 -3.0366521 0.54147261 0 0 0 0 29.417292
-1.1528673 -3.0177667 0.52851796 0 0 0 0 29.422239
-1.2498941 -2.9988925 0.51656777 0 0 0 0 29.427187
-0.89879191 -3.0634415 0.54840076 0 0 0 0 29.432135
-0.98981506 -3.0465593 0.53844792 0 0 0 0 29.437078
-1.0798377 -3.0316763 0.52449471 0 0 0 0 29.442026
-1.1758633 -3.0148008 0.50954413 0 0 0 0 29.446974
-0.82675576 -3.0803533 0.55037951 0 0 0 0 29.451921
-0.91778159 -3.0624709 0.53742629 0 0 0 0 29.456869
-1.0068055 -3.0475867 0.52047235 0 0 0 0 29.461817
-1.1008389 -3.0257084 0.50251961 0 0 0 0 29.466761
-0.75372833 -3.0912647 0.55035728 0 0 0 0 29.471708
-0.84475636 -3.0723822 0.53540361 0 0 0 0 29.476656
-0.93577075 -3.0655003 0.51745176 0 0 0 0 29.481604
-1.0278115 -3.0386195 0.49649695 0 0 0 0 29.486551
-0.68188882 -3.1011209 0.55114889 0 0 0 0 29.217459
-0.77390814 -3.091248 0.53420132 0 0 0 0 29.222406
-0.86293566 -3.076371 0.51425111 0 0 0 0 29.227354
-0.95497733 -3.0524988 0.49030074 0 0 0 0 29.232302
-0.61680895 -3.1480372 0.55813497 0 0 0 0 29.237249
-0.70088315 -3.1001546 0.533176 0 0 0 0 29.242197
-0.78691936 -3.0802741 0.50922298 0 0 0 0 29.247141
-0.88394487 -3.068408 0.4852773 0 0 0 0 29.252089
-0.55270374 -3.212955 0.56912524 0 0 0 0 29.257036
-0.63183337 -3.1270671 0.53415656 0 0 0 0 29.261984
-0.7168861 -3.0961854 0.50620079 0 0 0 0 29.266932
-0.81091529 -3.0823152 0.48025286 0 0 0 0 29.271879
-0.47274047 -3.1778555 0.56308943 0 0 0 0 29.276823
-0.56773984 -3.1849861 0.5411458 0 0 0 0 29.281771
-0.643861 -3.1060941 0.50317639 0 0 0 0 29.286718
-0.7359013 -3.0852213 0.47322589 0 0 0 0 29.291666
-0.39872363 -3.180764 0.56306416 0 0 0 0 29.296614
-0.49273247 -3.1818931 0.53811866 0 0 0 0 29.301558
-0.5777843 -3.1530113 0.50616282 0 0 0 0 29.306505
-0.66486871 -3.1011329 0.46920386 0 0 0 0 29.311453
-0.32471913 -3.1746736 0.56203789 0 0 0 0 29.316401
-0.41475925 -3.1537976 0.53208607 0 0 0 0 29.321348
-0.50674421 -3.1739237 0.50514239 0 0 0 0 29.326296
-0.59879911 -3.1440511 0.46918976 0 0 0 0 29.33124
-0.24875306 -3.1405821 0.55700612 0 0 0 0 29.336187
-0.34372348 -3.1707113 0.53306568 0 0 0 0 29.341135
-0.43074724 -3.1638315 0.4991143 0 0 0 0 29.346083
-0.53072733 -3.1889677 0.46917534 0 0 0 0 29.35103
-0.17869663 -3.1714973 0.56298947 0 0 0 0 29.355978
-0.27070063 -3.1786234 0.53204316 0 0 0 0 29.360922
-0.35871649 -3.1777444 0.49809313 0 0 0 0 29.36587
-0.45273772 -3.1738737 0.46114561 0 0 0 0 29.370817
-0.10960327 -3.229414 0.57397854 0 0 0 0 29.375765
-0.19769947 -3.1705368 0.52901834 0 0 0 0 29.380713
-0.28568462 -3.1926572 0.49707207 0 0 0 0 29.38566
-0.37772503 -3.1757841 0.45512098 0 0 0 0 29.390604
-0.035569437 -3.2443264 0.57795787 0 0 0 0 29.395552
-0.12662648 -3.214452 0.53600407 0 0 0 0 29.400499
-0.2097348 -3.1475687 0.48603958 0 0 0 0 29.405447
-0.30371943 -3.1716967 0.45009637 0 0 0 0 29.410395
0.038602196 -3.3602364 0.5999552 0 0 0 0 29.415339
-0.052608632 -3.2183654 0.53598183 0 0 0 0 29.420286
-0.13767412 -3.1834836 0.48902372 0 0 0 0 29.425234
-0.22775695 -3.1356084 0.44006571 0 0 0 0 29.430182
0.020572668 -3.3432777 0.55598146 0 0 0 0 29.440077
-0.06563393 -3.2044001 0.4900057 0 0 0 0 29.445021
-0.15570217 -3.1685245 0.43904957 0 0 0 0 29.449968
0.0085228449 -3.3133125 0.50300217 0 0 0 0 29.464811
-0.082633726 -3.2114398 0.44103506 0 0 0 0 29.469759
-0.0075453199 -3.2703533 0.44402272 0 0 0 0 29.489546
0.068580903 -3.3582656 0.45201525 0 0 0 0 29.509333
0.92789155 -4.2552009 0.79381472 0 0 0 0 29.593431
1.0037628 -4.150126 0.77977896 0 0 0 0 29.613222
0.91285932 -4.2542505 0.71584475 0 0 0 0 29.618166
0.98771727 -4.1381774 0.69880807 0 0 0 0 29.637957
0.98669994 -4.1492105 0.61783373 0 0 0 0 29.662691
0.97967541 -4.1572518 0.52786171 0 0 0 0 29.687426
2.7262397 -4.4620619 0.96804762 0 0 0 0 29.652884
2.7371669 -4.4501028 0.83507121 0 0 0 0 29.677618
2.7052665 -4.5781665 0.72111338 0 0 0 0 29.682566
2.7650993 -4.440124 0.7050873 0 0 0 0 29.702353
2.7940359 -4.4361448 0.56610417 0 0 0 0 29.727087
4.4738111 -4.8392634 1.2145519 0 0 0 0 29.830973
3.9809268 -4.1218843 1.0546864 0 0 0 0 29.850763
3.8908732 -4.1390214 0.88673604 0 0 0 0 29.855711
4.0808454 -4.0448055 1.0566598 0 0 0 0 29.87055
4.0238314 -4.093904 0.89369988 0 0 0 0 29.875498
3.9457757 -4.1060257 0.7317431 0 0 0 0 29.880445
4.5355802 -4.8453822 0.66760987 0 0 0 0 29.885393
4.1327062 -3.9197838 1.0456474 0 0 0 0 29.890337
4.1247449 -4.0118256 0.89267278 0 0 0 0 29.895285
4.0997505 -4.0748858 0.73970085 0 0 0 0 29.900232
4.0437293 -4.1179829 0.57473916 0 0 0 0 29.90518
4.3257332 -3.9275992 1.0715954 0 0 0 0 29.910128
4.1956234 -3.8997819 0.88565469 0 0 0 0 29.915071
4.1445951 -3.9338725 0.7266894 0 0 0 0 29.920019
4.1356211 -4.0159154 0.56971347 0 0 0 0 29.924967
4.5867929 -3.9851604 1.1123745 0 0 0 0 29.836294
4.3655767 -3.8764548 0.89946318 0 0 0 0 29.841242
4.3055305 -3.8985581 0.73450089 0 0 0 0 29.846189
4.1944366 -3.8817208 0.5605548 0 0 0 0 29.851137
4.6206312 -3.8421619 1.0983686 0 0 0 0 29.856081
4.6276569 -3.9281895 0.93238699 0 0 0 0 29.861029
4.548583 -3.9293163 0.75642973 0 0 0 0 29.865976
4.3894382 -3.8725343 0.56949824 0 0 0 0 29.870924
4.649466 -3.6961701 1.0823648 0 0 0 0 29.875872
4.648478 -3.7692068 0.91638464 0 0 0 0 29.880816
4.6574903 -3.8402309 0.75639981 0 0 0 0 29.885763
4.6595025 -3.9152648 0.58641863 0 0 0 0 29.890711
4.6693025 -3.5491884 1.0663651 0 0 0 0 29.895658
4.6793156 -3.6222124 0.90238017 0 0 0 0 29.900606
4.6783118 -3.6792483 0.7413975 0 0 0 0 29.905554
4.6823192 -3.7482796 0.57441455 0 0 0 0 29.910498
4.7031569 -3.4151907 1.0553617 0 0 0 0 29.915445
4.699151 -3.4722311 0.88738042 0 0 0 0 29.920393
4.7051439 -3.5252588 0.72839409 0 0 0 0 29.925341
4.7091479 -3.5902894 0.56241053 0 0 0 0 29.930288
4.7260094 -3.2782063 1.0413631 0 0 0 0 29.935236
4.7239962 -3.328244 0.87437981 0 0 0 0 29.94018
4.7349896 -3.3802657 0.71739125 0 0 0 0 29.945127
4.7379827 -3.4352975 0.55140656 0 0 0 0 29.950075
4.7458634 -3.1412249 1.028366 0 0 0 0 29.955023
4.7588568 -3.1952455 0.86437702 0 0 0 0 29.95997
4.7628365 -3.2352755 0.70538962 0 0 0 0 29.964918
4.7548165 -3.2773192 0.54040766 0 0 0 0 29.969862
4.7747288 -3.012234 1.0163667 0 0 0 0 29.97481
4.77671 -3.0552669 0.85238069 0 0 0 0 29.979757
4.7746787 -3.0843031 0.69339418 0 0 0 0 29.984705
4.7916703 -3.135319 0.53140312 0 0 0 0 29.989653
4.7915926 -2.8802564 1.0043722 0 0 0 0 29.994596
4.7945652 -2.9152882 0.83938468 0 0 0 0 29.999544
4.8035402 -2.9483118 0.68339425 0 0 0 0 30.004492
4.8165226 -2.9903321 0.52240354 0 0 0 0 30.009439
4.8104601 -2.7502768 0.9923777 0 0 0 0 30.014387
4.8244371 -2.7872961 0.83038586 0 0 0 0 30.019335
4.8324046 -2.8133211 0.67439485 0 0 0 0 30.024279
4.833375 -2.8433542 0.51340729 0 0 0 0 30.029226
4.8413415 -2.6302843 0.98338002 0 0 0 0 30.034174
4.849308 -2.6573102 0.82038921 0 0 0 0 30.039122
4.8552713 -2.6783369 0.66639829 0 0 0 0 30.044069
4.8662405 -2.7063591 0.50640637 0 0 0 0 30.049017
4.8562174 -2.5043092 0.97238833 0 0 0 0 30.053961
4.8671803 -2.5273318 0.81039572 0 0 0 0 30.058908
4.8841443 -2.5473464 0.6584003 0 0 0 0 30.063856
4.8921089 -2.5703716 0.49940893 0 0 0 0 30.068804
4.8730955 -2.3793325 0.96139628 0 0 0 0 30.073751
4.8920603 -2.4023461 0.80240047 0 0 0 0 30.078699
4.9060187 -2.416364 0.65040541 0 0 0 0 30.083643
4.9119759 -2.4313912 0.49141371 0 0 0 0 30.088591
4.9039855 -2.2623408 0.95340008 0 0 0 0 30.093538
4.9159436 -2.2783618 0.79440618 0 0 0 0 30.098486
4.9198914 -2.2823904 0.64141369 0 0 0 0 30.103434
4.9378524 -2.2994044 0.48541754 0 0 0 0 30.108377
4.9218745 -2.143363 0.94440913 0 0 0 0 30.113325
4.9408288 -2.1553764 0.78641194 0 0 0 0 30.118273
4.9607835 -2.163388 0.63641375 0 0 0 0 30.12322
4.9677334 -2.1694138 0.48042047 0 0 0 0 30.128168
4.944768 -2.02738 0.93641692 0 0 0 0 30.133116
4.9647188 -2.0343924 0.77941871 0 0 0 0 30.13806
4.9656582 -2.028424 0.62742603 0 0 0 0 30.143007
4.984611 -2.0354369 0.47442821 0 0 0 0 30.147955
4.9596586 -1.907406 0.92742759 0 0 0 0 30.152903
4.9706044 -1.9084277 0.77043205 0 0 0 0 30.15785
4.9835458 -1.9024463 0.62143475 0 0 0 0 30.162798
5.0094976 -1.9074517 0.46943408 0 0 0 0 30.167742
4.9755559 -1.7914308 0.91943872 0 0 0 0 30.172689
4.9904966 -1.7874485 0.76244104 0 0 0 0 30.177637
5.009439 -1.7804604 0.61644131 0 0 0 0 30.182585
5.0223813 -1.7754794 0.46344429 0 0 0 0 30.187532
4.9904547 -1.675457 0.91145051 0 0 0 0 30.19248
5.0133953 -1.669466 0.75744957 0 0 0 0 30.197424
5.0253305 -1.6554852 0.61045164 0 0 0 0 30.202372
5.0422711 -1.6475 0.45945269 0 0 0 0 30.207319
5.0163593 -1.5634718 0.90545899 0 0 0 0 30.212267
5.0302944 -1.5514901 0.75046062 0 0 0 0 30.217215
5.0462275 -1.533505 0.60546076 0 0 0 0 30.222158
5.0641637 -1.5205187 0.45546085 0 0 0 0 30.227106
5.0332637 -1.449496 0.89847082 0 0 0 0 30.232054
5.0491943 -1.4325123 0.74447119 0 0 0 0 30.237001
5.0711269 -1.412521 0.60146886 0 0 0 0 30.241949
5.0870609 -1.3955364 0.4524692 0 0 0 0 30.246897
5.0501695 -1.3365207 0.89148319 0 0 0 0 30.251841
5.0730996 -1.3165295 0.73948056 0 0 0 0 30.256788
5.0910277 -1.2915421 0.5974791 0 0 0 0 30.261736
5.1019564 -1.2685627 0.44848058 0 0 0 0 30.266684
5.0740805 -1.2255381 0.88649344 0 0 0 0 30.271631
5.0930061 -1.2005512 0.73449177 0 0 0 0 30.276579
5.1019297 -1.1695727 0.59249282 0 0 0 0 30.281523
5.123858 -1.1445819 0.44649011 0 0 0 0 30.28647
5.0989938 -1.1155547 0.88250387 0 0 0 0 30.291418
4.9978843 -1.0606893 0.71354139 0 0 0 0 30.296366
4.8737731 -0.99784392 0.56058598 0 0 0 0 30.301313
4.7746763 -0.94697273 0.41262305 0 0 0 0 30.306261
4.6034255 -0.90160334 0.78724569 0 0 0 0 30.05221
4.4963145 -0.84874994 0.63628942 0 0 0 0 30.057158
4.3812051 -0.79190266 0.49833566 0 0 0 0 30.062105
4.3241143 -0.74899191 0.36936042 0 0 0 0 30.067053
4.28826 -0.74398547 0.72638232 0 0 0 0 30.071997
4.3131843 -0.71298635 0.60337579 0 0 0 0 30.076944
8.9961014 -1.4119668 1.0176164 0 0 0 0 30.081892
5.9763484 -0.88925713 0.50875503 0 0 0 0 30.08684
9.3833427 -1.4185066 1.5774876 0 0 0 0 30.091787
9.0890942 -1.2958812 1.2645987 0 0 0 0 30.096735
9.0379028 -1.2029889 1.0146174 0 0 0 0 30.101679
9.0397253 -1.1230406 0.76461703 0 0 0 0 30.106627
9.3941431 -1.2135656 1.5665029 0 0 0 0 30.111574
9.3329363 -1.1156882 1.2875252 0 0 0 0 30.116522
9.0707054 -0.99402112 1.0106225 0 0 0 0 30.121469
9.0595226 -0.90608603 0.76262623 0 0 0 0 30.126417
9.4319477 -1.0085958 1.5585083 0 0 0 0 30.131361
9.5037622 -0.92057616 1.3004798 0 0 0 0 30.136309
9.3005362 -0.7998451 1.0295538 0 0 0 0 30.141256
9.1893358 -0.69801593 0.76959449 0 0 0 0 30.146204
9.4707584 -0.8056252 1.5525138 0 0 0 0 30.151152
9.5085592 -0.70564151 1.2924972 0 0 0 0 30.156096
9.5553637 -0.59964585 1.0504763 0 0 0 0 30.161043
9.597167 -0.49565676 0.79945773 0 0 0 0 30.165991
9.5045691 -0.60166043 1.5455219 0 0 0 0 30.170938
5.2339087 -0.26920167 0.70512193 0 0 0 0 30.175886
5.2538018 -0.2072109 0.57311434 0 0 0 0 30.180834
5.2746959 -0.1462197 0.43710652 0 0 0 0 30.185778
5.2289286 -0.2152181 0.84214318 0 0 0 0 30.190725
5.2578192 -0.15221916 0.70313209 0 0 0 0 30.195673
5.2777081 -0.08422818 0.57312381 0 0 0 0 30.200621
5.301599 -0.019233864 0.43811443 0 0 0 0 30.205568
5.2518435 -0.10223678 0.84015453 0 0 0 0 30.210516
5.2747288 -0.033244092 0.70114493 0 0 0 0 30.21546
5.3016157 0.038754229 0.57313359 0 0 0 0 30.220407
5.3275042 0.10775063 0.43912309 0 0 0 0 30.225355
5.2697577 0.011738875 0.83616787 0 0 0 0 30.230303
5.300642 0.084740154 0.70115489 0 0 0 0 30.23525
5.3205247 0.16173129 0.57314563 0 0 0 0 30.240198
5.3414073 0.23772269 0.4401361 0 0 0 0 30.245142
5.2886739 0.12671562 0.83418089 0 0 0 0 30.25009
5.3155522 0.20571259 0.69816887 0 0 0 0 30.255037
5.3374333 0.28670609 0.57315838 0 0 0 0 30.259985
5.3803134 0.36771989 0.44314027 0 0 0 0 30.264933
5.3105884 0.24369498 0.83119297 0 0 0 0 30.269876
5.3324647 0.32668713 0.6971823 0 0 0 0 30.274824
5.3683434 0.41269493 0.57516617 0 0 0 0 30.279772
5.4032187 0.4997007 0.44615036 0 0 0 0 30.284719
5.3235068 0.35866523 0.82920879 0 0 0 0 30.289667
5.3723774 0.45068485 0.70018727 0 0 0 0 30.294615
5.4002509 0.54268438 0.57717347 0 0 0 0 30.299559
5.4311237 0.63368607 0.44915873 0 0 0 0 30.304506
5.3664217 0.48066556 0.83121318 0 0 0 0 30.309454
5.3852911 0.57365483 0.69920254 0 0 0 0 30.314402
5.4291601 0.67267048 0.57918215 0 0 0 0 30.319349
5.4610276 0.77067316 0.45216635 0 0 0 0 30.324297
5.3843384 0.60064024 0.82922715 0 0 0 0 30.329241
5.4202018 0.70264655 0.70020938 0 0 0 0 30.334188
5.4500699 0.80364835 0.58119404 0 0 0 0 30.339136
5.4799347 0.90664917 0.4561784 0 0 0 0 30.344084
5.4132533 0.72462565 0.82923704 0 0 0 0 30.349031
5.4441133 0.83162707 0.70122057 0 0 0 0 30.353979
5.4689779 0.93762386 0.58220643 0 0 0 0 30.358923
5.4968386 1.0466229 0.45919091 0 0 0 0 30.363871
5.4351697 0.84860384 0.82824969 0 0 0 0 30.368818
5.4610267 0.96060038 0.70123446 0 0 0 0 30.373766
7.9795098 1.5610427 0.85128629 0 0 0 0 30.378714
8.0252991 1.7260474 0.67425925 0 0 0 0 30.383657
5.4530854 0.97457784 0.82726383 0 0 0 0 30.388605
7.9575777 1.5840007 1.0213261 0 0 0 0 30.393553
8.0093622 1.7600127 0.8562957 0 0 0 0 30.3985
8.059144 1.9370214 0.68126595 0 0 0 0 30.403448
7.9506559 1.5989746 1.2013619 0 0 0 0 30.408396
8.0014334 1.7809839 1.0253311 0 0 0 0 30.41334
8.0442123 1.9639874 0.86130315 0 0 0 0 30.418287
8.0979872 2.1509998 0.68927109 0 0 0 0 30.423235
7.9835172 1.7879466 1.2013719 0 0 0 0 30.428183
8.0302868 1.9799521 1.0273416 0 0 0 0 30.43313
8.0800629 2.1719625 0.86731035 0 0 0 0 30.438078
8.135828 2.3719769 0.69727618 0 0 0 0 30.443022
8.022378 1.9819241 1.2033798 0 0 0 0 30.447969
8.0641422 2.1819251 1.0313503 0 0 0 0 30.452917
8.1119089 2.3859334 0.87231851 0 0 0 0 30.457865
8.1686697 2.5939491 0.70628333 0 0 0 0 30.462812
8.0382395 2.1748788 1.201396 0 0 0 0 30.46776
8.0999956 2.3888993 1.0353583 0 0 0 0 30.472704
8.1447573 2.6019049 0.87932658 0 0 0 0 30.477652
8.4364395 2.9041421 0.73520184 0 0 0 0 30.482599
8.0830936 2.3798611 1.2034013 0 0 0 0 30.487547
8.1248474 2.5988624 1.03837 0 0 0 0 30.492495
8.408536 2.9040935 0.91124833 0 0 0 0 30.497438
8.4692726 3.1441121 0.74620849 0 0 0 0 30.502386
8.1149521 2.5828307 1.2054118 0 0 0 0 30.507334
8.3956308 2.898057 1.0732906 0 0 0 0 30.512281
8.4513702 3.1400723 0.92025244 0 0 0 0 30.517229
8.5140982 3.3940928 0.7582106 0 0 0 0 30.522177
8.3653879 2.8671942 1.23999 0 0 0 0 30.785921
8.4471388 3.1292274 1.0819472 0 0 0 0 30.790865
8.4919014 3.3802302 0.93091613 0 0 0 0 30.795813
8.5686455 3.6532586 0.77287376 0 0 0 0 30.80076
8.4252501 3.0951827 1.245995 0 0 0 0 30.805708
8.4630051 3.3541784 1.084965 0 0 0 0 30.810656
8.5597439 3.6402254 0.9439159 0 0 0 0 30.815599
8.6134882 3.9162345 0.7868799 0 0 0 0 30.820547
8.459115 3.3201487 1.2490079 0 0 0 0 30.825495
8.4998608 3.5951471 1.0919756 0 0 0 0 30.830442
8.5895958 3.8911879 0.95392776 0 0 0 0 30.83539
8.653327 4.1872053 0.80088705 0 0 0 0 30.840338
8.4939804 3.5511153 1.2530205 0 0 0 0 30.845282
8.5727053 3.8561454 1.1039748 0 0 0 0 30.850229
8.6294422 4.1531587 0.96593618 0 0 0 0 30.855177
8.6151943 4.4251122 0.80891931 0 0 0 0 30.860125
8.5478344 3.7990966 1.2590266 0 0 0 0 30.865072
8.6095572 4.1111131 1.112985 0 0 0 0 30.87002
8.6173038 4.3980861 0.97196072 0 0 0 0 30.874964
8.4970942 4.6249542 0.80997688 0 0 0 0 30.879911
8.5926914 4.0470705 1.2650356 0 0 0 0 30.884859
8.6434088 4.3700781 1.1209961 0 0 0 0 30.889807
8.4702196 4.5749044 0.96402824 0 0 0 0 30.894754
8.2500553 4.7476926 0.79907602 0 0 0 0 30.899702
8.6145506 4.2940245 1.2680513 0 0 0 0 30.904646
8.4403515 4.50985 1.100082 0 0 0 0 30.909594
8.2961521 4.7327023 0.95410407 0 0 0 0 30.914541
7.9070659 4.8053575 0.77820545 0 0 0 0 30.919489
8.4484825 4.4458275 1.2441258 0 0 0 0 30.924437
8.3692446 4.7187314 1.0961255 0 0 0 0 30.92938
7.955164 4.7863688 0.92423284 0 0 0 0 30.934328
7.9029312 5.0612974 0.79322505 0 0 0 0 30.939276
8.4373569 4.6807556 1.2431515 0 0 0 0 30.944223
8.0212584 4.7673926 1.0562559 0 0 0 0 30.949171
7.8760672 4.9902482 0.92627722 0 0 0 0 30.954119
7.9557619 5.3672829 0.81322515 0 0 0 0 30.959063
8.1183586 4.7414398 1.1972728 0 0 0 0 30.96401
7.8562016 4.9142027 1.0413281 0 0 0 0 30.968958
7.9179101 5.2802238 0.94228202 0 0 0 0 30.973906
8.0065908 5.6812654 0.83522552 0 0 0 0 30.978853
7.8523459 4.8251696 1.1593765 0 0 0 0 30.983801
7.8960538 5.1911764 1.053335 0 0 0 0 30.988745
7.9837379 5.5952182 0.96227884 0 0 0 0 30.993692
9.0318785 6.7380075 0.96190858 0 0 0 0 30.99864
7.8722138 5.0801268 1.1653908 0 0 0 0 31.003588
7.9229054 5.4731393 1.064345 0 0 0 0 31.008535
8.0095778 5.8971806 0.9782874 0 0 0 0 31.013483
9.1406364 7.1630287 0.99488795 0 0 0 0 31.018427
7.9160638 5.3631024 1.1743969 0 0 0 0 31.023375
8.0087261 5.8041477 1.0853363 0 0 0 0 31.028322
9.0788374 7.0149469 1.1259609 0 0 0 0 31.03327
9.2044106 7.5740132 1.0248806 0 0 0 0 31.038218
7.9739041 5.6650887 1.1873982 0 0 0 0 31.043165
9.0370264 6.8708782 1.2360284 0 0 0 0 31.048109
9.1696081 7.4299521 1.1559471 0 0 0 0 31.053057
9.0143375 7.7788043 1.0279557 0 0 0 0 31.058004
7.9567795 5.9230165 1.1894224 0 0 0 0 31.062952
9.119812 7.2658763 1.259019 0 0 0 0 31.0679
9.0764809 7.708817 1.1629913 0 0 0 0 31.072844
9.0860939 8.2257957 1.0629435 0 0 0 0 31.077791
9.0700388 7.0688014 1.362094 0 0 0 0 31.082739
9.1746044 7.6568527 1.2800171 0 0 0 0 31.087687
9.0403128 8.0497255 1.1790156 0 0 0 0 31.092634
9.160841 8.6947889 1.0999292 0 0 0 0 31.097582
9.1608181 7.4768038 1.3820826 0 0 0 0 31.102526
8.9985304 7.8636556 1.2710875 0 0 0 0 31.107473
9.1150713 8.5017185 1.2120035 0 0 0 0 31.112421
9.255558 9.2137957 1.141906 0 0 0 0 31.117369
9.0227261 7.7056346 1.3681418 0 0 0 0 31.122316
9.0663004 8.2976418 1.295079 0 0 0 0 31.127264
9.2138023 9.0007267 1.248982 0 0 0 0 31.132208
9.3452692 9.7507982 1.1868834 0 0 0 0 31.137156
9.0225477 8.0645695 1.3761566 0 0 0 0 31.142103
9.1400585 8.7566309 1.3230675 0 0 0 0 31.147051
9.2965279 9.5167227 1.2859633 0 0 0 0 31.151999
9.0352621 9.8875074 1.1819905 0 0 0 0 31.156946
9.1043148 8.5115643 1.3981448 0 0 0 0 31.16189
9.2357903 9.264637 1.3560472 0 0 0 0 31.166838
9.1983747 9.862587 1.3010023 0 0 0 0 31.171785
8.6673126 9.945178 1.1691161 0 0 0 0 31.176733
9.1840696 8.9825573 1.4221321 0 0 0 0 31.181681
9.308527 9.7716236 1.388033 0 0 0 0 31.186625
8.8194304 9.9082499 1.2761312 0 0 0 0 31.191572
8.2833891 9.9648428 1.1542468 0 0 0 0 31.19652
9.2398357 9.4455309 1.4431262 0 0 0 0 31.201468
8.9965324 9.8873348 1.3631402 0 0 0 0 31.206415
8.4644823 9.9629345 1.2562517 0 0 0 0 31.211363
7.9584236 10.048553 1.1473559 0 0 0 0 31.216307
9.2106466 9.848444 1.4521447 0 0 0 0 31.221254
8.6415815 9.9430189 1.3322603 0 0 0 0 31.226202
8.1015444 10.001618 1.233373 0 0 0 0 31.23115
7.6264758 10.108265 1.1394671 0 0 0 0 31.236097
8.8526907 9.9061251 1.409265 0 0 0 0 31.241045
8.3166142 10.022729 1.3063695 0 0 0 0 31.245989
7.7815847 10.074336 1.2164799 0 0 0 0 31.250937
7.2925344 10.157978 1.1295772 0 0 0 0 31.255884
8.4994373 9.9556942 1.3676147 0 0 0 0 30.984209
7.9433718 10.042238 1.2717507 0 0 0 0 30.989157
7.4543076 10.13384 1.1988692 0 0 0 0 30.994104
6.995225 10.249465 1.125977 0 0 0 0 30.999052
8.1434956 9.9893541 1.3257496 0 0 0 0 31.004
7.6244121 10.104933 1.2468712 0 0 0 0 31.008944
7.1323581 10.186536 1.1819898 0 0 0 0 31.013891
7.066844 10.894472 1.1839346 0 0 0 0 31.018839
7.8235297 10.057046 1.2908696 0 0 0 0 31.023787
7.3044624 10.15563 1.2209913 0 0 0 0 31.028734
7.0102043 10.521392 1.2000291 0 0 0 0 31.033682
7.1943641 11.685524 1.2578636 0 0 0 0 31.038626
7.5135674 10.12175 1.2579856 0 0 0 0 31.043573
7.0084963 10.23035 1.2001009 0 0 0 0 31.048521
7.1277714 11.248433 1.261968 0 0 0 0 31.053469
7.3538132 12.588599 1.3447745 0 0 0 0 31.058416
7.206615 10.175461 1.2261 0 0 0 0 31.063364
7.0501666 10.813333 1.239074 0 0 0 0 31.068308
7.2772617 12.093499 1.3358881 0 0 0 0 31.073256
6.8920145 12.458198 1.3199449 0 0 0 0 31.078203
6.9605975 10.321221 1.2041882 0 0 0 0 31.083151
7.1617308 11.554368 1.2940147 0 0 0 0 31.088099
6.8963661 12.09016 1.3140243 0 0 0 0 31.093046
7.1103134 13.593319 1.429818 0 0 0 0 31.09799
7.1001625 11.059278 1.2511233 0 0 0 0 31.102938
7.3112087 12.428431 1.3599337 0 0 0 0 31.107885
7.0048485 12.968196 1.3899516 0 0 0 0 31.112833
7.4933043 15.183562 1.5866072 0 0 0 0 31.117781
7.2316961 11.853324 1.3000555 0 0 0 0 31.122725
6.850409 12.289036 1.3141005 0 0 0 0 31.127672
7.167202 14.043271 1.482847 0 0 0 0 31.13262
3.6136107 7.7826114 0.80632126 0 0 0 0 31.137568
7.3801713 12.744383 1.3559753 0 0 0 0 31.142515
7.0307932 13.320123 1.395997 0 0 0 0 31.147463
7.3324871 15.235348 1.5867312 0 0 0 0 31.152407
3.451602 7.9114652 0.81637675 0 0 0 0 31.157354
6.9273629 12.615997 1.3031366 0 0 0 0 31.162302
7.1571841 14.357167 1.4729068 0 0 0 0 31.16725
3.5277467 7.7904949 0.80040145 0 0 0 0 31.172197
3.3405011 8.1763592 0.83940566 0 0 0 0 31.177145
7.1466861 13.749108 1.3800167 0 0 0 0 31.182089
7.1946497 15.303147 1.538847 0 0 0 0 31.187037
3.4126663 8.0243845 0.81543463 0 0 0 0 31.191984
6.1980886 16.225431 1.6619722 0 0 0 0 31.196932
7.4608083 15.196286 1.481846 0 0 0 0 31.20188
3.4678469 7.8433957 0.77247041 0 0 0 0 31.206827
3.6049378 7.7914639 0.73747593 0 0 0 0 31.221666
3.3727288 8.1353006 0.78549266 0 0 0 0 31.226614
3.4429336 7.9133196 0.72853011 0 0 0 0 31.241453
6.276433 16.169352 1.5370911 0 0 0 0 31.246401
3.3378332 8.1822176 0.73155653 0 0 0 0 31.261244
6.2015872 16.250202 1.4171863 0 0 0 0 31.281031
3.2911246 16.045172 1.6268626 0 0 0 0 31.335447
4.3088317 16.543806 1.4486523 0 0 0 0 31.345343
2.8893015 15.972879 1.6199805 0 0 0 0 31.355234
3.1373789 15.974007 1.5039676 0 0 0 0 31.370077
2.5213873 16.044615 1.6310747 0 0 0 0 31.375025
2.7574856 16.009733 1.4980675 0 0 0 0 31.389864
2.1474988 16.076349 1.6371715 0 0 0 0 31.394812
2.9925811 15.973846 1.3400618 0 0 0 0 31.404707
2.3845916 16.04847 1.4941633 0 0 0 0 31.409651
1.7755885 16.144093 1.6462617 0 0 0 0 31.414598
3.3026059 16.047005 1.1690339 0 0 0 0 31.419546
2.6206768 16.027582 1.3271556 0 0 0 0 31.424494
2.0106876 16.10421 1.4922549 0 0 0 0 31.429441
1.4056814 16.208843 1.6583493 0 0 0 0 31.434389
2.9027653 15.995721 1.1361431 0 0 0 0 31.439333
2.2477734 16.080322 1.3142473 0 0 0 0 31.444281
1.6437584 16.202959 1.4953383 0 0 0 0 31.449228
1.0317736 16.275593 1.670435 0 0 0 0 31.454176
2.5323133 16.060188 1.1146518 0 0 0 0 31.676378
1.8733263 16.136837 1.3027298 0 0 0 0 31.681326
1.2693353 16.22052 1.4927999 0 0 0 0 31.68627
2.1554158 16.111956 1.0917275 0 0 0 0 31.696165
1.5024197 16.207615 1.2948004 0 0 0 0 31.701113
0.90036923 16.405304 1.5048572 0 0 0 0 31.70606
1.7835044 16.190731 1.0717974 0 0 0 0 31.715952
1.1215419 16.225391 1.2818744 0 0 0 0 31.7209
1.4056175 16.22551 1.0498695 0 0 0 0 31.735743
0.75949669 16.565184 1.2949141 0 0 0 0 31.740686
1.0306789 16.361294 1.0349295 0 0 0 0 31.755529
-1.791961 17.566822 0.95727354 0 0 0 0 31.894045
-3.8519313 17.889935 1.9804169 0 0 0 0 31.908888
-4.2827916 17.896748 1.9994638 0 0 0 0 31.928675
-4.5703912 17.330629 1.9545466 0 0 0 0 31.948462
-4.9762239 17.267462 1.9675918 0 0 0 0 31.968252
-4.7671547 17.295546 1.6165859 0 0 0 0 31.983091
-5.4231071 17.317287 1.993627 0 0 0 0 31.988039
-4.5660772 17.30662 1.2465831 0 0 0 0 31.997931
-5.203021 17.309374 1.626623 0 0 0 0 32.002876
-5.874989 17.366114 2.0216594 0 0 0 0 32.007828
-4.997931 17.293449 1.2436221 0 0 0 0 32.017723
-5.6639066 17.367195 1.6416551 0 0 0 0 32.022667
-6.3508906 17.458937 2.0556867 0 0 0 0 32.027611
-4.7588682 17.340536 0.83061492 0 0 0 0 32.032562
-5.4668236 17.369268 1.2476523 0 0 0 0 32.037506
-6.1347976 17.438021 1.6606832 0 0 0 0 32.042458
-6.8357816 17.53076 2.0887127 0 0 0 0 32.047401
-5.2087326 17.354364 0.81764907 0 0 0 0 32.052353
-5.9387112 17.436092 1.2516804 0 0 0 0 32.057297
-6.61869 17.514845 1.6797084 0 0 0 0 32.062241
-5.682611 17.401186 0.80567855 0 0 0 0 32.072136
-6.4085822 17.464922 1.2547081 0 0 0 0 32.077087
-7.4649358 18.44553 1.7816774 0 0 0 0 32.082031
-6.164494 17.461012 0.79770392 0 0 0 0 32.091927
-6.9374995 17.606735 1.264726 0 0 0 0 32.09687
-7.9587851 18.434364 1.7957025 0 0 0 0 32.101822
-8.8028402 18.704069 2.3167148 0 0 0 0 32.106766
-6.6884065 17.595827 0.79272175 0 0 0 0 32.11171
-7.8127384 18.54442 1.3356905 0 0 0 0 32.116661
-9.3156853 18.685907 2.3467345 0 0 0 0 32.126556
-9.7774858 18.550776 2.3637581 0 0 0 0 32.146339
-9.7152205 18.804192 1.886771 0 0 0 0 31.92948
-10.293001 18.490978 2.3918371 0 0 0 0 31.934427
-9.572176 18.872252 1.371753 0 0 0 0 31.944319
-10.877879 18.544767 2.4368658 0 0 0 0 31.954214
-10.208087 19.007015 1.3877801 0 0 0 0 31.964109
-11.505775 18.639544 2.4888899 0 0 0 0 31.974001
-10.824961 19.061792 1.3998083 0 0 0 0 31.983896
-11.607904 19.099504 1.9838505 0 0 0 0 31.988844
-12.14566 18.711325 2.5389123 0 0 0 0 31.993792
-11.457832 19.116571 1.4128332 0 0 0 0 32.003685
-12.310815 19.237261 2.0248692 0 0 0 0 32.008629
-12.676464 18.59816 2.5689397 0 0 0 0 32.01358
-11.294796 19.211639 0.79680973 0 0 0 0 32.018524
-12.139724 19.215336 1.4308529 0 0 0 0 32.023476
-12.556414 18.661219 1.9909177 0 0 0 0 32.028419
-13.323328 18.622953 2.6159575 0 0 0 0 32.033363
-12.463364 18.728262 1.4048975 0 0 0 0 32.043259
-13.155246 18.612032 2.0149381 0 0 0 0 32.04821
-14.005204 18.675739 2.6739705 0 0 0 0 32.053154
-13.021161 18.603096 1.407921 0 0 0 0 32.063049
-13.884138 18.706799 2.0549486 0 0 0 0 32.067993
-14.980222 19.067413 2.7819645 0 0 0 0 32.072945
-12.860098 18.647167 0.75689906 0 0 0 0 32.077888
-13.753053 18.698864 1.43093 0 0 0 0 32.08284
-14.851143 19.076481 2.1299422 0 0 0 0 32.087784
-15.575014 18.925253 2.8149791 0 0 0 0 32.092728
-13.572968 18.700943 0.7559095 0 0 0 0 32.097679
-14.729052 19.060541 1.4739227 0 0 0 0 32.102623
-15.472947 18.962311 2.1539543 0 0 0 0 32.107574
-15.679576 18.205296 2.7650163 0 0 0 0 32.112518
-14.608994 19.130598 0.76889729 0 0 0 0 32.117462
-15.406875 18.997351 1.4869317 0 0 0 0 32.122414
-15.600507 18.237343 2.1079924 0 0 0 0 32.127357
-15.785159 17.51734 2.7170496 0 0 0 0 32.132309
-15.337833 19.114389 0.76790291 0 0 0 0 32.137253
-15.545433 18.265381 1.4489703 0 0 0 0 32.142197
-15.698079 17.51939 2.0630274 0 0 0 0 32.147148
-15.888759 16.849382 2.6710792 0 0 0 0 32.152092
-15.452371 18.332428 0.73594427 0 0 0 0 32.157043
-15.661005 17.546421 1.4120054 0 0 0 0 32.161987
-15.811676 16.845432 2.0230577 0 0 0 0 32.166939
-15.984376 16.206432 2.627105 0 0 0 0 32.171883
-15.574934 17.589468 0.70498103 0 0 0 0 32.176826
-15.751587 16.832472 1.3750376 0 0 0 0 32.181778
-15.923293 16.201477 1.9860837 0 0 0 0 32.186722
-16.085011 15.589483 2.5881276 0 0 0 0 32.191673
-15.680514 16.868515 0.67701381 0 0 0 0 32.196617
-15.858194 16.159521 1.3410654 0 0 0 0 32.201561
-16.012918 15.561531 1.9491073 0 0 0 0 32.206512
-16.182661 14.996535 2.5511467 0 0 0 0 32.211456
-15.79612 16.191561 0.65404171 0 0 0 0 32.216408
-15.965821 15.519569 1.3110889 0 0 0 0 32.221352
-16.116564 14.950582 1.9141276 0 0 0 0 32.226303
-16.274326 14.418591 2.5151629 0 0 0 0 32.231247
-15.960758 15.58059 0.6310637 0 0 0 0 32.236191
-16.069466 14.901621 1.2851092 0 0 0 0 32.241142
-16.215227 14.364635 1.8841443 0 0 0 0 32.246086
-16.351999 13.847652 2.4791772 0 0 0 0 32.251038
-16.013376 14.891662 0.60708809 0 0 0 0 32.255981
-16.176123 14.299674 1.2571267 0 0 0 0 32.260925
-16.314903 13.797691 1.8551581 0 0 0 0 32.265877
-16.44869 13.30471 2.4491882 0 0 0 0 32.270821
-16.098022 14.259723 0.58710718 0 0 0 0 32.275772
-16.260788 13.705735 1.232142 0 0 0 0 32.280716
-16.414591 13.241747 1.8261695 0 0 0 0 32.28566
-16.542395 12.779769 2.4201963 0 0 0 0 32.290611
-16.201687 13.659778 0.56812263 0 0 0 0 32.295555
-16.356474 13.140794 1.2101537 0 0 0 0 32.300507
-16.500288 12.69681 1.7991787 0 0 0 0 32.30545
-16.625105 12.254833 2.3892033 0 0 0 0 32.310402
-16.298367 13.077838 0.55013525 0 0 0 0 32.315346
-16.449167 12.580855 1.1861635 0 0 0 0 32.32029
-16.577995 12.161877 1.7731858 0 0 0 0 32.325241
-16.702827 11.745901 2.3622077 0 0 0 0 32.330185
-16.386057 12.507901 0.53514552 0 0 0 0 32.335136
-16.530872 12.037922 1.1671709 0 0 0 0 32.34008
-16.698723 11.66493 1.7521888 0 0 0 0 32.345024
-16.788563 11.254966 2.3372095 0 0 0 0 32.349976
-16.480761 11.952964 0.52015328 0 0 0 0 32.354919
-16.627594 11.517983 1.1481751 0 0 0 0 32.359871
-16.753447 11.141007 1.7281927 0 0 0 0 32.364815
-16.871304 10.768033 2.3112097 0 0 0 0 32.369759
-16.58848 11.427024 0.50715744 0 0 0 0 32.37471
-16.745327 11.019041 1.1321763 0 0 0 0 32.379654
-16.863194 10.664067 1.7101916 0 0 0 0 32.384605
-16.941055 10.289106 2.2882082 0 0 0 0 32.389549
-16.670118 10.894074 0.49348617 0 0 0 0 32.797668
-16.792068 10.494109 1.1124896 0 0 0 0 32.80262
-16.960037 10.186134 1.6904837 0 0 0 0 32.807564
-0.39297771 0.214147 0.050473452 0 0 0 0 32.832298
-0.33996215 0.19915278 0.0084833149 0 0 0 0 32.837242
-0.38895765 0.21714345 0.023482123 0 0 0 0 32.842194
-0.39894933 0.21414106 0.037485588 0 0 0 0 32.847137
-0.38990119 0.19113618 0.048508804 0 0 0 0 32.871872
-0.35788742 0.18613797 0.0085164411 0 0 0 0 32.876823
-0.3868809 0.1931325 0.022517459 0 0 0 0 32.881767
-0.40287325 0.19312923 0.036520101 0 0 0 0 32.886719
-0.40482679 0.17612265 0.049541861 0 0 0 0 32.911453
-0.38881403 0.17912167 0.0095476015 0 0 0 0 32.916397
-0.40180618 0.17711902 0.023550551 0 0 0 0 32.921341
-0.41679865 0.1771161 0.037553169 0 0 0 0 32.926292
-0.42075288 0.16210938 0.050574496 0 0 0 0 32.951027
-0.40873975 0.16510767 0.0095798895 0 0 0 0 32.955971
-0.4267323 0.16510449 0.023582069 0 0 0 0 32.960922
-0.43772474 0.16310237 0.038585108 0 0 0 0 32.965866
-0.42467836 0.14209795 0.049608584 0 0 0 0 32.990601
-0.42066514 0.14609516 0.0096130641 0 0 0 0 32.995552
-0.41265661 0.13709544 0.022618653 0 0 0 0 33.000496
-0.40664822 0.13009539 0.034623913 0 0 0 0 33.00544
-0.35660091 0.10109462 0.040652592 0 0 0 0 33.030182
-0.37758911 0.11108924 0.0086537106 0 0 0 0 33.035126
-0.37558103 0.10508861 0.020658473 0 0 0 0 33.04007
-0.36757272 0.099088542 0.03066401 0 0 0 0 33.045021
-0.32852688 0.078085676 0.036691315 0 0 0 0 33.069756
-0.34951475 0.084080696 0.0076925061 0 0 0 0 33.074699
-0.34950694 0.080079734 0.01869694 0 0 0 0 33.079651
-0.34649912 0.07707902 0.028701726 0 0 0 0 33.084595
-0.32345435 0.061074067 0.035726897 0 0 0 0 33.109329
-0.3284415 0.062070824 0.0067304266 0 0 0 0 33.114281
-0.33943412 0.061068848 0.017733177 0 0 0 0 33.119225
-0.34642661 0.060067199 0.027736479 0 0 0 0 33.124168
-0.33338282 0.048061248 0.03676014 0 0 0 0 33.148903
-0.31936929 0.044059541 0.0067666387 0 0 0 0 33.153854
-0.34036216 0.04505692 0.017767746 0 0 0 0 33.158798
-0.33835453 0.04305597 0.026772387 0 0 0 0 33.16375
-0.33731136 0.033049028 0.036794219 0 0 0 0 33.188484
-0.33129776 0.030046679 0.0067995205 0 0 0 0 33.193428
-0.34729058 0.029044639 0.017801335 0 0 0 0 33.19838
-0.34128305 0.027043909 0.026806597 0 0 0 0 33.203323
-0.32823998 0.018037522 0.034830283 0 0 0 0 33.228058
-0.32222641 0.013035205 0.0068357107 0 0 0 0 33.233002
-0.34321937 0.012033088 0.017836604 0 0 0 0 33.237953
-0.33721203 0.011032263 0.026841866 0 0 0 0 33.242897
-0.33816943 0.0030251411 0.03586325 0 0 0 0 33.267632
-0.33667305 -0.0018896447 0.0076171588 0 0 0 0 32.980293
-0.34766534 -0.0028920816 0.017620163 0 0 0 0 32.985245
-0.34265766 -0.0028924651 0.026624989 0 0 0 0 32.990189
-0.34261411 -0.010899425 0.035646565 0 0 0 0 33.014923
-0.3376011 -0.017901637 0.0076517542 0 0 0 0 33.019867
-0.34659347 -0.01890371 0.017654926 0 0 0 0 33.024818
-0.33658576 -0.018903635 0.025660411 0 0 0 0 33.029762
-0.34454277 -0.02591148 0.035680909 0 0 0 0 33.054497
-0.33852944 -0.034913607 0.0076863468 0 0 0 0 33.059448
-0.34852192 -0.03591568 0.017689312 0 0 0 0 33.064392
-0.35751456 -0.035917625 0.027692355 0 0 0 0 33.069344
-0.33847162 -0.040922765 0.034716286 0 0 0 0 33.094078
-0.3364583 -0.05092527 0.0077212434 0 0 0 0 33.099022
-0.3464509 -0.051927235 0.017724136 0 0 0 0 33.103966
-0.35244349 -0.051928855 0.026727533 0 0 0 0 33.108917
-0.33340088 -0.055934276 0.033751559 0 0 0 0 33.133652
-0.33338764 -0.06793686 0.0087563153 0 0 0 0 33.138596
-0.3463802 -0.068939 0.017758707 0 0 0 0 33.143547
-0.34737298 -0.067940161 0.026762741 0 0 0 0 33.148491
-0.33533058 -0.07194636 0.03378585 0 0 0 0 33.173225
-0.34731719 -0.087949701 0.0097889388 0 0 0 0 33.178177
-0.34831002 -0.086950853 0.018792963 0 0 0 0 33.183121
-0.35630265 -0.086952515 0.026795955 0 0 0 0 33.188065
-0.33926061 -0.088958524 0.033819802 0 0 0 0 33.212807
-0.34324729 -0.10496121 0.0098240422 0 0 0 0 33.217751
-0.34724021 -0.10396254 0.018827584 0 0 0 0 33.222694
-0.35123298 -0.1029639 0.026831126 0 0 0 0 33.227646
-0.33019111 -0.10197003 0.032855634 0 0 0 0 33.25238
-0.32317808 -0.11697213 0.0098616164 0 0 0 0 33.257324
-0.33317083 -0.11697374 0.017864192 0 0 0 0 33.262276
-0.3391636 -0.11697517 0.025867414 0 0 0 0 33.26722
-0.31812194 -0.11398166 0.031892039 0 0 0 0 33.291954
-0.38410851 -0.15998599 0.01188662 0 0 0 0 33.296906
-0.37710178 -0.15298685 0.020891747 0 0 0 0 33.301849
-0.38009492 -0.15098801 0.02989533 0 0 0 0 33.306793
-0.36405349 -0.14999458 0.035919074 0 0 0 0 33.331528
-0.40704027 -0.19299762 0.013917115 0 0 0 0 33.336479
-0.42003357 -0.19499885 0.023918986 0 0 0 0 33.341423
-0.428027 -0.19299996 0.033921607 0 0 0 0 33.346375
-0.41098619 -0.1910063 0.04094537 0 0 0 0 33.371109
-0.39397258 -0.21100853 0.013953401 0 0 0 0 33.376053
-0.40696603 -0.21200962 0.023955157 0 0 0 0 33.381004
-0.41695932 -0.21101071 0.032957383 0 0 0 0 33.385948
-0.40091866 -0.20801738 0.039981075 0 0 0 0 33.410683
-0.39890581 -0.23901957 0.01598667 0 0 0 0 33.415627
-0.40489918 -0.23602062 0.024989555 0 0 0 0 33.420578
-0.40589231 -0.23002172 0.032993302 0 0 0 0 33.425522
-5.0859504 -3.2229564 0.21017608 0 0 0 0 33.435417
-0.41485223 -0.24002817 0.041012567 0 0 0 0 33.450256
-3.2827101 -3.4107425 0.19961914 0 0 0 0 33.809303
-3.2907171 -3.4557245 0.2616232 0 0 0 0 33.834038
-3.3007214 -3.4997063 0.30862653 0 0 0 0 33.858772
-3.3407161 -3.4056964 0.35161489 0 0 0 0 33.863716
-3.2927196 -3.512691 0.34863418 0 0 0 0 33.883507
-2.161546 -2.8608649 0.16494729 0 0 0 0 33.908241
-2.0465269 -2.8458788 0.16398847 0 0 0 0 33.928032
-2.1485353 -2.8618596 0.19796176 0 0 0 0 33.932976
-1.9645157 -2.8738887 0.16502161 0 0 0 0 33.947815
-2.027513 -2.835876 0.1930051 0 0 0 0 33.952766
-2.1325204 -2.8588552 0.21897718 0 0 0 0 33.95771
