# .PCD v0.7 - Point Cloud Data file format
VERSION 0.7
FIELDS x y z normal_x normal_y normal_z intensity curvature
SIZE 4 4 4 4 4 4 4 4
TYPE F F F F F F F F
COUNT 1 1 1 1 1 1 1 1
WIDTH 975
HEIGHT 1
VIEWPOINT 0 0 0 1 0 0 0
POINTS 975
DATA ascii
-0.92997783 -3.8776875 3.2108791 0 0 0 0 24.816727
-1.0872545 -3.9412682 3.2986736 0 0 0 0 24.821674
-1.2564892 -3.9868367 3.3814149 0 0 0 0 24.826622
-0.69072175 -3.8402526 3.1333001 0 0 0 0 24.831568
-0.83786684 -3.8679082 3.1870553 0 0 0 0 24.836514
-0.98202997 -3.9035661 3.24283 0 0 0 0 24.841461
-1.1442275 -3.944171 3.3115773 0 0 0 0 24.846409
-0.60361439 -3.8254533 3.1154573 0 0 0 0 24.851357
-0.74267453 -3.8321633 3.1451945 0 0 0 0 24.856304
-0.88384348 -3.8758335 3.1969886 0 0 0 0 24.86125
-1.0430862 -3.934433 3.2727721 0 0 0 0 24.866196
-0.52265632 -3.853581 3.1346731 0 0 0 0 24.871143
-0.65662956 -3.8403435 3.1383874 0 0 0 0 24.876091
-0.79175109 -3.8730483 3.1761758 0 0 0 0 24.881039
-0.93481743 -3.8857558 3.2039156 0 0 0 0 24.885984
-0.45363811 -3.9833324 3.2379405 0 0 0 0 24.637228
-0.56807822 -3.8203428 3.112432 0 0 0 0 24.642174
-0.69613338 -3.8380876 3.1292048 0 0 0 0 24.647121
-0.83622539 -3.8627903 3.1579652 0 0 0 0 24.652069
-0.36240938 -3.9305866 3.1950424 0 0 0 0 24.657017
-0.49125472 -3.8894165 3.1607132 0 0 0 0 24.661963
-0.60296082 -3.8113387 3.0903563 0 0 0 0 24.66691
-0.73803645 -3.8360646 3.1111271 0 0 0 0 24.671856
-0.41040382 -3.9505074 3.2029881 0 0 0 0 24.681751
-0.52102238 -3.850472 3.1085966 0 0 0 0 24.686699
-0.64593762 -3.8332877 3.0873172 0 0 0 0 24.691645
-0.32333267 -3.9466951 3.1941643 0 0 0 0 24.701538
-0.447409 -3.9844601 3.2039797 0 0 0 0 24.706486
-0.5527994 -3.818527 3.0544884 0 0 0 0 24.711433
-0.35215962 -3.9317377 3.1500895 0 0 0 0 24.726273
-0.47506925 -3.9225745 3.1188285 0 0 0 0 24.73122
-0.38403305 -3.9357648 3.1120408 0 0 0 0 24.751009
-0.29300255 -3.9499509 3.1072543 0 0 0 0 24.770798
0.61857724 -4.3268056 3.6117222 0 0 0 0 24.874683
0.59207195 -4.3200932 3.4296625 0 0 0 0 24.924154
0.59036094 -4.3112836 3.3216465 0 0 0 0 24.948889
0.88870227 -4.2449064 3.2801282 0 0 0 0 25.008253
0.99077779 -4.2320991 3.2773082 0 0 0 0 25.028042
1.092842 -4.2212844 3.2784905 0 0 0 0 25.047829
1.1939313 -4.2014751 3.2746558 0 0 0 0 25.067616
1.2970022 -4.1866608 3.2758324 0 0 0 0 25.087406
1.4040381 -4.1808357 3.2870302 0 0 0 0 25.107193
1.507189 -4.1554284 3.2841468 0 0 0 0 25.987194
1.6152333 -4.144587 3.2953219 0 0 0 0 26.006981
1.7193002 -4.1247458 3.3014767 0 0 0 0 26.02677
1.8243781 -4.0999088 3.3056257 0 0 0 0 26.046558
1.9324343 -4.0810652 3.3167875 0 0 0 0 26.066345
2.0414853 -4.0622182 3.3309505 0 0 0 0 26.086134
2.1455781 -4.0283785 3.3340838 0 0 0 0 26.105923
2.3240075 -3.9821298 3.7133317 0 0 0 0 26.115816
2.3241563 -4.0493188 3.5774231 0 0 0 0 26.120762
2.2566333 -4.0055313 3.3492436 0 0 0 0 26.12571
2.3647056 -3.9756849 3.360388 0 0 0 0 26.145498
2.4827354 -3.9578335 3.3855658 0 0 0 0 26.165287
2.5987797 -3.9339821 3.4077308 0 0 0 0 26.185074
2.7058713 -3.8921332 3.4178555 0 0 0 0 26.204861
2.8378651 -3.8822813 3.4570661 0 0 0 0 26.224649
4.0264106 -3.7184379 4.6818314 0 0 0 0 26.387901
4.1029468 -3.645627 3.8608575 0 0 0 0 26.40274
5.009213 -2.9857242 4.0346065 0 0 0 0 26.230009
4.9412789 -2.9938872 4.5814967 0 0 0 0 26.239902
4.9959216 -2.9163702 4.2824836 0 0 0 0 26.24485
5.001617 -2.822803 3.9663646 0 0 0 0 26.249798
4.9437714 -2.9704423 4.9164639 0 0 0 0 26.254744
4.958612 -2.8579798 4.5323348 0 0 0 0 26.259691
5.0242257 -2.7834599 4.2463455 0 0 0 0 26.264637
5.1366992 -2.7419372 4.0134802 0 0 0 0 26.269585
4.9411349 -2.8315268 4.8522644 0 0 0 0 26.274532
5.0537429 -2.7690845 4.559371 0 0 0 0 26.27948
5.215168 -2.735605 4.3476009 0 0 0 0 26.284426
5.3675919 -2.704113 4.1348181 0 0 0 0 26.289371
5.0581899 -2.7626276 4.9073648 0 0 0 0 26.294319
5.2566295 -2.7342191 4.6826649 0 0 0 0 26.299267
5.4440398 -2.699764 4.4799371 0 0 0 0 26.304214
5.6324344 -2.6713045 4.281219 0 0 0 0 26.309162
5.2660303 -2.7377455 5.0496798 0 0 0 0 26.314108
5.4365849 -2.6783488 4.7838893 0 0 0 0 26.319054
5.5192466 -2.582865 4.4859009 0 0 0 0 26.324001
5.6757212 -2.5303926 4.2600961 0 0 0 0 26.328949
5.3611541 -2.6478426 5.0827141 0 0 0 0 26.333897
5.5377173 -2.5804513 4.8179235 0 0 0 0 26.338842
5.7700958 -2.5430319 4.6352673 0 0 0 0 26.34379
6.0274243 -2.5186248 4.4706712 0 0 0 0 26.348736
5.5031676 -2.5789471 5.1618567 0 0 0 0 26.353683
5.7965207 -2.5496051 4.9873142 0 0 0 0 26.358631
6.0529032 -2.5042138 4.8086877 0 0 0 0 26.363579
6.3142715 -2.4648244 4.6330771 0 0 0 0 26.368525
5.740973 -2.5480714 5.3312116 0 0 0 0 26.373472
6.0353847 -2.499754 5.1376448 0 0 0 0 26.378418
6.3257475 -2.4513915 4.9730711 0 0 0 0 26.383366
6.4544029 -2.3449554 4.6851459 0 0 0 0 26.388313
5.9658265 -2.5021966 5.4855232 0 0 0 0 26.393261
6.3071966 -2.4529123 5.3170338 0 0 0 0 26.398207
6.3800111 -2.3084753 4.9669642 0 0 0 0 26.403152
8.3036203 -2.7979486 5.9698625 0 0 0 0 26.4081
6.2156467 -2.456331 5.6598754 0 0 0 0 26.413048
6.3764219 -2.3210006 5.3249669 0 0 0 0 26.417995
6.8714933 -2.3097482 5.2997866 0 0 0 0 26.422943
7.3396707 -2.2805173 5.2275357 0 0 0 0 26.427889
6.3876381 -2.374444 5.7640481 0 0 0 0 26.432835
6.8598614 -2.3302374 5.6777844 0 0 0 0 26.437782
7.2601948 -2.2579803 5.5493622 0 0 0 0 26.44273
7.8582315 -2.240839 5.5503445 0 0 0 0 26.447678
6.6045523 -2.2995696 5.9083052 0 0 0 0 26.452625
7.2185693 -2.2774303 5.9253078 0 0 0 0 26.457571
7.7327766 -2.2142475 5.8640871 0 0 0 0 26.462517
8.1172342 -2.1100252 5.6885943 0 0 0 0 26.467464
6.6687717 -2.1696489 5.9182334 0 0 0 0 26.472412
7.2988024 -2.1295211 5.9422369 0 0 0 0 26.47736
7.9897485 -2.0934181 6.0133471 0 0 0 0 26.482306
8.6618214 -2.0353608 6.0273962 0 0 0 0 26.487253
6.7250099 -2.0337255 5.9211402 0 0 0 0 26.492199
7.3590641 -1.9745983 5.947124 0 0 0 0 26.497147
8.040061 -1.9134904 6.0091829 0 0 0 0 26.502094
8.7770739 -1.8454664 6.0673261 0 0 0 0 26.507042
6.7842364 -1.8997995 5.9290557 0 0 0 0 26.511988
7.4133348 -1.8166704 5.9489985 0 0 0 0 26.516933
8.0943613 -1.7335589 6.0120273 0 0 0 0 26.521881
8.8324099 -1.6415348 6.0691385 0 0 0 0 26.526829
6.8224983 -1.7588637 5.920928 0 0 0 0 26.531776
7.4745874 -1.6597406 5.959887 0 0 0 0 26.536724
8.1566515 -1.5536318 6.0198855 0 0 0 0 26.54167
8.8747597 -1.4335922 6.0649257 0 0 0 0 26.546616
6.8817234 -1.6219344 5.9308414 0 0 0 0 26.551563
7.5188675 -1.4978029 5.9577417 0 0 0 0 26.556511
8.1899748 -1.3676838 6.0116897 0 0 0 0 26.561459
8.9150991 -1.2266411 6.0647125 0 0 0 0 26.566406
6.9159875 -1.4779923 5.9227047 0 0 0 0 26.571352
7.5481625 -1.3338538 5.9475694 0 0 0 0 26.576298
8.2272844 -1.1827321 6.0105019 0 0 0 0 26.581245
8.9584312 -1.0176876 6.0695028 0 0 0 0 26.586193
6.9864902 -1.3420712 5.9497771 0 0 0 0 26.293936
7.9012632 -1.2190881 6.1951795 0 0 0 0 26.298882
8.5884485 -1.0390244 6.2491136 0 0 0 0 26.303829
9.3366537 -0.8420462 6.3051291 0 0 0 0 26.308777
7.2683325 -1.2402091 6.1561155 0 0 0 0 26.313725
7.9375601 -1.0481377 6.1950021 0 0 0 0 26.318672
8.6297674 -0.84507084 6.2549129 0 0 0 0 26.323618
9.3590231 -0.62307262 6.3028607 0 0 0 0 26.328564
7.3165832 -1.0912678 6.1639905 0 0 0 0 26.333511
7.97685 -0.87618607 6.1988297 0 0 0 0 26.338459
8.6560974 -0.65010297 6.2546864 0 0 0 0 26.343407
9.3873816 -0.40309978 6.3066025 0 0 0 0 26.348352
7.3458567 -0.93831301 6.1608291 0 0 0 0 26.3533
7.9991608 -0.70122254 6.1926255 0 0 0 0 26.358246
8.683423 -0.45513374 6.2564631 0 0 0 0 26.363194
9.3977509 -0.18411106 6.3023176 0 0 0 0 26.368141
7.3741345 -0.78435916 6.1556649 0 0 0 0 26.373089
8.0324507 -0.52626032 6.1974416 0 0 0 0 26.378035
8.7077475 -0.2571573 6.260232 0 0 0 0 26.382982
9.4061136 0.035885941 6.3020296 0 0 0 0 26.387928
7.4183788 -0.63240588 6.1675324 0 0 0 0 26.392876
8.063735 -0.35229233 6.204257 0 0 0 0 26.397823
8.7280655 -0.061173618 6.2649984 0 0 0 0 26.402771
9.4194632 0.25588363 6.3077517 0 0 0 0 26.407717
7.4386568 -0.47643992 6.1623549 0 0 0 0 26.412663
8.0850306 -0.17531627 6.2060523 0 0 0 0 26.41761
8.7383947 0.13681677 6.2637472 0 0 0 0 26.422558
9.4068336 0.4759019 6.3004317 0 0 0 0 26.427505
7.4749055 -0.32147595 6.1732073 0 0 0 0 26.432453
8.1023235 0.00066570542 6.2078443 0 0 0 0 26.437399
8.7417183 0.33381993 6.2644873 0 0 0 0 26.442345
9.4091825 0.69591415 6.3051391 0 0 0 0 26.447292
7.5021687 -0.16350795 6.1770411 0 0 0 0 26.45224
8.1096258 0.17865565 6.204618 0 0 0 0 26.457188
8.7450438 0.53382307 6.2652245 0 0 0 0 26.462133
9.3905392 0.91494745 6.3028145 0 0 0 0 26.467081
7.5194402 -0.0045319372 6.175858 0 0 0 0 26.472027
8.1319075 0.35864106 6.2144156 0 0 0 0 26.476974
8.7403669 0.73183644 6.2649531 0 0 0 0 26.481922
9.3678989 1.1349837 6.2984834 0 0 0 0 26.48687
7.5367045 0.1534481 6.1776776 0 0 0 0 26.491816
8.1312103 0.53764135 6.2101774 0 0 0 0 26.496763
8.7266989 0.93185741 6.2606659 0 0 0 0 26.501709
9.3532438 1.35602 6.3031673 0 0 0 0 26.506657
7.5429864 0.31543362 6.1714749 0 0 0 0 26.511604
8.1295099 0.71864688 6.2089367 0 0 0 0 26.516552
8.7260056 1.1308765 6.2694035 0 0 0 0 26.521498
9.316596 1.5730759 6.2988214 0 0 0 0 26.526443
7.5462651 0.4774248 6.1662688 0 0 0 0 26.531391
8.1268044 0.89865518 6.2086973 0 0 0 0 26.536339
8.6953411 1.3289137 6.2590938 0 0 0 0 26.541286
9.2769423 1.7881371 6.295475 0 0 0 0 26.546234
7.5665178 0.64041245 6.1770911 0 0 0 0 26.55118
8.1111078 1.0786742 6.2024374 0 0 0 0 26.556126
8.6656599 1.5249585 6.2557902 0 0 0 0 26.561073
9.233284 2.0032048 6.2931242 0 0 0 0 26.566021
7.5657892 0.80141199 6.1738825 0 0 0 0 26.570969
8.0944042 1.2576971 6.1981792 0 0 0 0 26.575914
8.6349792 1.7220042 6.2524862 0 0 0 0 26.580862
9.1776276 2.2152843 6.2867599 0 0 0 0 26.585808
7.5550756 0.96541673 6.1636543 0 0 0 0 26.590755
8.0876875 1.4397184 6.2039351 0 0 0 0 26.595703
8.6072884 1.9200532 6.2551875 0 0 0 0 26.600651
9.1319571 2.4293604 6.2894111 0 0 0 0 26.605597
7.5573387 1.1304209 6.167448 0 0 0 0 26.610544
8.0709772 1.6227487 6.2056756 0 0 0 0 26.61549
8.5636044 2.1141131 6.2488694 0 0 0 0 26.620438
9.0602989 2.637455 6.2780299 0 0 0 0 26.625385
7.5556021 1.2964307 6.171236 0 0 0 0 26.630333
8.0282831 1.7987938 6.190383 0 0 0 0 26.635279
8.5199156 2.3101776 6.2465506 0 0 0 0 26.640224
8.9976273 2.8485491 6.2766614 0 0 0 0 26.645172
7.5378819 1.4614477 6.1629996 0 0 0 0 26.65012
8.0105667 1.9828287 6.1951237 0 0 0 0 26.655067
8.4672241 2.503252 6.2422228 0 0 0 0 26.660015
8.8639936 3.0336845 6.2292113 0 0 0 0 26.664961
7.5321445 1.6314653 6.1687784 0 0 0 0 26.669907
7.9808474 2.163878 6.1978502 0 0 0 0 26.674854
8.4055376 2.693331 6.2318864 0 0 0 0 26.679802
8.5134869 3.134933 6.0315123 0 0 0 0 26.68475
7.5214052 1.7984875 6.1725545 0 0 0 0 26.689697
7.9421358 2.3429306 6.1935663 0 0 0 0 26.694643
8.3498316 2.8844149 6.2325606 0 0 0 0 26.699589
8.4527798 3.336035 6.0401683 0 0 0 0 26.704536
7.4926801 1.9635208 6.1653051 0 0 0 0 26.709484
7.9104118 2.5249844 6.1982918 0 0 0 0 26.714432
8.0093288 2.971628 6.0198998 0 0 0 0 26.719378
8.361084 3.5251572 6.0307894 0 0 0 0 26.724325
7.4929256 2.1395459 6.1840911 0 0 0 0 26.729271
7.8547015 2.7010536 6.1889873 0 0 0 0 26.734219
7.9146342 3.1417325 5.9945412 0 0 0 0 26.739166
8.2583866 3.7082872 6.0164032 0 0 0 0 26.744114
7.4562035 2.3055863 6.1738305 0 0 0 0 26.74906
7.7280426 2.8511527 6.1246014 0 0 0 0 26.754005
7.8529091 3.3248258 5.9972219 0 0 0 0 26.758953
8.1586781 3.8924203 6.0080228 0 0 0 0 26.763901
7.4210958 2.4736094 6.168499 0 0 0 0 26.530769
7.461134 2.9432755 5.9509649 0 0 0 0 26.535717
7.7618775 3.4958868 5.9797611 0 0 0 0 26.540665
8.0626688 4.0774932 6.0045209 0 0 0 0 26.54561
7.3863673 2.6426604 6.168231 0 0 0 0 26.550558
7.4114046 3.1163511 5.9526691 0 0 0 0 26.555504
7.6841593 3.6719966 5.9764161 0 0 0 0 26.560452
7.9549584 4.25564 5.9961247 0 0 0 0 26.565399
7.2357349 2.7687538 6.0728269 0 0 0 0 26.570347
7.350677 3.2854359 5.9493618 0 0 0 0 26.575293
7.5954413 3.8441153 5.96806 0 0 0 0 26.58024
7.8452425 4.4317908 5.9887309 0 0 0 0 26.585186
7.0231428 2.8648698 5.9263601 0 0 0 0 26.590134
7.2889433 3.4535239 5.9480562 0 0 0 0 26.595081
7.5087113 4.0142369 5.9647126 0 0 0 0 26.600029
7.7255201 4.6009507 5.9783316 0 0 0 0 26.604975
6.9834003 3.0309305 5.9290934 0 0 0 0 26.609921
7.2132154 3.6176209 5.9387345 0 0 0 0 26.614868
7.406991 4.1793652 5.9503484 0 0 0 0 26.619816
7.6017942 4.7661128 5.9659328 0 0 0 0 26.624763
6.9396577 3.1949942 5.9298244 0 0 0 0 26.629711
7.1394801 3.7817197 5.9334178 0 0 0 0 26.634657
7.3082547 4.3434982 5.9439926 0 0 0 0 26.639603
7.4760618 4.9312806 5.9565339 0 0 0 0 26.64455
6.880918 3.3530684 5.9225397 0 0 0 0 26.649498
7.055747 3.9418244 5.9220915 0 0 0 0 26.654446
7.2185135 4.5156293 5.9466434 0 0 0 0 26.659391
7.3253298 5.0764599 5.9291205 0 0 0 0 26.664339
6.8241787 3.5161428 5.9182549 0 0 0 0 26.669285
6.9829998 4.1099319 5.925776 0 0 0 0 26.674232
7.1047735 4.6697717 5.9322801 0 0 0 0 26.67918
7.3845205 5.3725634 6.0758662 0 0 0 0 26.684128
6.764431 3.6762238 5.9159694 0 0 0 0 26.689074
6.8882618 4.2650476 5.9114423 0 0 0 0 26.694021
6.9930272 4.8259172 5.9229198 0 0 0 0 26.698967
7.310751 5.577723 6.1205091 0 0 0 0 26.703915
6.6936908 3.8343108 5.9066715 0 0 0 0 26.708862
6.8015094 4.4231644 5.9081197 0 0 0 0 26.71381
6.8542838 4.9630756 5.8945403 0 0 0 0 26.718756
7.1639972 5.7289138 6.1091018 0 0 0 0 26.723701
6.6249413 3.9913995 5.9013791 0 0 0 0 26.728649
6.7117586 4.5832849 5.9047923 0 0 0 0 26.733597
6.8414855 5.1921959 5.9772558 0 0 0 0 26.738544
7.0312362 5.8911004 6.1107063 0 0 0 0 26.743492
6.55019 4.1494975 5.897078 0 0 0 0 26.748438
6.6110034 4.7344122 5.8954597 0 0 0 0 26.753384
6.872673 5.4653111 6.10499 0 0 0 0 26.758331
6.8734713 6.0292964 6.0933027 0 0 0 0 26.763279
6.4744368 4.3065958 5.8927784 0 0 0 0 26.768227
6.5002513 4.8815455 5.8801184 0 0 0 0 26.773174
6.7369142 5.6104798 6.0906129 0 0 0 0 26.77812
6.7147026 6.1674957 6.077899 0 0 0 0 26.783066
6.394681 4.4636993 5.888474 0 0 0 0 26.788013
6.4484639 5.0726681 5.9228206 0 0 0 0 26.792961
6.5971518 5.7526522 6.0752354 0 0 0 0 26.797909
6.5629187 6.3086972 6.0735064 0 0 0 0 26.802855
6.3029284 4.6138086 5.8761616 0 0 0 0 26.807802
6.4996386 5.3537703 6.0645819 0 0 0 0 26.812748
6.4643793 5.8988242 6.0688663 0 0 0 0 26.817696
6.3891354 6.4279032 6.0491066 0 0 0 0 26.822643
6.2031722 4.758925 5.8608432 0 0 0 0 26.827591
6.3838749 5.505919 6.0582323 0 0 0 0 26.832537
6.3245988 6.0370016 6.0594978 0 0 0 0 26.837482
6.2253418 6.5541091 6.0367165 0 0 0 0 26.84243
6.1104083 4.9100413 5.8545313 0 0 0 0 26.847378
6.2701006 5.6560688 6.055891 0 0 0 0 26.852325
6.1758184 6.167182 6.0431266 0 0 0 0 26.857273
5.5315948 6.0923977 5.4991875 0 0 0 0 26.862219
6.2305479 5.2411242 6.0593472 0 0 0 0 26.867165
6.1353345 5.7922258 6.0365343 0 0 0 0 26.872112
6.0280285 6.2963638 6.0307608 0 0 0 0 26.87706
5.3447762 6.1635938 5.4548311 0 0 0 0 26.882008
6.1277838 5.396255 6.0550184 0 0 0 0 26.886955
6.0085535 5.9333854 6.0291872 0 0 0 0 26.891901
5.8782358 6.4265504 6.0203929 0 0 0 0 26.896847
5.1729465 6.2437859 5.4244905 0 0 0 0 26.901794
6.0210199 5.5503888 6.0486865 0 0 0 0 26.906742
5.8747716 6.0695486 6.017837 0 0 0 0 26.91169
5.2425013 5.9977827 5.5029192 0 0 0 0 26.916636
5.5530949 7.0209508 5.9931998 0 0 0 0 26.921583
5.9112501 5.702528 6.0443544 0 0 0 0 26.926529
5.7339869 6.1997151 6.0024848 0 0 0 0 26.931477
5.0496874 6.0479589 5.4375815 0 0 0 0 26.936424
5.3732653 7.1171651 5.9748321 0 0 0 0 26.941372
5.7824831 5.8406734 6.0250115 0 0 0 0 26.946318
5.5911951 6.3268857 5.9881353 0 0 0 0 26.951265
4.9028592 6.1481323 5.4222603 0 0 0 0 26.956211
5.2034297 7.2263813 5.9704671 0 0 0 0 26.961159
5.662704 5.9858217 6.0186763 0 0 0 0 26.966106
5.0594621 5.9960728 5.551713 0 0 0 0 26.971054
4.7560225 6.2483115 5.4119406 0 0 0 0 26.976
5.0265841 7.3205972 5.9591107 0 0 0 0 26.980946
5.5369244 6.1269722 6.008338 0 0 0 0 26.985893
4.8546557 6.0242352 5.4623857 0 0 0 0 26.990841
4.6081824 6.3454885 5.4006248 0 0 0 0 26.995789
4.840735 7.4038153 5.9407549 0 0 0 0 27.000736
5.400948 6.2578397 5.9935632 0 0 0 0 28.02577
4.6815672 6.0850902 5.4097366 0 0 0 0 28.030716
4.4559913 6.4353204 5.3881006 0 0 0 0 28.035664
4.6554184 7.4796033 5.9233975 0 0 0 0 28.040611
4.9222059 5.9759879 5.5911975 0 0 0 0 28.045559
4.5377145 6.1842294 5.393477 0 0 0 0 28.050505
4.2971196 6.5154724 5.3688402 0 0 0 0 28.05545
4.0585141 6.8607316 5.3631949 0 0 0 0 28.060398
4.7363825 6.0281181 5.5159225 0 0 0 0 28.065346
4.3968587 6.2883687 5.3822179 0 0 0 0 28.070293
4.1542425 6.6186266 5.3715825 0 0 0 0 28.075241
3.8936162 6.9318976 5.3539395 0 0 0 0 28.080187
4.5585504 6.0842476 5.449657 0 0 0 0 28.085133
4.2539964 6.3885102 5.3719621 0 0 0 0 28.09008
3.9953613 6.6967802 5.356328 0 0 0 0 28.095028
3.8157218 7.1620822 5.4696569 0 0 0 0 28.099976
4.4037104 6.1703768 5.4123974 0 0 0 0 28.104923
4.1051292 6.4796538 5.3577085 0 0 0 0 28.109869
3.8904755 6.8669448 5.4180641 0 0 0 0 28.114815
3.9188519 7.7713323 5.871273 0 0 0 0 28.119762
4.265862 6.2795091 5.3991413 0 0 0 0 28.12471
3.9822586 6.6148019 5.3804517 0 0 0 0 28.129658
4.0646033 7.5651836 5.892695 0 0 0 0 28.134604
3.7309442 7.8285136 5.8560061 0 0 0 0 28.139551
4.1370101 6.4056458 5.4018836 0 0 0 0 28.144497
3.8943837 6.8139606 5.4571857 0 0 0 0 28.149445
3.8917181 7.6533566 5.8864193 0 0 0 0 28.154392
3.542032 7.8806934 5.839745 0 0 0 0 28.15934
4.0251498 6.5607877 5.4326253 0 0 0 0 28.164286
4.0385156 7.4581861 5.8848295 0 0 0 0 28.169233
3.704823 7.7105269 5.862155 0 0 0 0 28.174179
3.3631167 7.9518762 5.8404813 0 0 0 0 28.179127
3.9252884 6.7429361 5.4853601 0 0 0 0 28.184074
3.8686407 7.5513511 5.8745551 0 0 0 0 28.189022
3.5269253 7.7836986 5.8518906 0 0 0 0 28.193968
3.1721928 7.9930549 5.8232307 0 0 0 0 28.198914
4.0604258 7.3661494 5.8910141 0 0 0 0 28.203861
3.6987615 7.6435165 5.8662834 0 0 0 0 28.208809
3.3420229 7.8428698 5.8336315 0 0 0 0 28.213757
2.9792612 8.0212288 5.8009911 0 0 0 0 28.218704
3.8975675 7.4773073 5.8827343 0 0 0 0 28.22365
3.519877 7.7216825 5.8500142 0 0 0 0 28.228596
3.1591129 7.9020419 5.8203764 0 0 0 0 28.233543
2.7953293 8.0684061 5.7937484 0 0 0 0 28.238491
3.7357044 7.5934691 5.881453 0 0 0 0 28.243439
3.3399847 7.7918477 5.8327532 0 0 0 0 28.248384
2.9802005 7.9682145 5.8141227 0 0 0 0 28.253332
2.6043887 8.0915775 5.773519 0 0 0 0 28.258278
3.5578351 7.6786284 5.8591809 0 0 0 0 28.263226
3.1640921 7.8750167 5.8254881 0 0 0 0 28.268173
2.7942793 8.0153847 5.7988787 0 0 0 0 28.273121
2.4144454 8.1187515 5.7582898 0 0 0 0 28.278067
3.385962 7.7797928 5.8519044 0 0 0 0 28.283014
2.9791925 7.9371829 5.8062315 0 0 0 0 28.28796
2.6063559 8.0585546 5.7816367 0 0 0 0 28.292908
2.2304966 8.1549273 5.7540617 0 0 0 0 28.297855
3.2090843 7.8749599 5.842628 0 0 0 0 28.302803
2.794286 7.9973502 5.789978 0 0 0 0 28.307749
2.4224257 8.1067266 5.7733979 0 0 0 0 28.312695
2.0385406 8.1580906 5.7288537 0 0 0 0 28.317642
3.0262005 7.9551244 5.8253598 0 0 0 0 28.32259
2.6093769 8.0595198 5.7767253 0 0 0 0 28.327538
2.2414942 8.1659021 5.7741551 0 0 0 0 28.332485
1.8525828 8.181262 5.7206383 0 0 0 0 28.337431
2.8433111 8.0382938 5.8140907 0 0 0 0 28.342377
2.4274621 8.1276913 5.7724733 0 0 0 0 28.347324
2.0445509 8.1660595 5.7369452 0 0 0 0 28.352272
1.6646171 8.1844244 5.7024388 0 0 0 0 28.35722
2.654418 8.1084604 5.7948275 0 0 0 0 28.362165
2.2395406 8.1778603 5.7582312 0 0 0 0 28.367113
1.8596059 8.2042313 5.7307191 0 0 0 0 28.372059
1.478651 8.1925888 5.6882391 0 0 0 0 28.377007
2.4635184 8.1716261 5.7745695 0 0 0 0 28.381954
2.0486157 8.220027 5.7399931 0 0 0 0 28.386902
1.671656 8.2253942 5.7145052 0 0 0 0 28.391848
1.2926744 8.1907501 5.6740494 0 0 0 0 28.396795
2.2766142 8.2528028 5.7713037 0 0 0 0 28.401741
1.8596839 8.2661963 5.7297564 0 0 0 0 28.406689
1.4797003 8.2285528 5.688303 0 0 0 0 28.411636
1.1096982 8.1919088 5.6618629 0 0 0 0 28.416584
2.0827043 8.3139734 5.7560472 0 0 0 0 28.42153
1.6657467 8.2923603 5.7075324 0 0 0 0 28.426476
1.2937421 8.2547207 5.6820908 0 0 0 0 28.431423
0.6814366 6.0430493 4.1671996 0 0 0 0 28.436371
1.8867903 8.3691444 5.7387958 0 0 0 0 28.441319
1.473806 8.3295307 5.6963029 0 0 0 0 28.446266
1.1067775 8.2738867 5.6748848 0 0 0 0 28.451212
0.54544759 6.0151539 4.1440926 0 0 0 0 28.456158
1.6898705 8.4243174 5.7255449 0 0 0 0 28.461105
1.2798593 8.3536959 5.6790843 0 0 0 0 28.466053
0.67050499 6.0550065 4.1372571 0 0 0 0 28.471001
0.41245991 6.0062656 4.134975 0 0 0 0 28.475946
1.4899428 8.4684896 5.709301 0 0 0 0 28.480894
0.78957474 6.0958586 4.1214128 0 0 0 0 28.48584
0.53353018 6.0601239 4.1291223 0 0 0 0 28.490788
0.27846923 5.9893746 4.1218634 0 0 0 0 28.495735
1.2889279 8.5019608 5.6882553 0 0 0 0 28.212269
0.65248632 6.1532378 4.1385384 0 0 0 0 28.217216
0.39641339 6.0534883 4.114295 0 0 0 0 28.222164
0.14632763 5.9417319 4.0900707 0 0 0 0 28.227112
0.77054983 6.0669985 4.0278111 0 0 0 0 28.232058
0.5105204 6.1663671 4.130383 0 0 0 0 28.237005
0.25843027 6.0416059 4.0991683 0 0 0 0 28.241951
0.022538001 7.3437195 5.0596924 0 0 0 0 28.246899
0.64563113 6.2782202 4.1424999 0 0 0 0 28.251846
0.36655009 6.1604862 4.1102433 0 0 0 0 28.256794
0.12344366 6.02772 4.0850487 0 0 0 0 28.26174
-0.13746491 7.3198576 5.0485544 0 0 0 0 28.266685
0.49667531 6.3013554 4.1343284 0 0 0 0 28.271633
0.22357531 6.1656146 4.1020961 0 0 0 0 28.276581
-0.012318231 7.446703 5.044651 0 0 0 0 28.281528
-0.29547304 7.2859893 5.0334291 0 0 0 0 28.286476
0.34571686 6.3134856 4.1191649 0 0 0 0 28.291422
0.08059337 6.132719 4.0689836 0 0 0 0 28.296368
-0.18031298 7.4258447 5.029501 0 0 0 0 28.301315
-0.45248631 7.2471185 5.018311 0 0 0 0 28.306263
0.19475025 6.3156133 4.1020112 0 0 0 0 28.311211
-0.081984535 8.4122028 5.5718021 0 0 0 0 28.316156
-0.38318485 8.2155104 5.5665903 0 0 0 0 28.321104
-0.67139971 7.9657769 5.5304432 0 0 0 0 28.32605
0.043780301 6.3197432 4.0888572 0 0 0 0 28.330997
-0.27597004 8.4093742 5.5626078 0 0 0 0 28.335945
-0.56419295 8.1666508 5.5384541 0 0 0 0 28.340893
-0.83942413 7.9019022 5.5033369 0 0 0 0 28.345839
-0.14473519 8.6422253 5.5736232 0 0 0 0 28.350786
-0.46996054 8.3955393 5.5484238 0 0 0 0 28.355732
-0.74620122 8.1287975 5.5193076 0 0 0 0 28.36068
-1.0074499 7.8540392 5.4902177 0 0 0 0 28.365627
-0.35270873 8.6504097 5.5634031 0 0 0 0 28.370575
-0.66495574 8.3747025 5.5322466 0 0 0 0 28.375521
-0.92621332 8.0959473 5.5071602 0 0 0 0 28.380466
-1.1744761 7.809176 5.4800978 0 0 0 0 28.385414
-0.55969203 8.640584 5.5462012 0 0 0 0 28.390362
-0.8579551 8.3548651 5.520072 0 0 0 0 28.395309
-1.1082269 8.0691023 5.5010061 0 0 0 0 28.400257
-1.3385066 7.7513022 5.4629946 0 0 0 0 28.405203
-0.76867622 8.6337614 5.5319958 0 0 0 0 28.410149
-1.0489639 8.3120155 5.496922 0 0 0 0 28.415096
-1.2852486 8.0202427 5.4838791 0 0 0 0 28.420044
-1.101761 5.6417623 3.9941804 0 0 0 0 28.424992
-0.97367346 8.5929193 5.5008264 0 0 0 0 28.429939
-1.2419716 8.2851772 5.4857559 0 0 0 0 28.434885
-1.4592749 7.9643764 5.4647627 0 0 0 0 28.439831
-1.2337775 5.6609068 4.0300431 0 0 0 0 28.444778
-1.182669 8.5851011 5.4946246 0 0 0 0 28.449726
-1.4399797 8.2883615 5.498559 0 0 0 0 28.454674
-1.2115712 5.8568687 4.0329447 0 0 0 0 28.45962
-1.3518022 5.6189995 4.0239778 0 0 0 0 28.464567
-1.3876735 8.5422592 5.4674597 0 0 0 0 28.469513
-1.1473923 5.7996349 3.8561168 0 0 0 0 28.474461
-1.3395892 5.816968 4.0228653 0 0 0 0 28.479408
-1.4768274 5.5991139 4.0358853 0 0 0 0 28.484356
-1.0712163 5.7133732 3.6583283 0 0 0 0 28.489302
-1.279404 5.7547317 3.8370364 0 0 0 0 28.494247
-1.4676094 5.7810712 4.0177841 0 0 0 0 28.499195
-1.5988544 5.5732217 4.0448027 0 0 0 0 28.504143
-1.2112182 5.6974912 3.6542125 0 0 0 0 28.50909
-1.4164147 5.739852 3.8409247 0 0 0 0 28.514038
-1.5956327 5.7381701 4.0097079 0 0 0 0 28.518984
-1.7138848 5.5223069 4.0367498 0 0 0 0 28.52393
-1.3502251 5.6716037 3.6461074 0 0 0 0 28.528877
-1.5524302 5.7189693 3.8438206 0 0 0 0 28.533825
-1.7166612 5.6782537 3.9926567 0 0 0 0 28.538773
-2.4358037 7.293129 5.3743987 0 0 0 0 28.54372
-1.4822378 5.6206965 3.623033 0 0 0 0 28.548666
-1.6994439 5.7261138 3.8676798 0 0 0 0 28.553612
-1.8406881 5.6323481 3.9855897 0 0 0 0 28.558559
-2.5968556 7.2502694 5.3882914 0 0 0 0 28.563507
-1.6182516 5.5838013 3.6119425 0 0 0 0 28.568455
-1.8864439 5.8563681 3.977387 0 0 0 0 28.5734
-1.9607192 5.5704303 3.969542 0 0 0 0 28.578348
-2.7419107 7.1683683 5.374238 0 0 0 0 28.583294
-1.7562683 5.5539141 3.6088443 0 0 0 0 28.588242
-2.0224726 5.8104739 3.9713068 0 0 0 0 28.593189
-2.8215919 7.4814234 5.3759279 0 0 0 0 28.598137
-2.8799682 7.0654483 5.3462114 0 0 0 0 28.603083
-1.8902879 5.5120168 3.5987618 0 0 0 0 28.60803
-2.9102592 7.775465 5.3506241 0 0 0 0 28.612976
-2.9726489 7.3775139 5.3458872 0 0 0 0 28.617924
-3.0210278 6.9805436 5.334166 0 0 0 0 28.622871
-3.0178854 8.1525507 5.3562312 0 0 0 0 28.627819
-3.0883102 7.7015963 5.3385262 0 0 0 0 28.632765
-3.1317041 7.2966256 5.3328176 0 0 0 0 28.637711
-3.1610889 6.8946371 5.323123 0 0 0 0 28.642658
-3.2099359 8.067687 5.3341265 0 0 0 0 28.647606
-3.2643683 7.617723 5.3244395 0 0 0 0 28.652554
-3.2817659 7.1957188 5.3097758 0 0 0 0 28.657501
-3.3221536 6.8517804 5.3490195 0 0 0 0 28.662447
-3.4089875 7.9978385 5.3250017 0 0 0 0 28.667393
-3.4454253 7.5508637 5.3233337 0 0 0 0 28.67234
-3.9632654 7.6926827 5.2549133 0 0 0 0 28.492928
-4.1533394 7.6018291 5.2458158 0 0 0 0 28.512718
-3.652236 6.0938864 4.7557635 0 0 0 0 28.52261
-3.5956082 5.7508364 4.7761397 0 0 0 0 28.527557
-4.3414178 7.5079737 5.2387238 0 0 0 0 28.532505
-3.8729239 6.3910823 4.7542782 0 0 0 0 28.537453
-3.8193078 6.0610518 4.7946391 0 0 0 0 28.542398
-4.0927219 6.2467103 5.2641492 0 0 0 0 28.547346
-4.5265017 7.4061117 5.2296429 0 0 0 0 28.552292
-4.0069966 6.279161 4.7312651 0 0 0 0 28.55724
-4.3293929 6.540905 5.2466502 0 0 0 0 28.562187
-4.2238021 6.1558027 5.2651224 0 0 0 0 28.567135
-4.2486525 6.5843587 4.7087512 0 0 0 0 28.572081
-4.2540708 6.3364639 4.8419666 0 0 0 0 28.577028
-4.4684772 6.4339962 5.2376289 0 0 0 0 28.581974
-4.3288794 6.0258422 5.2341609 0 0 0 0 28.586922
-4.4207311 6.500495 4.7116685 0 0 0 0 28.591869
-4.7321458 6.7041965 5.1971207 0 0 0 0 28.596817
-4.6035633 6.3220811 5.2266164 0 0 0 0 28.601763
-4.4599628 5.9379377 5.2411318 0 0 0 0 28.606709
-4.6068144 6.4316573 4.730556 0 0 0 0 28.611656
-4.861238 6.5572548 5.1631465 0 0 0 0 28.616604
-4.73665 6.2081623 5.2156081 0 0 0 0 28.621552
-4.5660439 5.8169856 5.2211614 0 0 0 0 28.626499
-4.8098998 6.3818488 4.766407 0 0 0 0 28.631445
-5.0313339 6.4663916 5.1760745 0 0 0 0 28.636391
-4.8727407 6.0992517 5.2115922 0 0 0 0 28.641338
-4.6811299 5.7080526 5.2151694 0 0 0 0 28.646286
-4.9869919 6.2929926 4.7783237 0 0 0 0 28.651234
-5.1764302 6.3404808 5.163063 0 0 0 0 28.656179
-4.9928317 5.9693117 5.1926131 0 0 0 0 28.661127
-4.7922153 5.5941119 5.2051868 0 0 0 0 28.666073
-5.1510882 6.1831121 4.7772746 0 0 0 0 28.671021
-5.3355322 6.2325988 5.1690192 0 0 0 0 28.675968
-5.119925 5.8503866 5.1846166 0 0 0 0 28.680916
-4.8993015 5.4781661 5.1952105 0 0 0 0 28.685862
-5.2961884 6.0522017 4.7632666 0 0 0 0 28.690809
-5.457633 6.0826521 5.1420565 0 0 0 0 28.695755
-5.2440205 5.7284579 5.1766257 0 0 0 0 28.700703
-5.0013862 5.3572121 5.1812444 0 0 0 0 28.70565
-5.4662948 5.9483352 4.7762051 0 0 0 0 28.710598
-5.5957389 5.9497347 5.133059 0 0 0 0 28.715544
-5.3581166 5.5975137 5.1626544 0 0 0 0 28.72049
-5.1134768 5.2492785 5.1822548 0 0 0 0 28.725437
-5.5093946 5.7112584 4.6814084 0 0 0 0 28.730385
-5.7448468 5.8298373 5.1370373 0 0 0 0 28.735332
-5.4762158 5.4685769 5.153677 0 0 0 0 28.74028
-5.2175689 5.1323328 5.1782823 0 0 0 0 28.745226
-5.5764961 5.5052257 4.612556 0 0 0 0 28.750172
-5.8749552 5.6909094 5.1270552 0 0 0 0 28.755119
-5.5853138 5.3346267 5.1407137 0 0 0 0 28.760067
-5.3056555 5.0003576 5.1583409 0 0 0 0 28.765015
-5.7026048 5.3622942 4.5995793 0 0 0 0 28.76996
-5.4869785 5.0711346 4.6770921 0 0 0 0 28.774908
-5.6994138 5.2036848 5.1327419 0 0 0 0 28.779854
-4.8895831 4.4155235 4.6613793 0 0 0 0 28.784801
-6.4267836 5.7553067 5.0594425 0 0 0 0 28.789749
-5.5280676 4.8750782 4.6092601 0 0 0 0 28.794697
-5.2643766 4.5938401 4.6438217 0 0 0 0 28.799643
-4.9586592 4.2895317 4.639452 0 0 0 0 28.80459
-6.5629086 5.5963802 5.0484695 0 0 0 0 28.809536
-6.2292914 5.2390747 5.0841765 0 0 0 0 28.814484
-5.9146209 4.9337864 5.1178188 0 0 0 0 28.819431
-5.5949316 4.6344867 5.1414614 0 0 0 0 28.824377
-6.6950374 5.4334493 5.0385046 0 0 0 0 28.829325
-6.3614092 5.1021552 5.0871892 0 0 0 0 28.834272
-6.0227261 4.7988391 5.1128569 0 0 0 0 28.839218
-5.6970291 4.5185418 5.1464896 0 0 0 0 28.844166
-6.8281674 5.2705202 5.0305376 0 0 0 0 28.849113
-6.472528 4.9482055 5.0782394 0 0 0 0 28.854059
-6.1338353 4.6678991 5.1158867 0 0 0 0 28.859007
-5.7811208 4.387567 5.1355505 0 0 0 0 28.863955
-6.9503002 5.1005778 5.0205894 0 0 0 0 28.8689
-6.592649 4.7992682 5.0762749 0 0 0 0 28.873848
-6.2259402 4.5219293 5.1039515 0 0 0 0 28.878796
-5.8552117 4.249578 5.1196284 0 0 0 0 28.883741
-7.0904379 4.9436631 5.0256085 0 0 0 0 28.888689
-6.6917677 4.6373019 5.063345 0 0 0 0 28.893637
-6.3060422 4.3689423 5.0850353 0 0 0 0 28.898582
-5.9373064 4.1196041 5.1136904 0 0 0 0 28.90353
-7.1895695 4.7566881 5.0036998 0 0 0 0 28.908478
-6.7948899 4.4783435 5.0564075 0 0 0 0 28.913424
-6.4061546 4.2279873 5.0850854 0 0 0 0 28.918371
-6.0284033 3.994643 5.1147366 0 0 0 0 28.923317
-7.3059459 4.5834055 4.9978585 0 0 0 0 28.676186
-6.8982668 4.3190317 5.049603 0 0 0 0 28.681133
-6.4975314 4.0826473 5.0793152 0 0 0 0 28.686081
-6.0937734 3.8542523 5.0980234 0 0 0 0 28.691027
-7.4060912 4.3984408 4.9839511 0 0 0 0 28.695972
-6.9943986 4.1550698 5.0426812 0 0 0 0 28.70092
-6.5736432 3.9276609 5.0644083 0 0 0 0 28.705868
-6.1758795 3.7242851 5.0980864 0 0 0 0 28.710815
-7.5162425 4.2204938 4.9810247 0 0 0 0 28.715763
-7.0675254 3.9800751 5.0237961 0 0 0 0 28.720709
-6.6617646 3.7806966 5.0634799 0 0 0 0 28.725655
-6.2499819 3.5883045 5.092164 0 0 0 0 28.730602
-7.6063895 4.0325184 4.9681306 0 0 0 0 28.73555
-7.1776662 3.8231366 5.0308495 0 0 0 0 28.740498
-6.7378802 3.6287146 5.0555692 0 0 0 0 28.745445
-6.3130827 3.4483097 5.0822582 0 0 0 0 28.750391
-7.7125444 3.8515682 4.9682097 0 0 0 0 28.755337
-7.2588 3.6521571 5.0229497 0 0 0 0 28.760284
-6.8089972 3.4717255 5.0456681 0 0 0 0 28.765232
-6.3901901 3.3153374 5.0843282 0 0 0 0 28.77018
-7.7566829 3.64153 4.9333882 0 0 0 0 28.775126
-7.3299317 3.4761634 5.0100651 0 0 0 0 28.780073
-6.8851175 3.3187463 5.042757 0 0 0 0 28.785019
-6.4542913 3.175344 5.0764194 0 0 0 0 28.789967
-7.4090691 3.3041842 5.0061665 0 0 0 0 28.799862
-6.9582381 3.1637628 5.0388503 0 0 0 0 28.804808
-6.5213981 3.0373585 5.0755048 0 0 0 0 28.809755
-0.42816815 0.17477483 0.25826457 0 0 0 0 28.814701
-7.4802036 3.1301944 4.9992781 0 0 0 0 28.819649
-7.0163541 3.002759 5.027966 0 0 0 0 28.824596
-6.5855031 2.8973684 5.0725942 0 0 0 0 28.829542
-7.5033207 2.9351361 4.9634647 0 0 0 0 28.839437
-7.0894794 2.8487799 5.0310564 0 0 0 0 28.844383
-6.6055875 2.7393126 5.0397511 0 0 0 0 28.849331
-0.42614758 0.14976096 0.2523371 0 0 0 0 28.854279
-7.5584521 2.7561271 4.9525976 0 0 0 0 28.859224
-7.1465979 2.6877773 5.0241714 0 0 0 0 28.864172
-6.4395671 2.5109749 4.8681884 0 0 0 0 28.86912
-6.9265728 2.4293671 4.8256984 0 0 0 0 28.883961
-6.4986706 2.375984 4.8702769 0 0 0 0 28.888906
-0.42112336 0.1257429 0.24441208 0 0 0 0 28.893854
-0.43514436 0.13477631 0.27239448 0 0 0 0 28.898802
-6.5497708 2.2359815 4.8673778 0 0 0 0 28.908695
-0.4341476 0.12978412 0.29043108 0 0 0 0 28.923536
-6.6028752 2.0979843 4.8694739 0 0 0 0 28.928482
-0.41209763 0.10172056 0.23549141 0 0 0 0 28.93343
-0.43812537 0.11377081 0.27145717 0 0 0 0 28.938377
-6.6529784 1.9569821 4.869575 0 0 0 0 28.948271
-0.43812618 0.10977866 0.28849167 0 0 0 0 28.963112
-6.6870728 1.8129581 4.8606973 0 0 0 0 28.96806
-0.39706835 0.078691497 0.2245767 0 0 0 0 28.973005
-0.44210488 0.092765465 0.26951829 0 0 0 0 28.977953
-6.7251725 1.6679413 4.8568139 0 0 0 0 28.987846
-0.46812174 0.095811002 0.30551627 0 0 0 0 29.002687
-6.7662749 1.5259308 4.8579245 0 0 0 0 29.007635
-0.39404446 0.058678992 0.22064474 0 0 0 0 29.012583
-0.44008169 0.071753137 0.26558632 0 0 0 0 29.017529
-6.7913671 1.3788971 4.8480563 0 0 0 0 29.027422
-0.4871119 0.076826736 0.31455788 0 0 0 0 29.042263
-6.8004518 1.228843 4.8302083 0 0 0 0 29.047211
-0.38701794 0.038661525 0.21471718 0 0 0 0 29.052158
-0.42805317 0.049728211 0.25666657 0 0 0 0 29.057104
-0.44206026 0.049754839 0.28268111 0 0 0 0 29.081841
-0.41605365 0.055732515 0.28571391 0 0 0 0 29.086786
-0.38899648 0.020656671 0.21477707 0 0 0 0 29.091734
-0.41802591 0.028706864 0.24974319 0 0 0 0 29.096682
-0.42102331 0.028717732 0.26777065 0 0 0 0 29.121416
-0.40401965 0.0367065 0.27479124 0 0 0 0 29.126364
-0.3989827 0.0016631661 0.22082794 0 0 0 0 29.13131
-0.41500133 0.0096948612 0.24680965 0 0 0 0 29.136257
-0.4001126 0.0087053776 0.25369635 0 0 0 0 29.030581
-0.45816517 0.021799518 0.31162372 0 0 0 0 29.035526
-0.38407487 -0.015341379 0.21174516 0 0 0 0 29.040474
-0.39709023 -0.0073137418 0.23472998 0 0 0 0 29.045422
-0.47614765 -0.0091983844 0.30166817 0 0 0 0 29.070156
-0.50017697 0.0028495302 0.33963725 0 0 0 0 29.075104
-0.42108271 -0.037298772 0.23376589 0 0 0 0 29.08005
-0.44610858 -0.029254235 0.26573664 0 0 0 0 29.084997
-0.47412661 -0.030209027 0.30073506 0 0 0 0 29.109732
-0.49414897 -0.017168762 0.33370841 0 0 0 0 29.114679
-0.41305777 -0.056315165 0.23083776 0 0 0 0 29.119625
-0.44108552 -0.049267706 0.2638059 0 0 0 0 29.124573
-0.46910408 -0.051222991 0.29880509 0 0 0 0 29.149307
-0.49312949 -0.039178215 0.33377469 0 0 0 0 29.154255
-0.41003606 -0.075324841 0.23090333 0 0 0 0 29.159203
-0.42405218 -0.067296587 0.2548874 0 0 0 0 29.164148
-0.43305236 -0.06727872 0.2759074 0 0 0 0 29.188885
-0.49611202 -0.061182741 0.3358359 0 0 0 0 29.19383
-0.40401408 -0.094337106 0.23097199 0 0 0 0 29.198778
-0.43604404 -0.090287142 0.26393804 0 0 0 0 29.203724
-0.46105835 -0.092248142 0.29594085 0 0 0 0 29.22846
-0.48608312 -0.081204161 0.32991049 0 0 0 0 29.233406
-0.40799931 -0.11533715 0.23603001 0 0 0 0 29.238354
-0.42601717 -0.10830538 0.26101047 0 0 0 0 29.243301
-0.47405332 -0.11723743 0.30699152 0 0 0 0 29.268036
-0.44402272 -0.0942678 0.30201671 0 0 0 0 29.272984
-0.41499016 -0.13933274 0.24408628 0 0 0 0 29.277929
-0.44701961 -0.1352839 0.27705285 0 0 0 0 29.282877
-0.47203487 -0.13924597 0.30905712 0 0 0 0 29.307611
-0.4199805 -0.1633303 0.25214452 0 0 0 0 29.317507
-0.42998779 -0.15231009 0.27113184 0 0 0 0 29.322453
-6.9838328 -1.9836606 4.9108925 0 0 0 0 29.332346
-0.4870356 -0.1682322 0.32310757 0 0 0 0 29.347187
-6.951921 -2.140739 4.9100723 0 0 0 0 29.352135
-0.42597231 -0.18832655 0.26120195 0 0 0 0 29.357082
-0.45099479 -0.18328804 0.28917629 0 0 0 0 29.362028
-6.9250159 -2.2998087 4.915246 0 0 0 0 29.371923
-0.46299455 -0.18326859 0.31119275 0 0 0 0 29.386765
-6.8921075 -2.4588845 4.9184241 0 0 0 0 29.39171
-0.41895238 -0.20933852 0.26327109 0 0 0 0 29.396658
-0.44197237 -0.20430341 0.2892479 0 0 0 0 29.401606
-6.8782215 -2.6249342 4.9375844 0 0 0 0 29.411499
-7.3841777 -3.9466028 4.8138709 0 0 0 0 29.416447
-0.44195679 -0.19829997 0.3022739 0 0 0 0 29.42634
-6.8563313 -2.7919927 4.953753 0 0 0 0 29.431288
-7.2532268 -4.0957766 4.7931457 0 0 0 0 29.436234
-7.0609155 -3.688926 4.830111 0 0 0 0 29.441181
-6.8355498 -3.2791328 4.8191113 0 0 0 0 29.446127
-6.8384485 -2.9620442 4.9749165 0 0 0 0 29.451075
-7.1693354 -4.2728891 4.8063831 0 0 0 0 29.456022
-6.9850082 -3.8540354 4.8363328 0 0 0 0 29.460968
-6.7976661 -3.4512002 4.8402958 0 0 0 0 29.465916
-6.8245764 -3.1380882 5.003078 0 0 0 0 29.470863
-7.0704269 -4.4390168 4.8136282 0 0 0 0 29.475809
-6.8940835 -4.0121622 4.8335648 0 0 0 0 29.480757
-6.7267447 -3.6073079 4.8405051 0 0 0 0 29.485704
-6.8057008 -3.3131373 5.0302429 0 0 0 0 29.49065
-6.9603047 -4.6012526 4.8165159 0 0 0 0 29.930185
-6.8110065 -4.1763606 4.8424535 0 0 0 0 29.935133
-6.6637053 -3.7714763 4.8504004 0 0 0 0 29.940081
-6.7746911 -3.4873021 5.0521464 0 0 0 0 29.945026
-6.8663898 -4.7713628 4.8317294 0 0 0 0 29.949974
-6.7320852 -4.3404613 4.8546495 0 0 0 0 29.954922
-6.6007829 -3.9335651 4.8615794 0 0 0 0 29.959867
-6.7237692 -3.6523848 5.061317 0 0 0 0 29.964815
-6.7284203 -4.9085193 4.8189688 0 0 0 0 29.969763
-6.6381497 -4.4985762 4.8588557 0 0 0 0 29.974709
-6.5218434 -4.0876703 4.8627696 0 0 0 0 29.979656
-6.6718483 -3.8184664 5.0724869 0 0 0 0 29.984602
-6.2410002 -4.7790561 4.5524225 0 0 0 0 29.98955
-6.5462184 -4.6566868 4.8680577 0 0 0 0 29.994497
-6.4539218 -4.2507606 4.8769512 0 0 0 0 29.999443
-6.4647436 -3.8947189 4.9667659 0 0 0 0 30.004391
-5.9257817 -4.7574024 4.4057555 0 0 0 0 30.009338
-6.4422746 -4.8088083 4.8702664 0 0 0 0 30.014284
-6.3719845 -4.4058647 4.8821402 0 0 0 0 30.019232
-6.2816629 -3.9769416 4.881022 0 0 0 0 30.024179
-5.8018131 -4.8825369 4.4019675 0 0 0 0 30.029125
-6.0449381 -4.728251 4.6486516 0 0 0 0 30.034073
-6.2940536 -4.5649629 4.8923264 0 0 0 0 30.039021
-6.2237372 -4.1370239 4.8941894 0 0 0 0 30.043966
-6.2616625 -5.52003 4.8518481 0 0 0 0 30.048914
-5.7987933 -4.7535243 4.5409355 0 0 0 0 30.053862
-6.2031097 -4.7150726 4.8975182 0 0 0 0 30.058807
-6.153801 -4.2931175 4.9003649 0 0 0 0 30.063755
-6.1454706 -5.2751446 4.9058709 0 0 0 0 30.073648
-5.9639659 -4.7493434 4.7847986 0 0 0 0 30.078596
-6.0758553 -4.4432178 4.903543 0 0 0 0 30.083544
-6.0154948 -5.4042869 4.8970861 0 0 0 0 30.093437
-5.7117968 -4.7626257 4.6610804 0 0 0 0 30.098383
-6.0049229 -4.6023088 4.9147172 0 0 0 0 30.103331
-5.284369 -4.6130981 4.3894539 0 0 0 0 30.118172
-5.893939 -4.7304411 4.896914 0 0 0 0 30.123119
-5.0812459 -4.6403227 4.2996898 0 0 0 0 30.13796
-5.6137166 -4.7167568 4.7372079 0 0 0 0 30.142906
-5.6773219 -5.4246693 4.9004989 0 0 0 0 30.157747
-5.1912785 -4.5642252 4.4535732 0 0 0 0 30.162695
-5.6024203 -5.6007476 4.937675 0 0 0 0 30.177536
-4.9781289 -4.5784621 4.3458104 0 0 0 0 30.182484
-4.8691335 -4.6865835 4.3289881 0 0 0 0 30.202271
-5.6034522 -5.6417828 5.0797367 0 0 0 0 30.222059
-3.7248287 -5.2136908 3.7733781 0 0 0 0 30.246794
-2.9535406 -4.338541 3.094739 0 0 0 0 30.266582
-3.7837877 -5.1306548 3.8573017 0 0 0 0 30.271528
-2.747318 -4.2367539 2.9819059 0 0 0 0 30.286369
-2.590183 -4.1979117 2.9160533 0 0 0 0 30.306158
-2.8533845 -4.2566643 3.0988321 0 0 0 0 30.311106
-3.7587841 -5.1787062 3.9463797 0 0 0 0 30.316051
-2.4590993 -4.194037 2.8791902 0 0 0 0 30.325947
-2.69525 -4.2228231 3.0299823 0 0 0 0 30.330893
-2.3099656 -4.1501842 2.8163261 0 0 0 0 30.345734
-2.5401127 -4.184979 2.9601271 0 0 0 0 30.350681
-2.7932873 -4.2387524 3.119915 0 0 0 0 30.355627
-3.7447445 -5.2087612 4.0124383 0 0 0 0 30.360575
-2.1848781 -4.1393037 2.7794528 0 0 0 0 30.365522
-2.4060116 -4.1711102 2.9112616 0 0 0 0 30.370468
-2.6341441 -4.2019129 3.0430636 0 0 0 0 30.375416
-2.020689 -4.0464683 2.6895807 0 0 0 0 30.385309
-2.2628849 -4.135251 2.8493943 0 0 0 0 30.390257
-2.4990423 -4.1930466 2.990201 0 0 0 0 30.395205
-2.7632041 -4.2388196 3.1439767 0 0 0 0 30.40015
-1.9011881 -4.0273132 2.6525311 0 0 0 0 30.141478
-2.1183436 -4.0851068 2.7813485 0 0 0 0 30.146425
-2.349514 -4.1528883 2.9181566 0 0 0 0 30.151371
-2.6006675 -4.1946554 3.0569334 0 0 0 0 30.156319
-1.7861035 -4.0144277 2.6206505 0 0 0 0 30.161266
-1.9802026 -4.0362535 2.7174735 0 0 0 0 30.166212
-2.2224152 -4.1430202 2.87129 0 0 0 0 30.17116
-2.4665639 -4.1897974 3.0020766 0 0 0 0 30.176107
-1.6730149 -3.9965396 2.5877647 0 0 0 0 30.181053
-1.8550887 -4.0063825 2.6675944 0 0 0 0 30.186001
-2.0592151 -4.0561996 2.7734218 0 0 0 0 30.190948
-2.3184187 -4.1519575 2.927217 0 0 0 0 30.195894
-1.5579103 -3.9646552 2.5478737 0 0 0 0 30.200842
-1.742 -3.992496 2.6317103 0 0 0 0 30.20579
-1.9331011 -4.0303307 2.7205451 0 0 0 0 30.210735
-2.1802895 -4.1231036 2.8613513 0 0 0 0 30.215683
-1.4508295 -3.9497583 2.5199819 0 0 0 0 30.220631
-1.6269017 -3.9696112 2.5918233 0 0 0 0 30.225576
-1.8129969 -4.0094533 2.6736643 0 0 0 0 30.230524
-2.0190926 -4.0402794 2.7624824 0 0 0 0 30.235472
-1.3467463 -3.9308589 2.4920847 0 0 0 0 30.240417
-1.5178121 -3.951719 2.556932 0 0 0 0 30.245365
-1.6968993 -3.9915702 2.6307805 0 0 0 0 30.250313
-1.8959875 -4.0234056 2.711606 0 0 0 0 30.255259
-1.2537044 -3.942941 2.4851906 0 0 0 0 30.260206
-1.4127333 -3.9408202 2.5280395 0 0 0 0 30.265152
-1.5838026 -3.971683 2.5898919 0 0 0 0 30.2701
-1.7738776 -4.0015306 2.6587257 0 0 0 0 30.275047
-1.1686906 -3.9760103 2.4932973 0 0 0 0 30.279993
-1.3076451 -3.9209218 2.4951422 0 0 0 0 30.284941
-1.4737118 -3.955791 2.5520017 0 0 0 0 30.289888
-1.6547691 -3.976651 2.6088407 0 0 0 0 30.294834
-1.0645916 -3.9411106 2.4593911 0 0 0 0 30.299782
-1.2296581 -3.9789817 2.5142529 0 0 0 0 30.304729
-1.3656183 -3.9348967 2.5141065 0 0 0 0 30.309675
-1.5396661 -3.9547658 2.5619524 0 0 0 0 30.314623
-0.964499 -3.909205 2.429482 0 0 0 0 30.319571
-1.1215492 -3.9400873 2.4723487 0 0 0 0 30.324516
-1.2655493 -3.9319901 2.4892111 0 0 0 0 30.329464
-1.4295733 -3.9388735 2.5210612 0 0 0 0 30.334412
-0.86841547 -3.8832936 2.4045713 0 0 0 0 30.339357
-1.0234736 -3.9251778 2.4484451 0 0 0 0 30.344305
-1.1805393 -3.9760599 2.4943209 0 0 0 0 30.349253
-1.3224852 -3.9239767 2.4841669 0 0 0 0 30.354198
-0.77433777 -3.8613787 2.3826599 0 0 0 0 30.359146
-0.92136252 -3.8812771 2.406532 0 0 0 0 30.364094
-1.0714216 -3.9311674 2.4464145 0 0 0 0 30.36904
-1.236474 -3.9710481 2.4862788 0 0 0 0 30.373987
-0.68024409 -3.824466 2.3537414 0 0 0 0 30.378933
-0.82528061 -3.8583648 2.3806219 0 0 0 0 30.383881
-0.9713344 -3.9092607 2.4145088 0 0 0 0 30.388828
-1.129374 -3.9441509 2.4443779 0 0 0 0 30.393774
-0.59419179 -3.8205383 2.3458292 0 0 0 0 30.398722
-0.73320979 -3.8434467 2.3607109 0 0 0 0 30.403669
-0.86922997 -3.8713577 2.3745978 0 0 0 0 30.408615
-1.0272915 -3.9292452 2.4124768 0 0 0 0 30.413563
-0.50612032 -3.7996147 2.3289111 0 0 0 0 30.41851
-0.64213705 -3.8265271 2.3397975 0 0 0 0 30.423456
-0.77415472 -3.8564429 2.3496892 0 0 0 0 30.428404
-0.92017591 -3.8863485 2.3635681 0 0 0 0 30.433352
-0.42914543 -3.8576627 2.3620148 0 0 0 0 30.438297
-0.5510487 -3.7946095 2.3118775 0 0 0 0 30.443245
-0.67705846 -3.8225324 2.3147743 0 0 0 0 30.448193
-0.81807339 -3.8514442 2.3226578 0 0 0 0 30.453138
-0.35423416 -3.9696956 2.4281373 0 0 0 0 30.458086
-0.47005388 -3.8406653 2.3319795 0 0 0 0 30.463034
-0.5869925 -3.8126099 2.2958622 0 0 0 0 30.467979
-0.72501886 -3.8555231 2.3067544 0 0 0 0 30.472927
-0.27125406 -4.0237474 2.4602423 0 0 0 0 30.477875
-0.39715862 -3.9706945 2.4041066 0 0 0 0 30.482821
-0.49893665 -3.8096833 2.2829504 0 0 0 0 30.487768
-0.6289354 -3.8336084 2.2768426 0 0 0 0 30.492714
-0.18937021 -4.1587772 2.5433776 0 0 0 0 30.497662
-0.30708116 -3.9447713 2.384186 0 0 0 0 30.502609
-0.41795763 -3.8717351 2.3100574 0 0 0 0 30.507555
-0.52981836 -3.7817011 2.2299213 0 0 0 0 30.512503
-0.099331953 -4.1628442 2.547467 0 0 0 0 30.51745
-0.23232336 -4.1937728 2.5293589 0 0 0 0 30.522396
-0.33599982 -3.9517829 2.3491709 0 0 0 0 30.527344
-0.44884136 -3.8487532 2.2560296 0 0 0 0 30.532291
-0.0092835966 -4.1579118 2.5465522 0 0 0 0 30.537237
-0.1402777 -4.1948423 2.5274487 0 0 0 0 30.542185
-0.25207481 -4.0618248 2.4052968 0 0 0 0 30.547132
-0.36992818 -3.972791 2.3151569 0 0 0 0 30.552078
0.078758672 -4.1569762 2.5496364 0 0 0 0 30.557026
-0.047256529 -4.216907 2.5385463 0 0 0 0 30.561974
-0.2738423 -3.9448726 2.2862401 0 0 0 0 30.571867
0.16879372 -4.1620393 2.5567238 0 0 0 0 30.576815
0.04577031 -4.2329717 2.547641 0 0 0 0 30.58176
0.25882918 -4.1651015 2.5648098 0 0 0 0 30.596601
0.34731615 -4.1540298 2.5648448 0 0 0 0 30.365479
0.43834168 -4.1630926 2.5789375 0 0 0 0 30.385265
0.52837843 -4.1621571 2.5880244 0 0 0 0 30.405054
0.63725805 -4.2901983 2.6781816 0 0 0 0 30.424841
0.31042916 -4.363081 2.4809098 0 0 0 0 30.439682
0.62234288 -4.3252239 2.6241844 0 0 0 0 30.449577
0.41149244 -4.3501592 2.4700005 0 0 0 0 30.459471
0.62047243 -4.3282676 2.5431859 0 0 0 0 30.474312
0.51455522 -4.3362374 2.4600921 0 0 0 0 30.479259
0.71455228 -4.2943416 2.5282605 0 0 0 0 30.494101
0.61661536 -4.3233132 2.4521825 0 0 0 0 30.499046
0.81161863 -4.2714128 2.5203414 0 0 0 0 30.513887
0.72761202 -4.3643804 2.4773016 0 0 0 0 30.518835
0.90966791 -4.2624812 2.5214286 0 0 0 0 30.533676
0.83364934 -4.369452 2.4824014 0 0 0 0 30.538624
1.0077296 -4.240551 2.5175097 0 0 0 0 30.553463
0.93770641 -4.355525 2.4784908 0 0 0 0 30.558411
1.1047875 -4.2216182 2.5155909 0 0 0 0 30.573252
1.045751 -4.3515973 2.4815872 0 0 0 0 30.578199
1.2058336 -4.2116838 2.520678 0 0 0 0 30.59304
1.151801 -4.3416677 2.4826787 0 0 0 0 30.597986
1.3048849 -4.1957488 2.5237608 0 0 0 0 30.612827
1.2628393 -4.3407378 2.490777 0 0 0 0 30.617775
1.4039388 -4.1768131 2.525842 0 0 0 0 30.632616
1.5049886 -4.1598768 2.5309248 0 0 0 0 30.652405
1.6060362 -4.1439395 2.5380075 0 0 0 0 30.672192
1.7520924 -3.8939822 2.6640465 0 0 0 0 30.682085
1.7070873 -4.1230016 2.5440876 0 0 0 0 30.69198
1.8401432 -3.8680351 2.6731141 0 0 0 0 30.701874
1.8091375 -4.1020627 2.5511684 0 0 0 0 30.711767
1.9291873 -3.8460865 2.6871831 0 0 0 0 30.721663
1.9131823 -4.0841231 2.5622511 0 0 0 0 30.731556
2.0172367 -3.8191378 2.6982493 0 0 0 0 30.741449
2.0172315 -4.0611835 2.5713317 0 0 0 0 30.751345
2.1012955 -3.7831876 2.7043087 0 0 0 0 30.761238
2.1252718 -4.0452433 2.5864172 0 0 0 0 30.771132
2.1833565 -3.7442362 2.7093651 0 0 0 0 30.781025
2.2363081 -4.0313029 2.6045055 0 0 0 0 30.79092
2.2734015 -3.7182856 2.7244322 0 0 0 0 30.800814
2.3882182 -4.0023365 2.7666242 0 0 0 0 30.805761
2.3443565 -4.0053625 2.6165864 0 0 0 0 30.810707
2.3654432 -3.6933343 2.742501 0 0 0 0 30.820602
2.4543979 -3.9834204 2.6336699 0 0 0 0 30.830496
2.4155266 -3.9944463 2.4886394 0 0 0 0 30.835443
2.4507189 -3.6563966 2.7535481 0 0 0 0 30.941811
2.5696616 -3.9634907 2.6537373 0 0 0 0 30.951704
2.5447619 -3.628444 2.7716155 0 0 0 0 30.961599
2.6777122 -3.9305456 2.6668127 0 0 0 0 30.971493
2.6467912 -3.6104915 2.7996922 0 0 0 0 30.981386
2.8007402 -3.9166028 2.6949058 0 0 0 0 30.991282
2.8487611 -4.0326529 2.6099775 0 0 0 0 30.996227
2.7338438 -3.5715356 2.8127496 0 0 0 0 31.001175
2.8088307 -3.714592 2.7518511 0 0 0 0 31.006123
2.9097922 -3.8786566 2.7089796 0 0 0 0 31.011068
2.9548304 -3.9787071 2.6130435 0 0 0 0 31.016016
2.8368728 -3.5505819 2.8428252 0 0 0 0 31.020964
2.9008908 -3.6676383 2.7609093 0 0 0 0 31.025909
3.0958545 -3.9667706 2.6451497 0 0 0 0 31.035805
2.92892 -3.5136256 2.8608863 0 0 0 0 31.040751
2.9999435 -3.6266859 2.7749746 0 0 0 0 31.045698
3.2179043 -3.9278276 2.6622319 0 0 0 0 31.055592
3.0309546 -3.485671 2.8889582 0 0 0 0 31.060539
3.1069851 -3.5927346 2.7980478 0 0 0 0 31.065485
3.3319669 -3.8748817 2.6723034 0 0 0 0 31.07538
3.1429784 -3.4657187 2.9250395 0 0 0 0 31.080326
3.207036 -3.5497806 2.8151124 0 0 0 0 31.085274
3.4490259 -3.8229356 2.6853771 0 0 0 0 31.095167
3.2490118 -3.4357643 2.9561126 0 0 0 0 31.100115
3.3090882 -3.5038271 2.8321776 0 0 0 0 31.105062
3.5780728 -3.7809923 2.7074628 0 0 0 0 31.114956
3.3620386 -3.4098115 2.9921918 0 0 0 0 31.119904
3.4161317 -3.4628732 2.8562477 0 0 0 0 31.124849
3.7151115 -3.7430506 2.7365549 0 0 0 0 31.134745
3.5020356 -3.4078655 3.0512981 0 0 0 0 31.13969
3.5261753 -3.4209204 2.8813195 0 0 0 0 31.144638
3.6931562 -3.5630143 2.8314865 0 0 0 0 31.149586
3.8641407 -3.7121112 2.773658 0 0 0 0 31.154531
3.6260545 -3.3849144 3.0963855 0 0 0 0 31.159479
3.6412144 -3.3809683 2.9103949 0 0 0 0 31.164427
3.7912252 -3.4950576 2.8405404 0 0 0 0 31.169373
4.128058 -3.782207 2.8908756 0 0 0 0 31.17432
4.0927038 -3.6640573 3.4268165 0 0 0 0 31.179266
3.7662435 -3.3470178 2.9484797 0 0 0 0 31.184214
3.9042814 -3.4361053 2.8596084 0 0 0 0 31.189161
4.2816715 -3.6761243 3.518959 0 0 0 0 31.199055
3.9032633 -3.3190706 2.9945743 0 0 0 0 31.204002
4.0213327 -3.3801529 2.8826797 0 0 0 0 31.208948
4.3817382 -3.6051669 3.536011 0 0 0 0 31.218843
4.0462804 -3.2911243 3.044673 0 0 0 0 31.223789
4.1543703 -3.3322048 2.9177649 0 0 0 0 31.228737
4.5437422 -3.583226 3.6031227 0 0 0 0 31.23863
4.2112818 -3.2731848 3.1087902 0 0 0 0 31.243578
4.2904072 -3.2832565 2.9548519 0 0 0 0 31.248526
4.5084143 -3.4013727 2.8880458 0 0 0 0 31.253471
4.4012623 -3.2702515 3.1919289 0 0 0 0 31.263367
4.4314418 -3.2333095 2.9949417 0 0 0 0 31.268312
4.6374707 -3.3294218 2.91412 0 0 0 0 31.27326
