# .PCD v0.7 - Point Cloud Data file format
VERSION 0.7
FIELDS x y z normal_x normal_y normal_z intensity curvature
SIZE 4 4 4 4 4 4 4 4
TYPE F F F F F F F F
COUNT 1 1 1 1 1 1 1 1
WIDTH 982
HEIGHT 1
VIEWPOINT 0 0 0 1 0 0 0
POINTS 982
DATA ascii
4.5748172 2.8232448 5.6451721 0 0 0 0 14.124136
4.9724741 3.0784094 5.6703677 0 0 0 0 14.129084
5.4032474 3.3623254 5.7078385 0 0 0 0 14.13403
4.1058493 2.6676087 5.6265922 0 0 0 0 14.138977
4.5125632 2.9197249 5.6408482 0 0 0 0 14.143925
4.9012675 3.187948 5.6719942 0 0 0 0 14.148871
5.3151531 3.4839916 5.7053561 0 0 0 0 14.153818
4.0505114 2.7490396 5.6193023 0 0 0 0 14.158766
4.4482789 3.0162129 5.640511 0 0 0 0 14.163713
4.8180828 3.2895844 5.6625252 0 0 0 0 14.168659
5.2080679 3.5898135 5.6857181 0 0 0 0 14.173607
4.0021415 2.8364077 5.6220713 0 0 0 0 14.178554
4.3790159 3.1087446 5.6331334 0 0 0 0 14.1835
4.7328968 3.3902354 5.652041 0 0 0 0 14.188448
5.1099367 3.7015548 5.678153 0 0 0 0 14.193395
3.9418085 2.9158766 5.6117439 0 0 0 0 14.198341
4.3087301 3.1992815 5.6267471 0 0 0 0 14.203289
4.6526575 3.4938369 5.651598 0 0 0 0 14.208236
5.0147672 3.8142657 5.6766124 0 0 0 0 14.213182
3.8854306 2.9983046 5.6104498 0 0 0 0 14.218129
4.2374287 3.2898214 5.622354 0 0 0 0 14.223077
4.5674043 3.5924766 5.6481137 0 0 0 0 14.228024
4.9075985 3.9170732 5.6649737 0 0 0 0 14.23297
3.8300369 3.0807226 5.6111636 0 0 0 0 14.237917
4.1651049 3.3793652 5.6199536 0 0 0 0 14.242865
4.4731727 3.6841915 5.6345572 0 0 0 0 14.247811
4.8073835 4.0248156 5.6643934 0 0 0 0 14.252758
3.7666719 3.1582074 5.6028152 0 0 0 0 14.257706
4.0848022 3.4629757 5.6084895 0 0 0 0 14.262652
4.3908653 3.784796 5.640099 0 0 0 0 14.267599
4.6931844 4.1196747 5.6486969 0 0 0 0 14.272547
3.706284 3.2366655 5.5984893 0 0 0 0 14.277493
4.0144467 3.5544956 5.6121078 0 0 0 0 14.28244
4.2975807 3.8754938 5.6325502 0 0 0 0 14.287388
4.5859323 4.2194676 5.6450582 0 0 0 0 14.292335
3.6458731 3.3181145 5.6001687 0 0 0 0 14.297281
3.9321136 3.6341183 5.6006255 0 0 0 0 14.302229
4.1982956 3.9612391 5.6199532 0 0 0 0 14.307176
4.4656744 4.3053675 5.6283097 0 0 0 0 14.312122
3.5794837 3.3926184 5.5917969 0 0 0 0 14.31707
3.8497579 3.7147348 5.5931458 0 0 0 0 14.322017
4.1069508 4.0529084 5.6214218 0 0 0 0 14.326963
4.3573704 4.4011602 5.6276617 0 0 0 0 14.33191
3.509094 3.4641531 5.5803933 0 0 0 0 14.336858
3.7743638 3.8022857 5.5977259 0 0 0 0 14.341805
4.0066133 4.134654 5.611815 0 0 0 0 14.346751
4.2759948 4.5267115 5.6662464 0 0 0 0 14.351698
3.448637 3.5455921 5.5880747 0 0 0 0 14.356646
3.6909771 3.8809042 5.5922384 0 0 0 0 14.361592
3.8992691 4.2094555 5.5961504 0 0 0 0 14.366539
4.2844143 4.7514663 5.831604 0 0 0 0 14.371487
3.3782234 3.6171212 5.5796728 0 0 0 0 14.376433
3.6005979 3.9535799 5.5796947 0 0 0 0 14.38138
3.7978942 4.2892017 5.5895362 0 0 0 0 14.386328
4.1580801 4.8353925 5.8228154 0 0 0 0 14.391274
3.30689 3.6897275 5.5742993 0 0 0 0 14.463392
3.517261 4.0322704 5.5792389 0 0 0 0 14.46834
3.7035537 4.3769641 5.5970092 0 0 0 0 14.473287
4.0287967 4.9124346 5.8100176 0 0 0 0 14.478233
3.2394221 3.7652178 5.5769277 0 0 0 0 14.483181
3.4258423 4.1029449 5.5696888 0 0 0 0 14.488128
3.693912 4.5698705 5.7392011 0 0 0 0 14.493074
3.9093933 4.99929 5.8132882 0 0 0 0 14.498022
3.1629832 3.8327856 5.567482 0 0 0 0 14.502969
3.3314164 4.167645 5.5551114 0 0 0 0 14.507915
3.6214037 4.6913319 5.7918525 0 0 0 0 14.512862
3.7779846 5.0712457 5.8024554 0 0 0 0 14.517809
3.0865295 3.8983521 5.5580354 0 0 0 0 14.522757
3.2419524 4.2412915 5.5545821 0 0 0 0 14.527703
3.5069678 4.7591672 5.781137 0 0 0 0 14.53265
3.6425476 5.1352324 5.7875853 0 0 0 0 14.537598
3.0150378 3.9718661 5.5616345 0 0 0 0 14.542544
3.1554658 4.3169093 5.5590777 0 0 0 0 14.547491
3.3945093 4.8299785 5.7764406 0 0 0 0 14.552439
3.5190644 5.2151055 5.7948227 0 0 0 0 14.557385
2.9315829 4.031487 5.5461321 0 0 0 0 14.562332
3.1257935 4.4749899 5.6710854 0 0 0 0 14.56728
3.2820282 4.899786 5.7737446 0 0 0 0 14.572227
3.3845761 5.2770753 5.7849603 0 0 0 0 14.577173
2.8500984 4.0940843 5.5376487 0 0 0 0 14.582121
3.0791657 4.6162181 5.7599516 0 0 0 0 14.587068
3.1595492 4.9556794 5.7569613 0 0 0 0 14.592014
3.2480595 5.3330598 5.7730775 0 0 0 0 14.596962
2.7705986 4.1586609 5.5331831 0 0 0 0 14.601909
2.9726872 4.672998 5.7442842 0 0 0 0 14.606855
3.0410399 5.0155334 5.7482128 0 0 0 0 14.611803
3.1095285 5.3860583 5.7601781 0 0 0 0 14.61675
2.6900835 4.2232409 5.5307112 0 0 0 0 14.621696
2.869179 4.7307487 5.7336402 0 0 0 0 14.626643
2.9205029 5.0674052 5.7354407 0 0 0 0 14.631591
2.974961 5.4400187 5.7533102 0 0 0 0 14.636538
2.6573911 4.367353 5.6316833 0 0 0 0 14.641484
2.7676549 4.7934752 5.7300181 0 0 0 0 14.646431
2.8029425 5.1252418 5.731699 0 0 0 0 14.651379
2.8333597 5.4810371 5.7383776 0 0 0 0 14.656325
2.6246896 4.5194526 5.7416663 0 0 0 0 14.661272
2.6641095 4.8522153 5.725378 0 0 0 0 14.66622
2.6803691 5.1741219 5.7209125 0 0 0 0 14.671166
2.7007339 5.5359683 5.7405281 0 0 0 0 14.676113
2.5301814 4.5731421 5.7270846 0 0 0 0 14.681061
2.5545578 4.9030046 5.7136865 0 0 0 0 14.686007
2.5587664 5.2249846 5.7161365 0 0 0 0 14.690954
2.5570903 5.5679998 5.7225723 0 0 0 0 14.695902
2.4386435 4.6307998 5.7205296 0 0 0 0 14.700849
2.4489832 4.9587545 5.7100306 0 0 0 0 14.705795
2.4361567 5.2698598 5.706347 0 0 0 0 14.710743
2.4114199 5.5890532 5.6975899 0 0 0 0 14.71569
2.3500893 4.6954231 5.7230067 0 0 0 0 14.720636
2.340395 5.0075302 5.7013459 0 0 0 0 14.725584
2.3105192 5.3087564 5.69453 0 0 0 0 14.730531
2.2757239 5.6310043 5.6967072 0 0 0 0 14.735477
2.2525444 4.7431312 5.7073989 0 0 0 0 14.740424
2.2287998 5.0513306 5.6886349 0 0 0 0 14.745372
2.190851 5.3595886 5.6987729 0 0 0 0 14.750319
2.1370008 5.6629815 5.6897917 0 0 0 0 14.755265
2.1559772 4.7918253 5.6958013 0 0 0 0 14.760212
2.122174 5.1040778 5.6889725 0 0 0 0 14.76516
2.0641718 5.3884945 5.6829391 0 0 0 0 14.770106
1.9942589 5.6809993 5.6718321 0 0 0 0 14.775053
2.0604012 4.8485003 5.6932216 0 0 0 0 14.780001
2.0085361 5.1428876 5.6772437 0 0 0 0 14.784947
1.9384772 5.4213829 5.6731186 0 0 0 0 14.789894
1.8574862 5.7109523 5.6699314 0 0 0 0 14.794842
1.9618117 4.896203 5.6836104 0 0 0 0 14.799788
1.8938911 5.1787052 5.6635056 0 0 0 0 14.804735
1.8137472 5.4532585 5.667305 0 0 0 0 14.809683
1.7146808 5.7249599 5.6569691 0 0 0 0 14.81463
1.8612012 4.9399195 5.6729813 0 0 0 0 14.819576
1.7832084 5.2254729 5.6658106 0 0 0 0 14.824524
1.6870029 5.4841447 5.6624784 0 0 0 0 14.829471
1.5748614 5.7359462 5.6430254 0 0 0 0 14.834417
1.7655661 5.0005746 5.6824107 0 0 0 0 14.839365
1.6675215 5.2532973 5.6500578 0 0 0 0 14.844312
1.5592391 5.5030475 5.6486301 0 0 0 0 14.849258
1.4380189 5.7568932 5.642118 0 0 0 0 14.854205
1.6629404 5.0433011 5.6727691 0 0 0 0 14.859153
1.5538182 5.29109 5.6463332 0 0 0 0 14.8641
1.4334594 5.530921 5.6458097 0 0 0 0 14.869046
1.2981507 5.7638717 5.6311722 0 0 0 0 14.873993
1.5573083 5.0790544 5.6570978 0 0 0 0 14.878941
1.4380876 5.3228979 5.6405878 0 0 0 0 14.883887
1.3066529 5.5498056 5.6379709 0 0 0 0 14.888834
1.1592556 5.761848 5.6152234 0 0 0 0 14.893782
1.4556385 5.1267567 5.6584725 0 0 0 0 14.898728
1.3243554 5.360683 5.6408658 0 0 0 0 14.903675
1.1798333 5.5616956 5.6251249 0 0 0 0 14.908623
1.0213317 5.7648044 5.6082897 0 0 0 0 14.913569
1.34997 5.1634998 5.6488051 0 0 0 0 14.918516
1.2055984 5.3775229 5.624083 0 0 0 0 14.923464
1.0509927 5.5715957 5.6132641 0 0 0 0 14.928411
0.88439476 5.7607584 5.5963559 0 0 0 0 14.933357
1.2418776 5.1975212 5.6388688 0 0 0 0 15.582352
1.0903639 5.4105415 5.6261301 0 0 0 0 15.587298
0.92562002 5.5876489 5.6122556 0 0 0 0 15.592245
0.74889016 5.7618413 5.5932965 0 0 0 0 15.597193
1.1361631 5.2382255 5.6382313 0 0 0 0 15.602139
0.97155827 5.4273438 5.6153736 0 0 0 0 15.607086
0.79873484 5.5915041 5.6004286 0 0 0 0 15.612034
0.61389714 5.7597346 5.5914087 0 0 0 0 15.616981
1.0274363 5.2709565 5.6315641 0 0 0 0 15.621927
0.85174662 5.4391565 5.600605 0 0 0 0 15.626875
0.67182237 5.5963511 5.5936046 0 0 0 0 15.631822
0.47889981 5.7446423 5.5775051 0 0 0 0 15.636768
0.91669661 5.2977042 5.6208763 0 0 0 0 15.641716
0.73491126 5.4669223 5.6048799 0 0 0 0 15.646663
0.54589599 5.6021852 5.5897903 0 0 0 0 15.651609
0.34486955 5.7255402 5.5646043 0 0 0 0 15.656556
0.80594897 5.3284435 5.6151958 0 0 0 0 15.661504
0.61505926 5.4747291 5.5921087 0 0 0 0 15.666451
0.41895312 5.5880475 5.568944 0 0 0 0 15.671397
0.21181896 5.7074246 5.5557137 0 0 0 0 15.676344
0.69317633 5.3472056 5.6014872 0 0 0 0 15.681292
0.49520004 5.4835315 5.5813408 0 0 0 0 15.686238
0.29298672 5.5908751 5.5681286 0 0 0 0 15.691185
0.075761966 5.4046965 5.2704225 0 0 0 0 15.696133
0.58039516 5.3729553 5.5957894 0 0 0 0 15.701079
0.37531295 5.4963222 5.5785794 0 0 0 0 15.706026
0.16800758 5.5896969 5.5653157 0 0 0 0 15.710974
-0.046310533 5.1837654 5.0673366 0 0 0 0 15.71592
0.46758699 5.3967004 5.5920897 0 0 0 0 15.720867
0.25440878 5.492136 5.56179 0 0 0 0 15.725815
0.042005952 5.5655484 5.543467 0 0 0 0 15.730762
-0.16440868 5.1345778 5.0355086 0 0 0 0 15.735708
0.3517729 5.4154696 5.5843649 0 0 0 0 15.740656
0.1344887 5.4999232 5.5590248 0 0 0 0 15.745603
-0.081013158 5.5623488 5.5446687 0 0 0 0 15.750549
-0.28152075 5.1243281 5.0437422 0 0 0 0 15.755497
0.23594007 5.4252448 5.5706291 0 0 0 0 15.760444
0.01454856 5.5067058 5.5582595 0 0 0 0 15.76539
-0.19198343 5.1625962 5.1524191 0 0 0 0 15.770338
-0.39764929 5.0960908 5.0369587 0 0 0 0 15.775285
0.1210904 5.4509883 5.574923 0 0 0 0 15.780231
-0.10540354 5.5054951 5.5514851 0 0 0 0 15.785178
-0.30402568 5.1053872 5.1046243 0 0 0 0 15.790125
-0.5138005 5.0828271 5.0481968 0 0 0 0 15.795073
0.004230028 5.461761 5.566185 0 0 0 0 15.800019
-0.22536717 5.4942932 5.5366988 0 0 0 0 15.804966
-0.41708267 5.0911245 5.1008816 0 0 0 0 15.809914
-0.63097447 5.0855432 5.0784512 0 0 0 0 15.81486
-0.11265755 5.4735246 5.5624495 0 0 0 0 15.819807
-0.3413375 5.4131546 5.4548459 0 0 0 0 15.824755
-0.52916968 5.0598693 5.0851235 0 0 0 0 15.829701
-0.79423308 5.3981347 5.4228158 0 0 0 0 15.834648
-0.23054789 5.4643207 5.5386806 0 0 0 0 15.839596
-0.43927345 5.1521382 5.1928744 0 0 0 0 15.844543
-0.67935055 5.3484235 5.3945427 0 0 0 0 15.849489
-0.92446297 5.4188972 5.4790101 0 0 0 0 15.854437
-0.34644735 5.4321299 5.4938955 0 0 0 0 15.859384
-0.5573138 5.1928363 5.2401748 0 0 0 0 15.86433
-0.81250519 5.43014 5.4987998 0 0 0 0 15.869278
-1.0437002 5.3746691 5.4731932 0 0 0 0 15.874225
-0.43629223 5.0811963 5.130857 0 0 0 0 15.879171
-0.70341223 5.4334412 5.4905581 0 0 0 0 15.884119
-0.93065089 5.3959112 5.4890027 0 0 0 0 15.889066
-1.161938 5.3354263 5.4723902 0 0 0 0 15.894012
-0.5452345 5.0619321 5.1051383 0 0 0 0 15.898959
-0.82547778 5.4332094 5.5017805 0 0 0 0 15.903907
-1.0467945 5.3526797 5.4702082 0 0 0 0 15.908854
-1.2782128 5.2841773 5.4655857 0 0 0 0 15.9138
-0.66121459 5.1006289 5.1414523 0 0 0 0 15.918747
-0.94255167 5.4069762 5.4890022 0 0 0 0 15.923695
-1.1669817 5.3304358 5.4784164 0 0 0 0 15.928641
-1.3924806 5.2329154 5.4577966 0 0 0 0 15.933588
-0.81627524 5.3862367 5.4298406 0 0 0 0 15.938536
-1.0616397 5.3867435 5.4842196 0 0 0 0 15.943482
-1.2801639 5.2831793 5.4616389 0 0 0 0 15.948429
-1.5027729 5.1736312 5.4460239 0 0 0 0 15.953377
-0.94929993 5.4509964 5.4980793 0 0 0 0 15.958323
-1.1787515 5.3535085 5.4704347 0 0 0 0 15.96327
-1.3953797 5.240921 5.4548559 0 0 0 0 15.968218
-1.6160926 5.1233478 5.4472446 0 0 0 0 15.973165
-1.0683224 5.4347696 5.4873042 0 0 0 0 15.978111
-1.2948695 5.3192658 5.4566565 0 0 0 0 15.983059
-1.5105963 5.2046528 5.454083 0 0 0 0 15.988006
-1.7244104 5.0650411 5.4404893 0 0 0 0 15.992952
-1.1883581 5.4185462 5.4785242 0 0 0 0 15.9979
-1.4130158 5.2950153 5.4568796 0 0 0 0 16.002846
-1.6208295 5.1543655 5.4423256 0 0 0 0 16.007793
-1.8277389 4.9967117 5.4257545 0 0 0 0 16.012741
-1.30942 5.4023213 5.4737382 0 0 0 0 16.017687
-1.5291731 5.2617598 5.4501057 0 0 0 0 16.022635
-1.7340899 5.1100826 5.4405565 0 0 0 0 16.027582
-1.9350886 4.9403858 5.4260111 0 0 0 0 16.032528
-1.4284868 5.3780913 5.461956 0 0 0 0 16.037476
-1.6463499 5.2285056 5.4463258 0 0 0 0 16.042423
-1.8433489 5.0617781 5.4348111 0 0 0 0 16.047369
-2.036442 4.871037 5.4142909 0 0 0 0 16.052317
-1.5508574 5.3590627 5.4584608 0 0 0 0 15.712976
-1.7618408 5.1944537 5.4438362 0 0 0 0 15.717923
-1.9499408 5.0047035 5.4223323 0 0 0 0 15.722871
-2.1361456 4.8029346 5.4048262 0 0 0 0 15.727818
-1.6709651 5.3308482 5.4486575 0 0 0 0 15.732764
-1.8750455 5.1511922 5.4340606 0 0 0 0 15.737711
-2.0582438 4.9543972 5.4205813 0 0 0 0 15.742659
-2.2375388 4.7405791 5.405107 0 0 0 0 15.747605
-1.7890984 5.2976203 5.4378614 0 0 0 0 15.752552
-1.9882766 5.1079235 5.4282861 0 0 0 0 15.7575
-2.1645653 4.9000778 5.41784 0 0 0 0 15.762446
-2.3299291 4.6631832 5.3904295 0 0 0 0 15.767393
-1.9102457 5.2694006 5.4340544 0 0 0 0 15.772341
-2.1035211 5.0686584 5.4285045 0 0 0 0 15.777287
-2.2678921 4.8387456 5.4091105 0 0 0 0 15.782234
-2.426347 4.5947948 5.3887377 0 0 0 0 15.787182
-2.0284181 5.2331657 5.4262576 0 0 0 0 15.792129
-2.2137766 5.0183711 5.4197435 0 0 0 0 15.797075
-2.3682306 4.7733951 5.398397 0 0 0 0 15.802023
-2.5217769 4.5263958 5.3890543 0 0 0 0 15.80697
-2.1466024 5.1929317 5.4164562 0 0 0 0 15.811916
-2.32005 4.958066 5.4039969 0 0 0 0 15.816864
-2.4675753 4.709034 5.3896928 0 0 0 0 15.821811
-2.6122119 4.4509711 5.3833961 0 0 0 0 15.826757
-2.2617984 5.1446843 5.4006662 0 0 0 0 15.831704
-2.4303508 4.9077668 5.4022379 0 0 0 0 15.836652
-2.5689533 4.6486721 5.3899813 0 0 0 0 15.841599
-2.7006457 4.3745341 5.3767505 0 0 0 0 15.846545
-2.3850369 5.1134567 5.4078465 0 0 0 0 15.851492
-2.5376501 4.8494568 5.3924899 0 0 0 0 15.85644
-2.6653354 4.5782895 5.3812909 0 0 0 0 15.861386
-2.7860978 4.2950754 5.370122 0 0 0 0 15.866333
-2.4992712 5.0611973 5.3940606 0 0 0 0 15.871281
-2.6419742 4.7871261 5.3827577 0 0 0 0 15.876227
-2.7607238 4.5098939 5.3756108 0 0 0 0 15.881174
-2.8725698 4.2196136 5.3704929 0 0 0 0 15.886122
-2.6115243 5.0059237 5.3802848 0 0 0 0 15.891068
-2.7493188 4.7298036 5.3810134 0 0 0 0 15.896015
-2.8551307 4.4384913 5.3699346 0 0 0 0 15.900963
-2.9520197 4.1351209 5.3588996 0 0 0 0 15.90591
-2.7308118 4.9596753 5.3804755 0 0 0 0 15.910856
-2.8546686 4.6694684 5.3772793 0 0 0 0 15.915804
-2.9475436 4.3680716 5.3662744 0 0 0 0 15.920751
-3.0335085 4.0546274 5.3572989 0 0 0 0 15.925697
-2.8461173 4.906404 5.3766856 0 0 0 0 15.930645
-2.9520352 4.5950952 5.3625808 0 0 0 0 15.935592
-3.038975 4.2946444 5.362617 0 0 0 0 15.940538
-3.1079757 3.9671001 5.345737 0 0 0 0 15.945486
-2.9564266 4.8421125 5.362915 0 0 0 0 15.950433
-3.0564163 4.5327468 5.3618531 0 0 0 0 15.955379
-3.1254108 4.2141919 5.3529849 0 0 0 0 15.960327
-3.1784482 3.8775475 5.333199 0 0 0 0 15.965273
-3.0697632 4.7838259 5.3591332 0 0 0 0 15.970221
-3.1548085 4.4623671 5.3551555 0 0 0 0 15.975167
-3.209846 4.1337252 5.3433671 0 0 0 0 15.980114
-3.2589743 3.8000321 5.3406115 0 0 0 0 15.985062
-3.1831186 4.724535 5.3573523 0 0 0 0 15.990008
-3.2552261 4.391993 5.3524461 0 0 0 0 15.994955
-3.2993143 4.0602727 5.3457265 0 0 0 0 15.999903
-3.2903318 3.668304 5.2702775 0 0 0 0 16.004848
-3.2934918 4.6592274 5.3525844 0 0 0 0 16.009796
-3.3506491 4.3175898 5.346765 0 0 0 0 16.014744
-3.3787794 3.973773 5.3351355 0 0 0 0 16.019691
-3.2735221 3.4913599 5.1312013 0 0 0 0 16.024637
-3.4008698 4.5869069 5.3418274 0 0 0 0 16.029585
-3.4430897 4.2371697 5.3380971 0 0 0 0 16.034531
-3.4532368 3.8852439 5.3215756 0 0 0 0 16.039478
-3.3420384 3.4097714 5.1336899 0 0 0 0 16.044426
-3.5042725 4.51056 5.3310933 0 0 0 0 16.049374
-3.5345359 4.1557426 5.3294358 0 0 0 0 16.054319
-3.5417545 3.8107729 5.3309431 0 0 0 0 16.059267
-3.4015262 3.3221378 5.1262307 0 0 0 0 16.064213
-3.6036863 4.4271922 5.3153768 0 0 0 0 16.06916
-3.6300087 4.0803256 5.3307567 0 0 0 0 16.074108
-3.560055 3.66399 5.2376771 0 0 0 0 16.079054
-3.4680603 3.2405307 5.1317339 0 0 0 0 16.084002
-3.7161419 4.3608756 5.3225989 0 0 0 0 16.088947
-3.7214923 3.9998863 5.3290982 0 0 0 0 16.093895
-3.5974314 3.5422804 5.1803193 0 0 0 0 16.098843
-3.5325928 3.1579115 5.1362491 0 0 0 0 16.10379
-3.8165934 4.277503 5.3128781 0 0 0 0 16.108736
-3.8019667 3.9073927 5.3144975 0 0 0 0 16.113684
-3.6267998 3.4165256 5.1180096 0 0 0 0 16.118629
-3.5871034 3.0682406 5.1308222 0 0 0 0 16.123577
-3.9060423 4.184073 5.2932177 0 0 0 0 16.128525
-3.8834596 3.8158991 5.3038917 0 0 0 0 16.133472
-3.6852708 3.3208954 5.1005487 0 0 0 0 16.138418
-3.6225448 2.9634812 5.1005006 0 0 0 0 16.143366
-3.389317 3.1817796 4.5213389 0 0 0 0 16.153259
-4.2139378 3.9373415 5.2982602 0 0 0 0 15.915935
-3.8862388 3.0614665 5.0973048 0 0 0 0 15.925829
-4.2984614 3.8358781 5.2816191 0 0 0 0 15.935722
-4.067534 3.3356051 5.1095028 0 0 0 0 15.94067
-4.392025 3.7434518 5.2799311 0 0 0 0 15.95551
-4.0073338 2.8791943 5.0933661 0 0 0 0 15.965405
-3.9068267 2.5414653 5.142601 0 0 0 0 15.970352
-4.4735789 3.6389642 5.2653079 0 0 0 0 15.975298
-4.0729265 2.791575 5.1018696 0 0 0 0 15.985192
-3.925262 2.4336014 5.1083889 0 0 0 0 15.990139
-4.5892544 3.5616343 5.2954965 0 0 0 0 15.995087
-4.2601337 3.0388014 5.0739961 0 0 0 0 16.000034
-4.1194501 2.6928608 5.0894842 0 0 0 0 16.00498
-3.9597771 2.3368092 5.097085 0 0 0 0 16.009928
-4.6808729 3.464186 5.2978182 0 0 0 0 16.014874
-4.3257113 2.9411957 5.0704875 0 0 0 0 16.019821
-4.1770329 2.6001966 5.0920348 0 0 0 0 16.024769
-4.0003386 2.2470367 5.0997505 0 0 0 0 16.029716
-4.5468717 3.2056248 5.0514159 0 0 0 0 16.034662
-4.398334 2.8476198 5.077939 0 0 0 0 16.03961
-4.2205734 2.5004592 5.0816698 0 0 0 0 16.044556
-4.0348716 2.1522372 5.0934505 0 0 0 0 16.049503
-4.6295013 3.1071165 5.0547962 0 0 0 0 16.054451
-4.459928 2.7469869 5.0744548 0 0 0 0 16.059399
-4.2731733 2.4057603 5.0852518 0 0 0 0 16.064344
-4.0704303 2.0594356 5.0931468 0 0 0 0 16.069292
-4.7071223 3.0045817 5.0532055 0 0 0 0 16.074238
-4.5175209 2.64433 5.068995 0 0 0 0 16.079185
-4.3207517 2.3090351 5.0838642 0 0 0 0 16.084133
-4.1059875 1.9676321 5.0938439 0 0 0 0 16.089079
-4.7777538 2.8970048 5.0486546 0 0 0 0 16.094027
-4.5791454 2.5436888 5.0705123 0 0 0 0 16.098972
-4.3673487 2.2122989 5.085485 0 0 0 0 16.10392
-4.1345372 1.8727887 5.0905838 0 0 0 0 16.108868
-4.8433909 2.7863979 5.0421333 0 0 0 0 16.113815
-4.6287475 2.4369817 5.0631003 0 0 0 0 16.118761
-4.3998904 2.1084924 5.0721884 0 0 0 0 16.123709
-4.1640921 1.7799472 5.0903206 0 0 0 0 16.128654
-4.909039 2.6747887 5.036612 0 0 0 0 16.133602
-4.6743422 2.3282528 5.0527134 0 0 0 0 16.13855
-4.4455047 2.0107462 5.0758138 0 0 0 0 16.143497
-4.1896324 1.6850852 5.086081 0 0 0 0 16.148443
-4.9696989 2.561147 5.0311213 0 0 0 0 16.153391
-4.7269816 2.2225544 5.0522847 0 0 0 0 16.158337
-4.4830971 1.9099561 5.0734892 0 0 0 0 16.163284
-4.2182045 1.5922325 5.0888243 0 0 0 0 16.168232
-5.0363903 2.4505317 5.0335956 0 0 0 0 16.17318
-4.7776394 2.1158402 5.0538678 0 0 0 0 16.178125
-4.5146813 1.8071312 5.0682015 0 0 0 0 16.183073
-4.2377424 1.4963329 5.0836229 0 0 0 0 16.188019
-5.0880532 2.3308372 5.0231571 0 0 0 0 16.192966
-4.8162484 2.0050633 5.0445256 0 0 0 0 16.197914
-4.5482841 1.7053134 5.0669022 0 0 0 0 16.20286
-4.2633123 1.4034604 5.0863872 0 0 0 0 16.207808
-5.1397276 2.2121384 5.0157204 0 0 0 0 16.212753
-4.862916 1.8963219 5.046133 0 0 0 0 16.217701
-4.5768666 1.6034672 5.0626359 0 0 0 0 16.222649
-4.2778349 1.3085296 5.0802202 0 0 0 0 16.227596
-5.1964588 2.0944571 5.0182524 0 0 0 0 16.232542
-4.9045825 1.7865498 5.046773 0 0 0 0 16.23749
-4.6115055 1.501647 5.0673308 0 0 0 0 16.242435
-4.2943826 1.2136062 5.0780411 0 0 0 0 16.247383
-5.2521896 1.976769 5.0207925 0 0 0 0 16.252331
-4.9372196 1.6727304 5.0394669 0 0 0 0 16.257278
-4.6330843 1.3967597 5.0601068 0 0 0 0 16.262224
-4.3119354 1.119686 5.0778561 0 0 0 0 16.267172
-5.2969041 1.8540195 5.0163975 0 0 0 0 16.272118
-4.9738955 1.5609255 5.0401373 0 0 0 0 16.277065
-4.654675 1.292868 5.0558848 0 0 0 0 16.282013
-4.3194351 1.0247144 5.0687351 0 0 0 0 16.286961
-5.3396239 1.7312554 5.0130162 0 0 0 0 16.291906
-5.0085697 1.4481086 5.0398197 0 0 0 0 16.296854
-4.6712518 1.1879486 5.0486941 0 0 0 0 16.3018
-4.3319921 0.93076074 5.0695834 0 0 0 0 16.306747
-5.3803616 1.6074754 5.0116463 0 0 0 0 16.311695
-5.0352225 1.3332473 5.0345526 0 0 0 0 16.316641
-4.6938787 1.0840546 5.0504651 0 0 0 0 16.321589
-4.3385091 0.83677715 5.0644712 0 0 0 0 16.326536
-5.4140906 1.480656 5.0063195 0 0 0 0 16.331482
-5.0639067 1.2193904 5.0352731 0 0 0 0 16.33643
-4.7215438 0.98218137 5.0602064 0 0 0 0 16.341377
-4.3510771 0.7438193 5.0683203 0 0 0 0 16.346323
-5.4538574 1.3558633 5.008956 0 0 0 0 16.351271
-5.0785432 1.1014593 5.0250802 0 0 0 0 16.356216
-4.885016 0.90496236 5.2170992 0 0 0 0 16.361164
-4.3717022 0.65189844 5.082119 0 0 0 0 16.366112
-5.4765697 1.2259803 4.9986973 0 0 0 0 16.371059
-5.0982113 0.98555028 5.0218573 0 0 0 0 16.376005
-4.9217868 0.8011241 5.2417803 0 0 0 0 16.380953
-5.5043044 1.0981038 4.9964309 0 0 0 0 16.39806
-5.2234468 0.88814491 5.1259971 0 0 0 0 16.403008
-5.5210266 0.96817946 4.9882112 0 0 0 0 16.417847
-5.6191683 0.85066134 5.0564814 0 0 0 0 16.437635
-0.47391742 0.054709803 0.42574623 0 0 0 0 16.442583
-0.4669067 0.043676388 0.41680816 0 0 0 0 16.46237
-0.48273486 0.046803512 0.39573279 0 0 0 0 16.477211
-0.44985721 0.03158972 0.40093353 0 0 0 0 16.482159
-0.47574344 0.034767486 0.38879329 0 0 0 0 16.497
-0.44485304 0.021566421 0.39398363 0 0 0 0 16.501945
-0.47377786 0.023756152 0.38682264 0 0 0 0 16.516788
-0.44090915 0.0025428168 0.39104605 0 0 0 0 16.541523
-0.46480793 0.0027090139 0.37791499 0 0 0 0 16.556364
-0.43695861 -0.015480693 0.38810968 0 0 0 0 16.581099
-0.46288273 -0.017304964 0.37696326 0 0 0 0 16.59594
-0.44610968 -0.035441887 0.39908656 0 0 0 0 16.620674
-0.46700779 -0.039289575 0.38196999 0 0 0 0 16.635515
-0.45728511 -0.057393573 0.41204798 0 0 0 0 16.660252
-0.47415766 -0.061261054 0.39095744 0 0 0 0 16.675091
-0.462428 -0.078377426 0.42104957 0 0 0 0 16.699827
-0.48535097 -0.085214652 0.40491655 0 0 0 0 16.714668
-0.5186559 -0.10405625 0.43771011 0 0 0 0 16.734455
-0.52201289 -0.11310245 0.48568541 0 0 0 0 16.739403
-0.57917476 -0.1307663 0.49631992 0 0 0 0 16.754244
-0.53921574 -0.12902606 0.50558603 0 0 0 0 16.75919
-5.616293 -1.4262429 5.188519 0 0 0 0 16.774033
-5.1602421 -1.3861108 5.224503 0 0 0 0 16.778978
-4.1413693 -1.2431989 5.0802288 0 0 0 0 16.788872
-5.5710025 -1.5555576 5.1846962 0 0 0 0 16.793819
-5.1208706 -1.5003883 5.2226601 0 0 0 0 16.798767
-4.6966119 -1.4410357 5.244463 0 0 0 0 16.803713
-4.1148472 -1.3283951 5.0823364 0 0 0 0 16.808661
-5.5237041 -1.6828853 5.1818886 0 0 0 0 16.813608
-5.0815177 -1.6156679 5.2228155 0 0 0 0 16.818554
-4.6652045 -1.5422703 5.2495832 0 0 0 0 16.823502
-4.0812731 -1.4126247 5.0774908 0 0 0 0 16.828449
-5.4845042 -1.8141794 5.1910233 0 0 0 0 16.833395
-5.0441947 -1.7299428 5.2289586 0 0 0 0 16.838343
-4.6267447 -1.6425378 5.2477498 0 0 0 0 16.843288
-4.0557857 -1.4988207 5.08459 0 0 0 0 16.848236
-5.4301906 -1.939549 5.188262 0 0 0 0 16.853184
-4.9998326 -1.8432535 5.2301469 0 0 0 0 16.858131
-4.5923405 -1.7437912 5.2538886 0 0 0 0 16.863077
-4.0242414 -1.5820451 5.085731 0 0 0 0 16.868025
-5.3768864 -2.0666358 5.194283 0 0 0 0 17.788393
-4.9484415 -1.956184 5.2320528 0 0 0 0 17.793339
-4.5499296 -1.8445427 5.2596402 0 0 0 0 17.798286
-3.9908621 -1.6685588 5.093286 0 0 0 0 17.803234
-5.3276024 -2.1929724 5.2024703 0 0 0 0 17.80818
-4.901041 -2.0665009 5.2362471 0 0 0 0 17.813128
-4.5044174 -1.9418372 5.2578387 0 0 0 0 17.818075
-3.9583004 -1.751781 5.0964217 0 0 0 0 17.823021
-5.2682576 -2.3153584 5.2047224 0 0 0 0 17.827969
-4.8526506 -2.1778243 5.241446 0 0 0 0 17.832916
-4.4619455 -2.0401218 5.2620173 0 0 0 0 17.837862
-3.9257617 -1.8360066 5.1025558 0 0 0 0 17.84281
-5.2028751 -2.4347744 5.2040153 0 0 0 0 17.847755
-4.7971992 -2.2841809 5.2416935 0 0 0 0 17.852703
-4.4134312 -2.1354351 5.2622352 0 0 0 0 17.857651
-3.8861682 -1.9172642 5.102736 0 0 0 0 17.862598
-5.1435509 -2.5561652 5.211267 0 0 0 0 17.867544
-4.7357173 -2.3885672 5.2389793 0 0 0 0 17.872492
-4.3568382 -2.2267821 5.2535067 0 0 0 0 17.877438
-3.8485856 -1.9985126 5.1049032 0 0 0 0 17.882385
-5.0751781 -2.6736023 5.2145786 0 0 0 0 17.887333
-4.6762633 -2.4929481 5.2412519 0 0 0 0 17.892281
-4.2881317 -2.3111808 5.2328601 0 0 0 0 17.897226
-3.8100142 -2.0797687 5.109076 0 0 0 0 17.902174
-5.0037746 -2.788053 5.2159114 0 0 0 0 17.90712
-4.6238976 -2.6023011 5.2534747 0 0 0 0 17.912067
-4.1921339 -2.3786914 5.1803994 0 0 0 0 17.917015
-3.7704473 -2.1610317 5.1142545 0 0 0 0 17.921961
-4.9334111 -2.9035051 5.2232356 0 0 0 0 17.926908
-4.5604358 -2.7047048 5.2567725 0 0 0 0 17.931856
-4.0809584 -2.4342623 5.1100454 0 0 0 0 17.936802
-3.7288618 -2.2413027 5.1174459 0 0 0 0 17.94175
-4.8630581 -3.018959 5.2325592 0 0 0 0 17.946697
-4.4939556 -2.8051238 5.2590904 0 0 0 0 17.951643
-4.0112276 -2.5126665 5.0914097 0 0 0 0 17.956591
-3.6822455 -2.3195982 5.1176696 0 0 0 0 17.961536
-4.764421 -3.1145349 5.2140784 0 0 0 0 17.966484
-4.430521 -2.9075327 5.2673874 0 0 0 0 17.971432
-3.9496086 -2.5960429 5.0867186 0 0 0 0 17.976379
-3.6366286 -2.3968883 5.1188879 0 0 0 0 17.981325
-4.5333748 -3.1186626 5.0495157 0 0 0 0 17.986273
-4.3670969 -3.0089447 5.2786837 0 0 0 0 17.991219
-3.8981125 -2.6853814 5.0969567 0 0 0 0 17.996166
-3.5960994 -2.4781644 5.1310697 0 0 0 0 18.001114
-4.4488621 -3.2171791 5.048943 0 0 0 0 18.006062
-4.2166944 -3.0487077 5.1865845 0 0 0 0 18.011007
-3.8446157 -2.7737319 5.1082082 0 0 0 0 18.015955
-3.5434394 -2.5524881 5.1283336 0 0 0 0 18.020901
-4.3684187 -3.3186839 5.0573411 0 0 0 0 18.025848
-4.063211 -3.0804782 5.0885134 0 0 0 0 18.030796
-3.7860703 -2.8591039 5.1144934 0 0 0 0 18.035742
-3.4978786 -2.6317873 5.1375465 0 0 0 0 18.040689
-4.2900033 -3.4211814 5.0697246 0 0 0 0 18.045637
-3.9876451 -3.1679416 5.0898981 0 0 0 0 18.050583
-3.7245004 -2.9424891 5.1187978 0 0 0 0 18.055531
-3.4462457 -2.7071097 5.1388011 0 0 0 0 18.060478
-4.2045164 -3.51771 5.0761566 0 0 0 0 18.065424
-3.9161432 -3.2583921 5.0992537 0 0 0 0 18.070372
-3.6589003 -3.0228941 5.1211305 0 0 0 0 18.075317
-3.3915946 -2.7804468 5.1390758 0 0 0 0 18.080265
-4.1129766 -3.6082675 5.0796332 0 0 0 0 18.085213
-3.8436341 -3.3478472 5.1086159 0 0 0 0 18.09016
-3.5922818 -3.1013021 5.1224704 0 0 0 0 18.095106
-3.335943 -2.8527904 5.140357 0 0 0 0 18.100054
-4.0234818 -3.7018194 5.0880914 0 0 0 0 18.105
-3.7630539 -3.4313388 5.1120329 0 0 0 0 18.109947
-3.522645 -3.1777251 5.1228309 0 0 0 0 18.114895
-3.2813082 -2.9261305 5.1436305 0 0 0 0 18.119843
-3.9299343 -3.7893884 5.0935817 0 0 0 0 18.124788
-3.6844962 -3.5148234 5.1194377 0 0 0 0 18.129736
-3.4601123 -3.2601237 5.1351395 0 0 0 0 18.134682
-3.2287188 -3.0014663 5.1528878 0 0 0 0 18.139629
-3.8293216 -3.8709898 5.09412 0 0 0 0 18.144577
-3.6049612 -3.5993171 5.1298451 0 0 0 0 18.149523
-3.3874683 -3.333565 5.1375198 0 0 0 0 18.15447
-3.1670179 -3.0698361 5.1502085 0 0 0 0 18.159418
-3.7104402 -3.9306591 5.070796 0 0 0 0 18.164364
-3.5183256 -3.6758368 5.1313047 0 0 0 0 18.169312
-3.3148406 -3.4090064 5.1408958 0 0 0 0 18.174259
-3.1114271 -3.1441891 5.1604838 0 0 0 0 18.179205
-3.5326807 -3.9225433 4.9649129 0 0 0 0 18.184153
-3.4296782 -3.7493682 5.13378 0 0 0 0 18.189098
-3.244247 -3.4844437 5.15026 0 0 0 0 18.194046
-3.0507767 -3.2145615 5.164794 0 0 0 0 18.198994
-3.3467257 -3.8954499 4.8441019 0 0 0 0 18.203941
-3.343065 -3.8248925 5.1402383 0 0 0 0 18.208887
-3.1696062 -3.556896 5.1546502 0 0 0 0 18.213835
-2.9881084 -3.2829428 5.1681175 0 0 0 0 18.218781
-3.1759069 -3.8762894 4.7381887 0 0 0 0 18.223728
-3.2361374 -3.8754895 5.1178508 0 0 0 0 18.228676
-3.092947 -3.6263585 5.1590562 0 0 0 0 18.233624
-2.9234159 -3.3493321 5.1694555 0 0 0 0 18.238569
-3.0070441 -3.8491154 4.6322722 0 0 0 0 18.243517
-3.0762994 -3.857259 5.0078683 0 0 0 0 18.248463
-3.0183334 -3.6988156 5.1684446 0 0 0 0 18.25341
-2.8597634 -3.4177215 5.1757836 0 0 0 0 18.258358
-2.7978997 -3.7576706 4.453773 0 0 0 0 17.853184
-2.9199996 -3.8325922 4.8969502 0 0 0 0 17.858131
-2.9392281 -3.7628677 5.1699457 0 0 0 0 17.863079
-2.7956436 -3.483711 5.1792078 0 0 0 0 17.868025
-2.6603916 -3.7533901 4.3866529 0 0 0 0 17.872972
-2.7630668 -3.802361 4.7849832 0 0 0 0 17.87792
-2.8453047 -3.8104041 5.1504931 0 0 0 0 17.882866
-2.7279763 -3.5491295 5.1845717 0 0 0 0 17.887814
-2.5125957 -3.7241328 4.2956276 0 0 0 0 17.892761
-2.5937874 -3.7431567 4.6431279 0 0 0 0 17.897707
-2.7208138 -3.8160388 5.0772796 0 0 0 0 17.902655
-2.6603377 -3.6165512 5.1929312 0 0 0 0 17.9076
-2.4912801 -3.887465 4.4305773 0 0 0 0 17.912548
-2.467273 -3.7388074 4.5749393 0 0 0 0 17.917496
-2.5533848 -3.7507954 4.91642 0 0 0 0 17.922443
-2.5896394 -3.6789825 5.1963153 0 0 0 0 17.927389
-2.3485498 -3.860188 4.3485155 0 0 0 0 17.932337
-2.3560016 -3.7504044 4.5316348 0 0 0 0 17.937283
-2.420567 -3.7274361 4.8162928 0 0 0 0 17.94223
-2.5179403 -3.7404201 5.200706 0 0 0 0 17.947178
-2.2128983 -3.8358824 4.2764058 0 0 0 0 17.952126
-2.2293715 -3.7330422 4.4564614 0 0 0 0 17.957071
-2.2968633 -3.7100408 4.7291017 0 0 0 0 17.962019
-2.4329813 -3.7828977 5.1802011 0 0 0 0 17.966965
-2.0842953 -3.8135426 4.2102499 0 0 0 0 17.971912
-2.1446083 -3.7805543 4.4629464 0 0 0 0 17.97686
-2.1905024 -3.7165921 4.6757722 0 0 0 0 17.981806
-2.3152974 -3.7724626 5.089963 0 0 0 0 17.986753
-2.0161092 -3.9040356 4.2715759 0 0 0 0 17.991701
-2.0578384 -3.8270764 4.4694443 0 0 0 0 17.996647
-2.0728314 -3.6971686 4.5955448 0 0 0 0 18.001595
-2.1801155 -3.7240598 4.9528799 0 0 0 0 18.006542
-1.9089537 -3.9146304 4.2482443 0 0 0 0 18.011488
-2.0254478 -3.9804666 4.6034703 0 0 0 0 18.016436
-1.992031 -3.7426498 4.5980067 0 0 0 0 18.021381
-2.0664005 -3.7066002 4.8636246 0 0 0 0 18.026329
-1.8853388 -3.919122 4.4904318 0 0 0 0 18.036224
-1.930764 -3.8280902 4.6512971 0 0 0 0 18.04117
-1.9536407 -3.684129 4.771369 0 0 0 0 18.046118
-1.8869992 -3.9514976 4.75243 0 0 0 0 18.060959
-1.878826 -3.7305696 4.770792 0 0 0 0 18.065907
-1.9710706 -4.3736806 5.209394 0 0 0 0 18.080746
-1.8976573 -3.9748344 5.023387 0 0 0 0 18.085693
-1.8762732 -4.4182434 5.2149382 0 0 0 0 18.100534
-1.8941368 -4.1951776 5.241148 0 0 0 0 18.105482
-1.8114147 -4.2486758 5.2506065 0 0 0 0 18.125269
-1.7246102 -4.295186 5.2530975 0 0 0 0 18.145058
-1.6295488 -4.3217077 5.2316642 0 0 0 0 18.164845
-1.5407264 -4.3652267 5.2341695 0 0 0 0 18.184633
-0.97494841 -4.3264666 4.4927135 0 0 0 0 18.20937
-0.89632004 -4.4540677 4.6210551 0 0 0 0 18.229156
-0.91030204 -4.4582138 4.8060174 0 0 0 0 18.253891
-0.92383081 -4.4402943 4.9340076 0 0 0 0 18.278625
-1.0411631 -4.3857741 5.048409 0 0 0 0 18.283573
-0.94082505 -4.3812914 5.0090246 0 0 0 0 18.303362
0.796206 -4.190587 4.6551514 0 0 0 0 18.274933
0.87604582 -4.1079617 4.6037278 0 0 0 0 18.29472
0.86977184 -4.0888205 4.5437956 0 0 0 0 18.363979
0.82986486 -4.1225486 4.5115576 0 0 0 0 18.388714
2.5777364 -3.8794231 5.4848127 0 0 0 0 18.38883
2.6561103 -3.8158491 5.4963446 0 0 0 0 18.408617
2.5589695 -3.9831448 5.3605986 0 0 0 0 18.413565
2.7432916 -3.764349 5.529912 0 0 0 0 18.428406
2.5962784 -3.8542209 5.2709708 0 0 0 0 18.433353
2.4455507 -3.2088041 4.8058658 0 0 0 0 18.448193
2.5781548 -3.9088671 5.0808158 0 0 0 0 18.458088
2.5157857 -3.1571977 4.8283372 0 0 0 0 18.467981
2.5925522 -4.00175 4.9378018 0 0 0 0 18.482822
2.5938687 -3.1156545 4.8678398 0 0 0 0 18.48777
2.9779723 -3.8515954 5.5501742 0 0 0 0 18.492716
2.6201615 -3.8517306 4.8141418 0 0 0 0 18.502611
2.6935976 -3.0972774 4.9474382 0 0 0 0 18.507557
3.0505464 -3.7729583 5.5406842 0 0 0 0 18.512505
2.8012319 -3.082958 5.0400753 0 0 0 0 18.527346
3.1280127 -3.7023604 5.542213 0 0 0 0 18.532291
2.9531834 -3.1129749 5.2109108 0 0 0 0 18.547134
3.210377 -3.6368041 5.5567617 0 0 0 0 18.55208
3.0805736 -3.1107991 5.3356423 0 0 0 0 18.566921
3.2937405 -3.5702529 5.5723162 0 0 0 0 18.571869
3.162658 -3.0602813 5.384172 0 0 0 0 18.58671
3.3701756 -3.4976544 5.5808372 0 0 0 0 18.591656
3.2782733 -3.0390122 5.4878559 0 0 0 0 18.606497
3.4278615 -3.4079185 5.5612717 0 0 0 0 18.611444
3.3672798 -2.9905438 5.54842 0 0 0 0 18.626286
3.2261679 -3.0732722 5.1335263 0 0 0 0 18.631233
3.6284983 -3.6570075 5.5801167 0 0 0 0 18.636179
3.4405146 -2.9259579 5.5839124 0 0 0 0 18.646072
3.3024511 -3.0116897 5.1570334 0 0 0 0 18.65102
3.7100158 -3.5774229 5.5806704 0 0 0 0 18.655968
3.4880719 -2.8421841 5.5802817 0 0 0 0 18.665861
3.4142442 -2.9813685 5.2377024 0 0 0 0 18.670809
3.4223943 -3.1581755 5.0415416 0 0 0 0 18.675755
3.5405388 -2.7624505 5.5886731 0 0 0 0 18.68565
3.5547044 -2.9702513 5.359509 0 0 0 0 18.690598
3.4277148 -3.0260632 4.9477286 0 0 0 0 18.695543
3.5880492 -2.6796834 5.5920396 0 0 0 0 18.705437
3.7287767 -2.9803736 5.530477 0 0 0 0 18.710384
3.52384 -2.9746072 4.9893317 0 0 0 0 18.715332
3.5874395 -3.1847951 4.8594422 0 0 0 0 18.720278
3.6375253 -2.5989311 5.5994139 0 0 0 0 18.725225
3.8189158 -2.9208896 5.5780535 0 0 0 0 18.730173
3.6565106 -2.9524124 5.0841041 0 0 0 0 18.735119
3.6303399 -3.0789449 4.8148084 0 0 0 0 18.740067
3.6785591 -2.511143 5.5948811 0 0 0 0 19.395435
3.9047019 -2.8523397 5.6146998 0 0 0 0 19.400381
3.8075228 -2.9333372 5.1980815 0 0 0 0 19.405329
3.7576873 -3.0396972 4.8796887 0 0 0 0 19.410275
3.7240264 -2.4283571 5.6022234 0 0 0 0 19.415222
3.958261 -2.7625823 5.6120915 0 0 0 0 19.42017
3.9610727 -2.9142423 5.3159285 0 0 0 0 19.425117
3.910337 -3.0185778 4.9805331 0 0 0 0 19.430063
3.7645302 -2.3445375 5.6035395 0 0 0 0 19.435011
4.0147662 -2.6758478 5.6164956 0 0 0 0 19.439957
4.1482887 -2.9133735 5.4789333 0 0 0 0 19.444904
3.9749503 -2.9268668 4.968986 0 0 0 0 19.449852
3.8010588 -2.2576945 5.6028376 0 0 0 0 19.4548
4.0712695 -2.5881133 5.6218996 0 0 0 0 19.459745
4.3058825 -2.8832982 5.5998101 0 0 0 0 19.464693
4.1266632 -2.8967352 5.0668321 0 0 0 0 19.469639
3.835592 -2.1708393 5.6011248 0 0 0 0 19.474586
4.1228042 -2.498348 5.6232781 0 0 0 0 19.479534
4.3912325 -2.8017378 5.6283584 0 0 0 0 19.48448
4.3190064 -2.8868706 5.21487 0 0 0 0 19.489428
3.8651552 -2.0829523 5.5943856 0 0 0 0 19.494373
4.1703582 -2.4065588 5.6226377 0 0 0 0 19.499321
4.4617405 -2.7090769 5.6378388 0 0 0 0 19.504269
4.5114145 -2.8689988 5.3589144 0 0 0 0 19.509216
3.9145007 -2.0052035 5.6187396 0 0 0 0 19.514162
4.221858 -2.3167987 5.6300149 0 0 0 0 19.51911
4.5252833 -2.6133745 5.6432853 0 0 0 0 19.524055
4.7117968 -2.8481748 5.5110025 0 0 0 0 19.529003
3.9380884 -1.9152809 5.6089706 0 0 0 0 19.533951
4.2664151 -2.2239926 5.6293583 0 0 0 0 19.538898
4.5808887 -2.5126219 5.6416936 0 0 0 0 19.543844
4.9013329 -2.8122754 5.6490474 0 0 0 0 19.548792
3.9685955 -1.8294069 5.6102328 0 0 0 0 19.553738
4.3109546 -2.1311896 5.6317005 0 0 0 0 19.558685
4.6404552 -2.4128962 5.6461215 0 0 0 0 19.563633
4.9977369 -2.7177672 5.6796627 0 0 0 0 19.568581
3.9881804 -1.739463 5.6004415 0 0 0 0 19.573526
4.3564663 -2.0383964 5.6390471 0 0 0 0 19.578474
4.6980252 -2.3121591 5.6505389 0 0 0 0 19.58342
5.0673714 -2.6070871 5.6821527 0 0 0 0 19.588367
4.0236115 -1.6566263 5.6127257 0 0 0 0 19.593315
4.3980193 -1.9435755 5.6403751 0 0 0 0 19.598261
4.7496257 -2.2083871 5.6519279 0 0 0 0 19.603209
5.1419406 -2.4994419 5.693665 0 0 0 0 19.608154
4.0530834 -1.5717515 5.6189799 0 0 0 0 19.613102
4.4355702 -1.8477346 5.6426821 0 0 0 0 19.61805
4.8071723 -2.1066542 5.661345 0 0 0 0 19.622997
5.2095661 -2.3857543 5.7001462 0 0 0 0 19.627943
4.0805545 -1.4858671 5.6262245 0 0 0 0 19.632891
4.472126 -1.7518867 5.6439838 0 0 0 0 19.637836
4.8518014 -1.9998416 5.659699 0 0 0 0 19.642784
5.2672482 -2.2690053 5.6985774 0 0 0 0 19.647732
4.1070242 -1.4009762 5.6324625 0 0 0 0 19.652679
4.5096588 -1.6560483 5.6492891 0 0 0 0 19.657625
4.8904705 -1.8899918 5.6530242 0 0 0 0 19.662573
5.328886 -2.1522853 5.7050285 0 0 0 0 19.667519
4.1255407 -1.3140359 5.6316605 0 0 0 0 19.672466
4.5402274 -1.5581677 5.6495605 0 0 0 0 19.677414
4.9400387 -1.7842149 5.6614017 0 0 0 0 19.682362
5.3785958 -2.0314915 5.7014213 0 0 0 0 19.687307
4.1430655 -1.2260892 5.6298542 0 0 0 0 19.692255
4.5777416 -1.4623317 5.6578655 0 0 0 0 19.697201
5.0104218 -1.6855762 5.6978798 0 0 0 0 19.702148
5.4223552 -1.9056609 5.6927867 0 0 0 0 19.707096
4.1635423 -1.1401653 5.6350603 0 0 0 0 19.712042
4.59936 -1.3613964 5.6510916 0 0 0 0 19.71699
5.0847783 -1.585964 5.7403793 0 0 0 0 19.721937
5.5395494 -1.8062998 5.7665076 0 0 0 0 19.726883
4.1840181 -1.0532427 5.6412678 0 0 0 0 19.731831
4.6269135 -1.2625027 5.6543469 0 0 0 0 19.736778
5.1928883 -1.494568 5.8220448 0 0 0 0 19.741724
5.744163 -1.7274885 5.9316621 0 0 0 0 19.746672
4.1975293 -0.96627581 5.6404386 0 0 0 0 19.751617
4.6554446 -1.1646172 5.6606059 0 0 0 0 19.756565
5.2851272 -1.394071 5.8876367 0 0 0 0 19.761513
5.7849135 -1.5966461 5.9290152 0 0 0 0 19.76646
4.2060761 -0.87827671 5.633584 0 0 0 0 19.771406
4.6730533 -1.0636618 5.6548104 0 0 0 0 19.776354
5.3177676 -1.2781976 5.8909326 0 0 0 0 19.7813
5.8306203 -1.4658375 5.9343929 0 0 0 0 19.786247
4.2215433 -0.79232782 5.6397634 0 0 0 0 19.791195
4.6896443 -0.96270454 5.652009 0 0 0 0 19.796143
5.3514056 -1.1603312 5.8962355 0 0 0 0 19.801088
5.8653769 -1.3319647 5.9327164 0 0 0 0 19.806036
4.2330351 -0.7053538 5.6419225 0 0 0 0 19.810982
4.7131772 -0.8627938 5.6592436 0 0 0 0 19.815929
5.3750782 -1.0424057 5.8944864 0 0 0 0 19.820877
5.8991213 -1.1980885 5.9330339 0 0 0 0 19.825823
4.239552 -0.61834872 5.6390557 0 0 0 0 19.83077
4.724781 -0.76180738 5.6534157 0 0 0 0 19.835718
5.4017239 -0.92350197 5.8987532 0 0 0 0 19.840664
5.9358277 -1.0642351 5.9403667 0 0 0 0 19.845612
4.249042 -0.53136432 5.6412044 0 0 0 0 19.850559
4.7323942 -0.6597994 5.6465688 0 0 0 0 19.855505
5.4223881 -0.80356407 5.8999901 0 0 0 0 19.860453
5.9605994 -0.92730927 5.9376407 0 0 0 0 19.865398
4.2526364 -0.44485319 5.6393275 0 0 0 0 19.571476
4.7489991 -0.55941355 5.6538219 0 0 0 0 19.576424
5.4390893 -0.6842398 5.900331 0 0 0 0 19.581371
5.9783926 -0.79103923 5.9340572 0 0 0 0 19.586317
4.2650852 -0.3588942 5.6494913 0 0 0 0 19.591265
4.7595782 -0.45743069 5.6549911 0 0 0 0 19.59621
5.4517841 -0.56325912 5.8985281 0 0 0 0 19.601158
6.0120854 -0.65517992 5.9473796 0 0 0 0 19.606106
4.267591 -0.27287111 5.648603 0 0 0 0 19.611053
4.7602038 -0.35638487 5.6461062 0 0 0 0 19.615999
5.4664664 -0.44129193 5.8997369 0 0 0 0 19.620947
6.0298505 -0.51722437 5.9486194 0 0 0 0 19.625893
4.2601647 -0.185783 5.635663 0 0 0 0 19.63084
4.7657857 -0.25437501 5.6462488 0 0 0 0 19.635788
5.4731579 -0.3202801 5.8979025 0 0 0 0 19.640736
6.0306826 -0.37816778 5.9377708 0 0 0 0 19.645681
4.2626529 -0.099763356 5.6377745 0 0 0 0 19.650629
4.7802978 -0.15342486 5.6584373 0 0 0 0 19.655575
5.4868007 -0.19931433 5.9051042 0 0 0 0 19.660522
6.0454278 -0.23920113 5.9429955 0 0 0 0 19.66547
4.2681074 -0.013765884 5.6459012 0 0 0 0 19.670416
4.7798924 -0.051380698 5.6555481 0 0 0 0 19.675364
5.4855099 -0.077258006 5.9002285 0 0 0 0 19.680309
6.0541916 -0.099200189 5.9451895 0 0 0 0 19.685257
4.2666035 0.072276562 5.6459913 0 0 0 0 19.690205
4.8142595 0.050435614 5.6958418 0 0 0 0 19.695152
5.4881806 0.04377104 5.9013729 0 0 0 0 19.700098
6.0539651 0.038851369 5.9433336 0 0 0 0 19.705046
4.2621088 0.15833656 5.6440654 0 0 0 0 19.709991
4.8118362 0.15248677 5.6959419 0 0 0 0 19.714939
5.487855 0.1658154 5.9025021 0 0 0 0 19.719887
6.0547261 0.17789437 5.9444842 0 0 0 0 19.724834
4.2556181 0.24440782 5.6411295 0 0 0 0 19.72978
4.8143797 0.25550443 5.7030687 0 0 0 0 19.734728
5.4845276 0.287875 5.9036155 0 0 0 0 19.739674
6.0534797 0.31794524 5.9476256 0 0 0 0 19.744621
4.248116 0.3304818 5.6401887 0 0 0 0 19.749569
4.8089533 0.35856965 5.704154 0 0 0 0 19.754517
5.4772091 0.40995717 5.9027085 0 0 0 0 19.759462
6.0442472 0.45804021 5.9477248 0 0 0 0 19.76441
4.240613 0.41555679 5.6382465 0 0 0 0 19.769356
4.8134575 0.46156913 5.7182913 0 0 0 0 19.774303
5.4698577 0.53103346 5.9067993 0 0 0 0 19.779251
6.0280285 0.59617621 5.9427857 0 0 0 0 19.784197
4.2350821 0.50161469 5.6423154 0 0 0 0 19.789145
4.7911019 0.56273878 5.7032862 0 0 0 0 19.794092
5.4495726 0.65219051 5.8978238 0 0 0 0 19.799038
6.0078135 0.73533225 5.9378271 0 0 0 0 19.803986
4.224576 0.58670467 5.6403575 0 0 0 0 19.808933
4.7786717 0.66484028 5.7033343 0 0 0 0 19.813879
5.4382129 0.77328563 5.9028945 0 0 0 0 19.818827
5.9825969 0.87251562 5.93084 0 0 0 0 19.823772
4.2160535 0.67377871 5.6434126 0 0 0 0 19.82872
4.7622557 0.76696527 5.7003613 0 0 0 0 19.833668
5.4188881 0.89442897 5.9009237 0 0 0 0 19.838615
5.96731 1.0116309 5.9389076 0 0 0 0 19.843561
4.2015505 0.75789088 5.6394329 0 0 0 0 19.848509
4.744823 0.86709392 5.6983809 0 0 0 0 19.853455
5.3925676 1.012612 5.8949137 0 0 0 0 19.858402
5.9360743 1.1468427 5.9328876 0 0 0 0 19.86335
4.1840572 0.84301913 5.634439 0 0 0 0 19.868298
4.7263937 0.96922624 5.6973982 0 0 0 0 19.873243
5.3751974 1.1337357 5.9009538 0 0 0 0 19.878191
5.9068151 1.2840372 5.9328809 0 0 0 0 19.883137
4.1754994 0.92908698 5.6424932 0 0 0 0 19.888084
4.703969 1.0693818 5.6933928 0 0 0 0 19.893032
5.3398838 1.2509667 5.8918962 0 0 0 0 19.897978
5.8775339 1.4202278 5.9358726 0 0 0 0 19.902925
4.1649466 1.0151659 5.6495366 0 0 0 0 19.907873
4.6516738 1.1617256 5.6562233 0 0 0 0 19.912819
5.3204899 1.372095 5.901927 0 0 0 0 19.917767
5.8342824 1.5534986 5.9297895 0 0 0 0 19.922714
4.1414599 1.0983282 5.6405106 0 0 0 0 19.92766
4.626225 1.2608922 5.6552019 0 0 0 0 19.932608
5.2781792 1.4873638 5.8898315 0 0 0 0 19.937553
5.7910142 1.6857666 5.9257059 0 0 0 0 19.942501
4.12392 1.1834464 5.643517 0 0 0 0 19.947449
4.5948014 1.3580962 5.6471472 0 0 0 0 19.952396
5.246798 1.6055585 5.8937969 0 0 0 0 19.957342
5.7447381 1.8170489 5.9216056 0 0 0 0 19.96229
4.1004162 1.2676035 5.6384921 0 0 0 0 19.967236
4.5583863 1.4543284 5.6360664 0 0 0 0 19.972183
5.205442 1.7198131 5.8887067 0 0 0 0 19.977131
5.6984401 1.9483261 5.9215059 0 0 0 0 19.982079
4.0788894 1.3517457 5.6374774 0 0 0 0 19.987024
4.5309129 1.553499 5.6390352 0 0 0 0 19.99197
5.1600952 1.8330907 5.8805952 0 0 0 0 19.996918
5.6381726 2.0736861 5.909328 0 0 0 0 20.001865
4.0573564 1.4368855 5.6384645 0 0 0 0 20.006813
4.4964547 1.6487122 5.634964 0 0 0 0 20.011761
5.1157212 1.9473556 5.8784904 0 0 0 0 20.016706
5.5888453 2.2029736 5.9122124 0 0 0 0 20.021652
4.0308332 1.5190555 5.6344223 0 0 0 0 20.0266
4.4589996 1.7439411 5.629878 0 0 0 0 20.031548
5.0783033 2.0635736 5.8864245 0 0 0 0 20.036495
5.3431559 2.2504749 5.7099929 0 0 0 0 20.041443
3.9948387 1.5989318 5.6203198 0 0 0 0 19.826809
4.4300079 1.8427273 5.6368632 0 0 0 0 19.831757
5.0164671 2.1695073 5.8712902 0 0 0 0 19.836704
5.259428 2.3595159 5.681767 0 0 0 0 19.84165
3.9742775 1.6850591 5.6283126 0 0 0 0 19.846598
4.3875585 1.9359856 5.6297474 0 0 0 0 19.851543
4.7907434 2.1989295 5.6611423 0 0 0 0 19.856491
5.2030592 2.4798386 5.6846037 0 0 0 0 19.861439
3.9417679 1.7672625 5.6222386 0 0 0 0 19.866386
4.3480768 2.03022 5.6296482 0 0 0 0 19.871332
4.7383208 2.3032346 5.6589851 0 0 0 0 19.87628
5.1446738 2.5991683 5.6894302 0 0 0 0 19.881226
3.9112313 1.8494496 5.6211758 0 0 0 0 19.886173
4.308588 2.1254518 5.6315508 0 0 0 0 19.891121
4.68888 2.4105167 5.6628475 0 0 0 0 19.896069
5.0713196 2.7105889 5.6801705 0 0 0 0 19.901014
3.8846722 1.9346083 5.6271372 0 0 0 0 19.905962
4.2690926 2.2206819 5.6344543 0 0 0 0 19.910908
4.6334443 2.5138345 5.6616745 0 0 0 0 19.915855
5.0049214 2.8249607 5.681951 0 0 0 0 19.920803
3.8451698 2.0138512 5.6160245 0 0 0 0 19.925749
4.2156334 2.3089976 5.6232777 0 0 0 0 19.930696
4.573997 2.615171 5.6604795 0 0 0 0 19.935644
4.9285383 2.9343908 5.6756754 0 0 0 0 19.94059
3.811619 2.0960498 5.6169472 0 0 0 0 19.945538
4.170126 2.4012578 5.6251473 0 0 0 0 19.950485
4.5075693 2.7125514 5.6512446 0 0 0 0 19.955431
4.8461494 3.0388546 5.6653638 0 0 0 0 19.960379
3.7740884 2.177274 5.6128483 0 0 0 0 19.965324
4.1146545 2.4875822 5.6139593 0 0 0 0 19.970272
4.4441047 2.8109064 5.6500273 0 0 0 0 19.97522
4.7727108 3.1482561 5.6691051 0 0 0 0 19.980167
3.7355511 2.2585013 5.6097445 0 0 0 0 19.985113
4.0621505 2.5768805 5.6117907 0 0 0 0 19.990061
4.3786387 2.9072728 5.6467977 0 0 0 0 19.995007
4.6793156 3.2437818 5.6507292 0 0 0 0 19.999954
3.6950028 2.337738 5.6066294 0 0 0 0 20.004902
4.0116286 2.6681623 5.6146355 0 0 0 0 20.00985
4.3101611 3.0016534 5.6435513 0 0 0 0 20.014795
4.5958657 3.3452377 5.6484113 0 0 0 0 20.019741
3.651469 2.4169924 5.6004987 0 0 0 0 20.024689
3.9521334 2.7515032 5.6044254 0 0 0 0 20.029636
4.2346888 3.0910747 5.634264 0 0 0 0 20.034584
4.5094099 3.4437101 5.6440768 0 0 0 0 20.039532
3.6118975 2.4992151 5.604393 0 0 0 0 20.044477
3.8946054 2.8368242 5.6022286 0 0 0 0 20.049423
4.1671772 3.1854415 5.6370249 0 0 0 0 20.054371
4.4199429 3.5391972 5.6387239 0 0 0 0 20.059319
3.5653515 2.5754845 5.5972443 0 0 0 0 20.064266
3.8340816 2.9211614 5.5980163 0 0 0 0 20.069214
4.0836983 3.2689064 5.6226921 0 0 0 0 20.07416
4.3224659 3.6267295 5.6273222 0 0 0 0 20.079105
3.5217829 2.6567278 5.5991178 0 0 0 0 20.084053
3.7745414 3.0054896 5.5968094 0 0 0 0 20.089001
4.0081854 3.3583164 5.6204076 0 0 0 0 20.093948
4.2319655 3.7202146 5.6259646 0 0 0 0 20.098894
3.471235 2.732017 5.5909491 0 0 0 0 20.103842
3.7080157 3.0858595 5.5885634 0 0 0 0 20.108788
3.9236734 3.4387808 5.6090679 0 0 0 0 20.113735
4.1334605 3.8067448 5.6185589 0 0 0 0 20.118683
3.4226696 2.8112874 5.5897956 0 0 0 0 20.123631
3.6504419 3.1731656 5.5963717 0 0 0 0 20.128576
3.8441286 3.5222087 5.6067586 0 0 0 0 20.133524
4.0399227 3.8942409 5.6181812 0 0 0 0 20.13847
3.3740931 2.8905549 5.5906434 0 0 0 0 20.143417
3.5779045 3.2485669 5.5850906 0 0 0 0 20.148365
3.7585938 3.6016719 5.5984144 0 0 0 0 20.153313
3.9403849 3.9777699 5.6137695 0 0 0 0 20.158258
3.3215213 2.966846 5.5874672 0 0 0 0 20.163204
3.5063508 3.3239589 5.5768156 0 0 0 0 20.168152
3.6770267 3.6831052 5.5980945 0 0 0 0 20.1731
3.8348372 4.0533338 5.6033201 0 0 0 0 20.178047
3.2649539 3.0391619 5.579267 0 0 0 0 20.182995
3.4407644 3.4043076 5.5795779 0 0 0 0 20.187941
3.5884697 3.7595797 5.5907345 0 0 0 0 20.192886
3.730273 4.1278892 5.5948753 0 0 0 0 20.197834
3.2123642 3.1174459 5.5810947 0 0 0 0 20.202782
3.3681884 3.4796979 5.5752997 0 0 0 0 20.207729
3.5008912 3.8340456 5.5853777 0 0 0 0 20.212675
3.6246877 4.2004461 5.5884247 0 0 0 0 20.217623
3.1517849 3.1887786 5.5738745 0 0 0 0 20.222569
3.2916119 3.5501127 5.5659966 0 0 0 0 20.227516
3.4112971 3.9075181 5.5820117 0 0 0 0 20.232464
3.5121028 4.2650447 5.5739303 0 0 0 0 20.237411
3.0912042 3.2611094 5.5676565 0 0 0 0 20.242357
3.2160187 3.6235147 5.5627027 0 0 0 0 20.247305
3.3186975 3.9750099 5.5736241 0 0 0 0 20.252251
3.4154682 4.3465333 5.5855379 0 0 0 0 20.257198
3.0335965 3.3374143 5.5704589 0 0 0 0 20.262146
3.1424088 3.697901 5.5634208 0 0 0 0 20.267094
3.224092 4.0415101 5.5652266 0 0 0 0 20.272039
3.3677149 4.4926829 5.6834683 0 0 0 0 20.276985
2.9700091 3.4077594 5.5632248 0 0 0 0 20.281933
3.0628042 3.7673225 5.5581045 0 0 0 0 20.28688
3.1334546 4.112977 5.5678563 0 0 0 0 20.291828
3.3119667 4.6348758 5.7763548 0 0 0 0 20.296776
2.9045727 3.4762344 5.5570202 0 0 0 0 20.403477
2.9823375 3.8348722 5.5538192 0 0 0 0 20.408424
3.0329754 4.1696386 5.5524549 0 0 0 0 20.41337
3.1904597 4.6876488 5.7598362 0 0 0 0 20.418318
2.8399601 3.5485735 5.5557871 0 0 0 0 20.423264
2.9017086 3.9012926 5.5494986 0 0 0 0 20.428211
2.9323311 4.2261643 5.5410228 0 0 0 0 20.433159
3.0757878 4.7482324 5.7573376 0 0 0 0 20.438107
2.7733369 3.6179221 5.5535412 0 0 0 0 20.443052
2.8160794 3.9627414 5.5401487 0 0 0 0 20.448
2.8586092 4.320498 5.5817699 0 0 0 0 20.452946
2.9571059 4.8018394 5.7498126 0 0 0 0 20.457893
2.7027183 3.684294 5.5472727 0 0 0 0 20.462841
2.7304296 4.0231862 5.5337982 0 0 0 0 20.467789
2.8237796 4.481544 5.7087893 0 0 0 0 20.472734
2.837409 4.8524499 5.742281 0 0 0 0 20.47768
2.6330886 3.7516565 5.5440121 0 0 0 0 20.482628
2.6397851 4.077661 5.5204177 0 0 0 0 20.487576
2.7380581 4.5669441 5.7404675 0 0 0 0 20.492523
2.719696 4.9050436 5.7397628 0 0 0 0 20.497471
2.5584583 3.8160455 5.5377235 0 0 0 0 20.502417
2.5501294 4.1321282 5.5090432 0 0 0 0 20.507362
2.6313715 4.6184902 5.7320046 0 0 0 0 20.51231
2.5949702 4.9416838 5.7241931 0 0 0 0 20.517258
2.4828277 3.8784406 5.5294285 0 0 0 0 20.522205
2.4634466 4.1955633 5.5116949 0 0 0 0 20.527151
