# .PCD v0.7 - Point Cloud Data file format
VERSION 0.7
FIELDS x y z normal_x normal_y normal_z intensity curvature
SIZE 4 4 4 4 4 4 4 4
TYPE F F F F F F F F
COUNT 1 1 1 1 1 1 1 1
WIDTH 936
HEIGHT 1
VIEWPOINT 0 0 0 1 0 0 0
POINTS 936
DATA ascii
1.1627898 3.4138789 -0.11637743 0 0 0 0 60.26886
0.71483892 2.3378713 -0.11875028 0 0 0 0 60.273804
0.83847469 2.6684406 -0.081022114 0 0 0 0 60.288651
0.69930172 2.4975219 -0.12552817 0 0 0 0 60.293594
1.1853046 3.8736067 0.017424457 0 0 0 0 60.33812
0.78134948 3.2701507 -0.10120313 0 0 0 0 60.348015
0.56047761 2.731751 -0.12938388 0 0 0 0 60.352959
0.94024658 3.8027985 -0.057120569 0 0 0 0 60.362854
0.41355017 2.2974052 -0.10024919 0 0 0 0 60.372749
0.30913746 1.9883138 -0.078856699 0 0 0 0 60.392532
0.37408787 2.2712352 -0.055309583 0 0 0 0 60.407379
0.28187466 2.1376185 -0.085672468 0 0 0 0 60.412323
0.35848048 2.5389218 -0.064936489 0 0 0 0 60.427162
0.25457472 2.358954 -0.095387623 0 0 0 0 60.432114
0.22056237 2.6051099 -0.10608114 0 0 0 0 60.451897
0.41931662 3.3179483 -0.048671797 0 0 0 0 60.461792
0.15140143 2.5011024 -0.097333603 0 0 0 0 60.471687
0.49441531 3.628149 -0.0050633228 0 0 0 0 60.476631
0.31358173 3.0568485 -0.04221607 0 0 0 0 60.481583
0.18467979 2.6290562 -0.065064535 0 0 0 0 60.486526
0.085447088 2.3191464 -0.084689029 0 0 0 0 60.491478
0.3619242 3.2172372 -0.0038706225 0 0 0 0 60.496422
0.21792968 2.7580132 -0.03479382 0 0 0 0 60.501366
0.11258513 2.4169173 -0.055474546 0 0 0 0 60.506317
0.028243557 2.1464403 -0.073014587 0 0 0 0 60.511261
0.25782809 2.8991621 -0.0024923712 0 0 0 0 60.516212
0.13935919 2.5276897 -0.030242376 0 0 0 0 60.521156
0.051590528 2.2371058 -0.047817729 0 0 0 0 60.526108
-0.020860594 2.0059769 -0.063279308 0 0 0 0 60.531052
0.172176 2.6366279 -0.0010003513 0 0 0 0 60.535995
0.073799029 2.332746 -0.025615998 0 0 0 0 60.540947
-0.0020244992 2.07951 -0.040115573 0 0 0 0 60.545891
-0.063300505 1.8777071 -0.054514017 0 0 0 0 60.550842
0.10196756 2.4295526 -0.00040041143 0 0 0 0 60.555786
0.017617935 2.1600747 -0.020940203 0 0 0 0 60.56073
-0.047397863 1.9491609 -0.035359167 0 0 0 0 60.565681
-0.1010741 1.7615753 -0.047722764 0 0 0 0 60.570625
0.04171348 2.259773 -0.00072882004 0 0 0 0 60.575577
-0.031379767 2.0166197 -0.018209524 0 0 0 0 60.580521
-0.088933855 1.8599354 -0.030537769 0 0 0 0 60.585464
-0.15107873 1.8651962 -0.050648075 0 0 0 0 60.590416
-0.015512864 2.9464366 -0.013624871 0 0 0 0 61.364159
-0.1056134 2.7447443 -0.037096459 0 0 0 0 61.369102
-0.177652 2.5065529 -0.052583735 0 0 0 0 61.374054
-0.24318551 2.3195732 -0.067983396 0 0 0 0 61.378998
-0.082351565 2.8694468 -0.014843706 0 0 0 0 61.383949
-0.16158403 2.6040375 -0.034385707 0 0 0 0 61.388893
-0.22641577 2.3930643 -0.04781897 0 0 0 0 61.393837
-0.28395438 2.2063131 -0.060202066 0 0 0 0 61.398788
-0.13917203 2.6897023 -0.01519148 0 0 0 0 61.403732
-0.21158062 2.4645038 -0.031661361 0 0 0 0 61.408684
-0.26888609 2.2697525 -0.042055815 0 0 0 0 61.413628
-0.32101145 2.1031659 -0.053398721 0 0 0 0 61.418571
-0.19063509 2.5321205 -0.014496482 0 0 0 0 61.423523
-0.25457639 2.3251724 -0.027922677 0 0 0 0 61.428467
-0.30767375 2.157553 -0.037269276 0 0 0 0 61.433418
-0.35300764 1.9981645 -0.046587914 0 0 0 0 61.438362
-0.23656383 2.3907056 -0.01376698 0 0 0 0 61.443314
-0.29429805 2.2109482 -0.02614109 0 0 0 0 61.448257
-0.34160358 2.050498 -0.033465542 0 0 0 0 61.453201
-0.39983356 1.9897747 -0.044667576 0 0 0 0 61.458153
-0.27775112 2.2584333 -0.014014792 0 0 0 0 61.463097
-0.33122396 2.1038063 -0.023343759 0 0 0 0 61.468048
-0.37655565 1.9784279 -0.030613296 0 0 0 0 61.472992
-0.45127478 2.0022562 -0.042726573 0 0 0 0 61.477936
-0.31552476 2.1462669 -0.013226611 0 0 0 0 61.482887
-0.36335129 2.0038083 -0.021526396 0 0 0 0 61.487831
-0.43031541 2.0018482 -0.030661188 0 0 0 0 61.492783
-0.50497842 2.0236742 -0.041777365 0 0 0 0 61.497726
-0.34949926 2.0412147 -0.01342052 0 0 0 0 61.502678
-0.41011393 1.9934194 -0.021609053 0 0 0 0 61.507622
-0.4816649 2.0113313 -0.030724518 0 0 0 0 61.512566
-0.55947644 2.0380635 -0.040840175 0 0 0 0 61.517517
-0.3878794 1.9840535 -0.014554031 0 0 0 0 61.522461
-0.46257663 2.0068741 -0.02366893 0 0 0 0 61.527412
-0.53630811 2.0307198 -0.030780358 0 0 0 0 61.532356
-0.6161235 2.0573881 -0.038900394 0 0 0 0 61.5373
-0.43822512 1.9935682 -0.016615273 0 0 0 0 61.542252
-0.51624787 2.027292 -0.024721267 0 0 0 0 61.547195
-0.59295124 2.0500467 -0.030840576 0 0 0 0 61.552147
-0.67144758 2.0657442 -0.036973994 0 0 0 0 61.557091
-0.49400932 2.0179284 -0.019666282 0 0 0 0 61.562035
-0.57056558 2.0356839 -0.025792655 0 0 0 0 61.566986
-0.64944768 2.0643735 -0.030907935 0 0 0 0 61.57193
-2.1040897 6.04039 -0.17811762 0 0 0 0 61.576881
-0.54855889 2.0343192 -0.02272648 0 0 0 0 61.581825
-0.62602872 2.0490432 -0.027859304 0 0 0 0 61.586777
-2.0718577 6.130332 -0.16589437 0 0 0 0 61.591721
-2.1808379 5.8219671 -0.16456573 0 0 0 0 61.596664
-0.60404968 2.0486791 -0.025791738 0 0 0 0 61.601616
-2.0478637 6.2290535 -0.16667528 0 0 0 0 61.60656
-2.1515927 5.9118271 -0.15734899 0 0 0 0 61.611511
-2.2517846 5.6107163 -0.15199195 0 0 0 0 61.616455
-0.66368496 2.0679176 -0.029858653 0 0 0 0 61.621399
-2.1259687 5.9895926 -0.16215737 0 0 0 0 61.62635
-2.2220564 5.6845889 -0.14879778 0 0 0 0 61.631294
-2.3222253 5.4164848 -0.13939284 0 0 0 0 61.636246
-2.0913746 6.0686293 -0.16994494 0 0 0 0 61.64119
-2.2037423 5.773149 -0.1586058 0 0 0 0 61.646133
-2.2912786 5.483397 -0.14120649 0 0 0 0 61.651085
-2.3868928 5.2304273 -0.12877035 0 0 0 0 61.656029
-2.1709003 5.8441358 -0.17040899 0 0 0 0 61.66098
-2.2736287 5.5609374 -0.15503222 0 0 0 0 61.665924
-2.3598752 5.2952271 -0.13459544 0 0 0 0 61.670876
-2.4435265 5.0436044 -0.11813276 0 0 0 0 61.675819
-2.2383032 5.6159959 -0.17085379 0 0 0 0 61.680763
-2.3355093 5.3489604 -0.15144224 0 0 0 0 61.685715
-2.4172909 5.1013832 -0.12796997 0 0 0 0 61.690659
-2.5036845 4.8746819 -0.10747687 0 0 0 0 61.69561
-2.3032315 5.4059339 -0.17126754 0 0 0 0 61.700554
-2.397974 5.156971 -0.14782476 0 0 0 0 61.705498
-2.4847028 4.9412546 -0.12131646 0 0 0 0 61.710449
-2.5611904 4.7178421 -0.097798198 0 0 0 0 61.715393
-2.3696249 5.211833 -0.17166156 0 0 0 0 61.720345
-2.4620512 4.9859419 -0.14518046 0 0 0 0 61.725288
-2.5313454 4.7557282 -0.11465735 0 0 0 0 61.73024
-2.6083653 4.550303 -0.089114152 0 0 0 0 61.735184
-2.4292483 5.0259347 -0.17302994 0 0 0 0 61.740128
-2.5210934 4.8140588 -0.14252742 0 0 0 0 61.745079
-2.586833 4.5989528 -0.10997504 0 0 0 0 61.750023
-2.6632726 4.4075432 -0.080410361 0 0 0 0 61.754974
-2.4881041 4.8480582 -0.17338549 0 0 0 0 61.759918
-2.5658376 4.6325936 -0.13985908 0 0 0 0 61.764862
-2.6414952 4.4482002 -0.10428262 0 0 0 0 61.769814
-2.7110879 4.2619901 -0.071696296 0 0 0 0 61.774757
-2.5431919 4.6782951 -0.17372175 0 0 0 0 61.779709
-2.624579 4.484725 -0.13717112 0 0 0 0 61.784653
-2.6870935 4.2957153 -0.099574246 0 0 0 0 61.789597
-2.7570148 4.1204939 -0.063972741 0 0 0 0 61.794548
-2.5965114 4.5165849 -0.17404296 0 0 0 0 61.799492
-2.6710794 4.3292155 -0.13546923 0 0 0 0 61.804443
-2.7265708 4.1394076 -0.093859121 0 0 0 0 61.809387
-2.8074102 3.9948699 -0.056235608 0 0 0 0 61.814339
-2.6459427 4.3589921 -0.17535044 0 0 0 0 61.819283
-2.7094002 4.167944 -0.13275915 0 0 0 0 61.824226
-2.7873087 4.0254865 -0.090126574 0 0 0 0 61.829178
-2.8474748 3.8585479 -0.049493007 0 0 0 0 61.834122
-2.6923454 4.2082009 -0.17601258 0 0 0 0 61.587158
-2.7677636 4.0478277 -0.13139759 0 0 0 0 61.592102
-2.8314507 3.8968041 -0.086744547 0 0 0 0 61.597054
-2.8867264 3.7320223 -0.042094238 0 0 0 0 61.601997
-2.7444255 4.0715485 -0.1772926 0 0 0 0 61.606949
-2.8128784 3.9123755 -0.12966165 0 0 0 0 61.611893
-2.8715999 3.7624931 -0.081996888 0 0 0 0 61.616837
-2.9366381 3.6234307 -0.036329597 0 0 0 0 61.621788
-2.7873561 3.9301622 -0.17856091 0 0 0 0 61.626732
-2.856107 3.7809784 -0.12791626 0 0 0 0 61.631683
-2.9130661 3.6391475 -0.078236327 0 0 0 0 61.636627
-2.9782844 3.5060766 -0.029560925 0 0 0 0 61.641579
-2.8304899 3.7957697 -0.17881985 0 0 0 0 61.646523
-2.9005933 3.6585476 -0.12716083 0 0 0 0 61.651466
-2.9566743 3.5207386 -0.074473426 0 0 0 0 61.656418
-2.871676 3.663435 -0.18007214 0 0 0 0 61.666313
-2.93999 3.5332632 -0.12539932 0 0 0 0 61.671257
-2.9192977 3.5459139 -0.18131658 0 0 0 0 61.686096
-0.15727805 0.16094176 0.033509251 0 0 0 0 61.695992
-0.16617376 0.15666686 0.027582157 0 0 0 0 61.765251
-0.1770394 0.15132917 0.034565441 0 0 0 0 61.775146
-0.17189103 0.14648175 0.030590052 0 0 0 0 61.789986
-0.18584444 0.14405322 0.034592025 0 0 0 0 61.81472
-0.18992996 0.14693436 0.030608606 0 0 0 0 61.829559
-0.20691374 0.14541368 0.038584553 0 0 0 0 61.839455
-0.19304371 0.1508462 0.025628753 0 0 0 0 61.844398
-0.2059122 0.14544471 0.034607615 0 0 0 0 61.854294
-0.21671762 0.13810602 0.038608816 0 0 0 0 61.879028
-0.20387712 0.14450882 0.025652338 0 0 0 0 61.88398
-0.22592038 0.14483538 0.034620263 0 0 0 0 61.893875
-3.4225025 2.1933222 0.035915803 0 0 0 0 61.898819
-0.22694565 0.1458075 0.029640419 0 0 0 0 61.908714
-3.4092138 2.1877656 -0.037045404 0 0 0 0 61.913658
-3.4559798 2.1062033 0.040741347 0 0 0 0 61.91861
-0.2003876 0.12759373 0.025690388 0 0 0 0 61.923553
-3.3895586 2.1704016 -0.11501069 0 0 0 0 61.928505
-3.4426236 2.0986521 -0.035222795 0 0 0 0 61.933449
-3.49248 2.0199945 0.044561531 0 0 0 0 61.938393
-3.3608084 2.1503148 -0.19696078 0 0 0 0 61.943344
-3.4239037 2.0792606 -0.11419319 0 0 0 0 61.948288
-3.4638574 2.003897 -0.032383118 0 0 0 0 61.953239
-3.5138037 1.9282355 0.048405275 0 0 0 0 61.958183
-3.4001729 2.0600283 -0.19915274 0 0 0 0 61.963127
-3.4501591 1.9853585 -0.11336298 0 0 0 0 61.968079
-3.4982889 1.9157505 -0.030561849 0 0 0 0 61.973022
-3.5493865 1.8450522 0.052231301 0 0 0 0 61.977974
-3.4314775 1.9679803 -0.20133059 0 0 0 0 61.982918
-3.483525 1.8952456 -0.11354251 0 0 0 0 61.987862
-3.5287182 1.8277221 -0.028732236 0 0 0 0 61.992813
-3.5757926 1.7561386 0.057067927 0 0 0 0 61.997757
-3.4566932 1.8731108 -0.20250005 0 0 0 0 62.002708
-3.5118892 1.8052809 -0.11371153 0 0 0 0 62.007652
-0.4768368 0.20227648 0.042375568 0 0 0 0 62.037338
-0.46389091 0.20569208 0.02042185 0 0 0 0 62.047226
-0.48103917 0.17927375 0.042020392 0 0 0 0 61.813126
-0.4731499 0.18453619 0.020058481 0 0 0 0 61.823021
-0.49173146 0.16894415 0.032030702 0 0 0 0 61.847755
-0.48843044 0.15801908 0.043028392 0 0 0 0 61.852699
-0.4845351 0.16316552 0.019057898 0 0 0 0 61.862595
-0.47631124 0.15641594 0.0070858328 0 0 0 0 61.877434
-0.49603122 0.14478108 0.032040793 0 0 0 0 61.887329
-0.50084966 0.13761263 0.045026895 0 0 0 0 61.892273
-0.48983583 0.13897139 0.020065816 0 0 0 0 61.902168
-0.49171993 0.13592608 0.0050778622 0 0 0 0 61.917007
-0.5074175 0.12340567 0.033039913 0 0 0 0 61.926903
-0.51526409 0.11714682 0.046020932 0 0 0 0 61.931854
-0.50524539 0.11847904 0.019057715 0 0 0 0 61.94175
-0.51112717 0.11531379 0.004061074 0 0 0 0 61.956589
-0.52482712 0.10285079 0.03302734 0 0 0 0 61.966484
-0.53870273 0.097409986 0.046996754 0 0 0 0 61.971428
-0.53570628 0.099535413 0.018019844 0 0 0 0 61.981323
-0.55160886 0.09707246 0.0010029355 0 0 0 0 61.996162
-0.55725819 0.082844533 0.032983538 0 0 0 0 62.006058
-0.57213515 0.077371478 0.047950711 0 0 0 0 62.011002
-0.56910431 0.078500167 0.016972357 0 0 0 0 62.020897
-3.8882666 0.5184741 -0.2333947 0 0 0 0 62.035736
-3.9492629 0.47543544 -0.11558224 0 0 0 0 62.040688
-0.63178855 0.065573439 0.032854166 0 0 0 0 62.045631
-3.9295244 0.4261148 -0.23659731 0 0 0 0 62.055527
-3.9695029 0.38270241 -0.11674096 0 0 0 0 62.060471
-4.0215874 0.34293333 -0.00090493605 0 0 0 0 62.065422
-4.066587 0.30037379 0.1159419 0 0 0 0 62.070366
-3.9597554 0.33308309 -0.23877783 0 0 0 0 62.075317
-4.0007668 0.29063606 -0.11692236 0 0 0 0 62.080261
-4.0498838 0.25195378 -7.857009e-05 0 0 0 0 62.085213
-4.0978866 0.20929836 0.11976159 0 0 0 0 62.090157
-3.9778979 0.23741223 -0.24093691 0 0 0 0 62.0951
-4.026969 0.19671965 -0.11709609 0 0 0 0 62.100052
-4.0801473 0.15991192 0.0017417131 0 0 0 0 62.104996
-4.1201849 0.11849377 0.12260053 0 0 0 0 62.109947
-4.0130262 0.14123069 -0.24413316 0 0 0 0 62.114891
-4.0641594 0.1024727 -0.11829401 0 0 0 0 62.119835
-4.1033173 0.0650822 0.0025726133 0 0 0 0 62.124786
-4.1564445 0.026265856 0.12640731 0 0 0 0 62.12973
-4.0441222 0.044168521 -0.24732248 0 0 0 0 62.134682
-4.0892634 0.0055852933 -0.11847047 0 0 0 0 62.139626
-4.1445079 -0.029292451 0.0043655117 0 0 0 0 62.144569
-4.1876125 -0.068811677 0.13022035 0 0 0 0 62.149521
-4.0731249 -0.05583331 -0.25051209 0 0 0 0 62.154465
-4.1243567 -0.091602966 -0.11966898 0 0 0 0 62.159416
-4.1736069 -0.1263044 0.0051798848 0 0 0 0 62.16436
-4.2218332 -0.16198038 0.13302943 0 0 0 0 62.169312
-4.1091499 -0.15504786 -0.25371581 0 0 0 0 62.174255
-4.151391 -0.19055207 -0.11985329 0 0 0 0 62.179199
-4.1977062 -0.22316833 0.0070048287 0 0 0 0 62.184151
-4.2479043 -0.25990841 0.13684842 0 0 0 0 62.189095
-4.1341157 -0.2559312 -0.25689879 0 0 0 0 62.194046
-4.1833873 -0.29065126 -0.12105022 0 0 0 0 62.19899
-4.2407308 -0.32260418 0.0077851987 0 0 0 0 62.203934
-4.2859645 -0.35819831 0.13964096 0 0 0 0 62.208885
-4.1649837 -0.35999531 -0.26009947 0 0 0 0 62.213829
-4.2252836 -0.39405236 -0.12227359 0 0 0 0 62.218781
-4.270668 -0.42464948 0.0095892446 0 0 0 0 62.223724
-4.3219628 -0.45842999 0.14343463 0 0 0 0 62.228676
-4.2057519 -0.46736148 -0.26332662 0 0 0 0 62.23362
-4.2561507 -0.49812239 -0.12347478 0 0 0 0 62.238564
-4.3045363 -0.52881449 0.010381362 0 0 0 0 62.243515
-4.3568664 -0.56163162 0.14722583 0 0 0 0 62.248459
-4.2454538 -0.57669675 -0.26755479 0 0 0 0 62.25341
-4.2898903 -0.60628265 -0.12468862 0 0 0 0 62.258354
-4.3453374 -0.63519162 0.011154963 0 0 0 0 62.263298
-4.3887372 -0.66574353 0.15102181 0 0 0 0 62.26825
-4.273221 -0.68648297 -0.27102751 0 0 0 0 62.01841
-4.3247232 -0.71426964 -0.12617245 0 0 0 0 62.023354
-4.377182 -0.74307758 0.01267896 0 0 0 0 62.028305
-4.4126825 -0.77037954 0.15356855 0 0 0 0 62.033249
-4.3147926 -0.80086827 -0.27526549 0 0 0 0 62.038193
-4.3613343 -0.8275128 -0.12639837 0 0 0 0 62.043144
-4.4128847 -0.85329497 0.013459329 0 0 0 0 62.048088
-4.3959074 -0.94169402 -0.12862176 0 0 0 0 62.062935
-4.4265952 -0.9628548 0.015287037 0 0 0 0 62.067879
-0.56010509 -0.12440972 0.053760041 0 0 0 0 62.072823
-4.4303875 -1.0588768 -0.12984979 0 0 0 0 62.082718
-0.50373852 -0.13471887 0.036911815 0 0 0 0 62.107452
-0.50174403 -0.13568535 0.052921452 0 0 0 0 62.112404
-0.4993684 -0.1445494 0.002919849 0 0 0 0 62.117348
-0.49940732 -0.14457944 0.020926557 0 0 0 0 62.122292
-0.48221332 -0.15210488 0.037985876 0 0 0 0 62.147034
-0.48718333 -0.15428008 0.052978858 0 0 0 0 62.151978
-0.46594054 -0.15857626 0.0050243009 0 0 0 0 62.156921
-0.46794623 -0.1596645 0.022025246 0 0 0 0 62.161873
-0.45377824 -0.16627783 0.038079534 0 0 0 0 62.186607
-0.45777875 -0.1674234 0.053076118 0 0 0 0 62.191551
-0.43750918 -0.17275114 0.0071180114 0 0 0 0 62.196503
-0.45138648 -0.17819808 0.023087058 0 0 0 0 62.201447
-0.43824536 -0.18383957 0.03814064 0 0 0 0 62.226181
-0.44621372 -0.18610565 0.053127058 0 0 0 0 62.231133
-0.42888188 -0.19352207 0.0071595674 0 0 0 0 62.236076
-0.43485323 -0.19572926 0.023150329 0 0 0 0 62.24102
-0.42371053 -0.20143026 0.038199577 0 0 0 0 62.265755
-0.43661594 -0.20584695 0.053172164 0 0 0 0 62.270706
-0.41728663 -0.21320346 0.008209073 0 0 0 0 62.27565
-0.42525691 -0.2154714 0.024195449 0 0 0 0 62.280602
-0.26451364 -0.13960226 0.038688187 0 0 0 0 62.305336
-0.27341038 -0.14388999 0.048669558 0 0 0 0 62.31028
-0.24742357 -0.1410629 0.020736285 0 0 0 0 62.315231
-0.26422352 -0.14859015 0.029695822 0 0 0 0 62.320175
-0.24243787 -0.14194863 0.038786955 0 0 0 0 62.34491
-0.25920725 -0.15047595 0.047744997 0 0 0 0 62.349854
-0.23125601 -0.14659041 0.021817632 0 0 0 0 62.354805
-0.2411499 -0.15090729 0.030796781 0 0 0 0 62.359749
-0.23117456 -0.15062441 0.038853046 0 0 0 0 62.384483
-0.23619215 -0.1507916 0.047848929 0 0 0 0 62.389435
-0.21708706 -0.15217732 0.022894669 0 0 0 0 62.394379
-0.22988605 -0.15958282 0.03086287 0 0 0 0 62.39933
-0.22194001 -0.15836053 0.03891623 0 0 0 0 62.424065
-0.22689675 -0.16052696 0.047909193 0 0 0 0 62.429008
-0.2097601 -0.16297215 0.022949144 0 0 0 0 62.433952
-0.21965358 -0.16728981 0.03192823 0 0 0 0 62.438904
-0.21464294 -0.16815582 0.038972128 0 0 0 0 62.463638
-0.21963002 -0.16932292 0.047966521 0 0 0 0 62.468582
-0.20052671 -0.17070834 0.024012383 0 0 0 0 62.473534
-0.21332502 -0.17811488 0.031980462 0 0 0 0 62.478477
-0.20342754 -0.1747921 0.038872756 0 0 0 0 62.382095
-0.22301278 -0.18940826 0.047815476 0 0 0 0 62.387039
-0.76658767 -0.73306888 -0.026168622 0 0 0 0 62.391991
-0.20014174 -0.18369083 0.031886965 0 0 0 0 62.396935
-0.77232343 -0.77427775 -0.028217357 0 0 0 0 62.411774
-0.78803712 -0.75585628 0.040789984 0 0 0 0 62.421669
-0.78274494 -0.73473674 0.072839983 0 0 0 0 62.42662
-0.75855994 -0.79889035 -0.027199084 0 0 0 0 62.431564
-0.77084196 -0.79231775 0.0087910648 0 0 0 0 62.436508
-0.77048671 -0.77334923 0.0408272 0 0 0 0 62.44146
-0.78854662 -0.77395171 0.073794015 0 0 0 0 62.446404
-2.686588 -2.9823647 -0.20463729 0 0 0 0 62.451355
-2.7288151 -2.9518442 -0.071676336 0 0 0 0 62.456299
-2.7902093 -2.9478986 0.04620295 0 0 0 0 62.461243
-0.76902676 -0.79038376 0.073837072 0 0 0 0 62.466194
-2.5836458 -3.0103106 -0.19843745 0 0 0 0 62.471138
-2.6578135 -3.0147746 -0.069598444 0 0 0 0 62.476089
-2.7695966 -3.064389 0.047090806 0 0 0 0 62.481033
-2.7991705 -3.0214617 0.16809776 0 0 0 0 62.485985
-2.43644 -2.9808824 -0.18805473 0 0 0 0 62.490929
-2.5414519 -3.0232961 -0.06533999 0 0 0 0 62.495872
-2.6068029 -3.0204666 0.047528926 0 0 0 0 62.500824
-2.6769795 -3.0237949 0.16537805 0 0 0 0 62.505768
-2.3347707 -2.9998534 -0.18184337 0 0 0 0 62.510719
-2.4233325 -3.0237546 -0.062065158 0 0 0 0 62.515663
-2.4751439 -3.0055025 0.048856381 0 0 0 0 62.520607
-2.535681 -2.9965243 0.16174497 0 0 0 0 62.525558
-2.2533236 -3.0444465 -0.17771442 0 0 0 0 62.530502
-2.3130896 -3.0284514 -0.057813432 0 0 0 0 62.535454
-2.3957174 -3.0491533 0.048982218 0 0 0 0 62.540398
-2.4292996 -3.0053325 0.15898199 0 0 0 0 62.545341
-2.150897 -3.055383 -0.17148873 0 0 0 0 62.550293
-2.2298207 -3.0669808 -0.05567123 0 0 0 0 62.555237
-2.3047857 -3.0764434 0.050157987 0 0 0 0 62.560188
-2.3480234 -3.04392 0.15811971 0 0 0 0 62.565132
-2.1288996 -3.1838179 -0.17261577 0 0 0 0 62.570084
-2.1705902 -3.1372564 -0.053629242 0 0 0 0 62.575027
-2.2311716 -3.1262693 0.051262129 0 0 0 0 62.579971
-2.2514527 -3.0590229 0.15532644 0 0 0 0 62.584923
-2.1028354 -3.3141272 -0.17473713 0 0 0 0 62.589867
-2.1208298 -3.2248261 -0.052634127 0 0 0 0 62.594818
-2.1881936 -3.2210512 0.052231472 0 0 0 0 62.599762
-2.2096589 -3.1478384 0.15630236 0 0 0 0 62.604706
-1.9994358 -3.3240252 -0.16750742 0 0 0 0 62.609657
-2.0680981 -3.3113022 -0.051630992 0 0 0 0 62.614601
-2.1546838 -3.3331277 0.052153789 0 0 0 0 62.619553
-2.1743684 -3.2528589 0.15723936 0 0 0 0 62.624496
-1.9739951 -3.4663556 -0.16964872 0 0 0 0 62.629448
-2.0295277 -3.4252231 -0.050700519 0 0 0 0 62.634392
-2.0704648 -3.3696153 0.053301364 0 0 0 0 62.639336
-2.1122487 -3.319036 0.15729374 0 0 0 0 62.644287
-1.9641641 -3.4993036 -0.048651181 0 0 0 0 62.654182
-2.027077 -3.4773846 0.054251518 0 0 0 0 62.659126
-2.0776448 -3.4340804 0.15921368 0 0 0 0 62.66407
-2.0095193 -3.5000675 0.15828134 0 0 0 0 62.683861
-1.7064528 -4.0546398 -0.16786483 0 0 0 0 62.728386
-1.5980694 -4.0633612 -0.16062182 0 0 0 0 62.748169
-1.4906521 -4.0731053 -0.15438217 0 0 0 0 62.76796
-1.3687558 -4.0333796 -0.14603461 0 0 0 0 62.78775
-1.2636153 -4.0341811 -0.13978551 0 0 0 0 62.807533
-1.1694487 -4.0683312 -0.13461137 0 0 0 0 62.827324
-1.309203 -4.2148714 -0.032136239 0 0 0 0 62.832268
-1.0714804 -4.098002 -0.12890692 0 0 0 0 63.320198
-1.2008208 -4.2232809 -0.028384794 0 0 0 0 63.32515
-1.2875261 -4.2081399 0.063452266 0 0 0 0 63.330093
-1.4152651 -4.3203583 0.15999815 0 0 0 0 63.335045
-0.97638863 -4.1290665 -0.12372313 0 0 0 0 63.339989
-1.0966061 -4.2260437 -0.025136605 0 0 0 0 63.344933
-1.2816834 -4.2381477 0.15444477 0 0 0 0 63.354828
-0.87954795 -4.1520677 -0.11852255 0 0 0 0 63.359779
-0.98100287 -4.1774216 -0.020781985 0 0 0 0 63.364723
-0.78339148 -4.185092 -0.11333907 0 0 0 0 63.379562
-0.87722951 -4.1661825 -0.017512046 0 0 0 0 63.384514
-0.68720204 -4.219111 -0.10815687 0 0 0 0 63.399353
-0.78200412 -4.201231 -0.014333705 0 0 0 0 63.404297
-0.89819866 -4.3290768 0.06521216 0 0 0 0 63.409248
-0.59013772 -4.2490964 -0.10296615 0 0 0 0 63.419144
-0.68605888 -4.2272472 -0.012139328 0 0 0 0 63.424088
-0.79575592 -4.3388805 0.06644626 0 0 0 0 63.429031
-0.49126211 -4.2730179 -0.097761624 0 0 0 0 63.438927
-0.58902073 -4.2562275 -0.0089469617 0 0 0 0 63.443878
-0.68520415 -4.2883921 0.065793835 0 0 0 0 63.448822
-0.39310133 -4.3059626 -0.092572697 0 0 0 0 63.458717
-0.49095038 -4.2861719 -0.0057536121 0 0 0 0 63.463661
-0.5808965 -4.2621088 0.066089727 0 0 0 0 63.468613
-0.29471827 -4.3458991 -0.087394118 0 0 0 0 63.4785
-0.39303431 -4.3111134 -0.0035524778 0 0 0 0 63.483452
-0.48372567 -4.2950773 0.067276426 0 0 0 0 63.488396
-0.59661275 -4.4318237 0.14081427 0 0 0 0 63.493347
-0.19303229 -4.3637185 -0.081172995 0 0 0 0 63.498291
-0.29577154 -4.3470778 -0.00037000066 0 0 0 0 63.503242
-0.38748753 -4.330071 0.067458056 0 0 0 0 63.508186
-0.48886725 -4.3874116 0.13814688 0 0 0 0 63.51313
-0.09158244 -4.405549 -0.076990135 0 0 0 0 63.518082
-0.19460408 -4.3799133 0.0028263435 0 0 0 0 63.523026
-0.28934601 -4.362 0.068648987 0 0 0 0 63.527977
-0.38402498 -4.346087 0.13446854 0 0 0 0 63.532921
0.012294186 -4.4292932 -0.07077302 0 0 0 0 63.537865
-0.093751401 -4.40275 0.006038045 0 0 0 0 63.542816
-0.18858188 -4.3818345 0.068865143 0 0 0 0 63.54776
-0.28447533 -4.358953 0.13169292 0 0 0 0 63.552711
0.11545924 -4.4620585 -0.065571539 0 0 0 0 63.557655
0.0076717343 -4.443573 0.0092227589 0 0 0 0 63.562607
-0.08824677 -4.4196882 0.069052026 0 0 0 0 63.567551
-0.18529393 -4.391839 0.129885 0 0 0 0 63.572495
0.21959127 -4.4937897 -0.059366021 0 0 0 0 63.577446
0.11277795 -4.4742703 0.012431967 0 0 0 0 63.58239
0.012707214 -4.4455123 0.070259593 0 0 0 0 63.587341
-0.08427041 -4.4196596 0.12808946 0 0 0 0 63.592285
0.32781985 -4.5283866 -0.05415567 0 0 0 0 63.597229
0.2155697 -4.4950314 0.015652012 0 0 0 0 63.60218
0.11810608 -4.4851975 0.070455328 0 0 0 0 63.607124
0.016881036 -4.4514737 0.1262881 0 0 0 0 63.612076
0.43685701 -4.556952 -0.047933668 0 0 0 0 63.61702
0.32296261 -4.5346518 0.018852647 0 0 0 0 63.621964
0.22102983 -4.5099506 0.071669474 0 0 0 0 63.626915
0.12100057 -4.4821887 0.12449536 0 0 0 0 63.631859
0.54936963 -4.60041 -0.041727304 0 0 0 0 63.63681
0.43326053 -4.5711737 0.022064956 0 0 0 0 63.641754
0.32698709 -4.5356021 0.071889229 0 0 0 0 63.646706
0.22406073 -4.510931 0.1217036 0 0 0 0 63.651649
0.66362906 -4.6358042 -0.035503972 0 0 0 0 63.656593
0.5432108 -4.5966969 0.02529422 0 0 0 0 63.661545
0.43767136 -4.5841122 0.07308346 0 0 0 0 63.666489
0.33030891 -4.5455723 0.11990987 0 0 0 0 63.67144
0.77770174 -4.6651945 -0.030271241 0 0 0 0 63.676384
0.65811306 -4.6520734 0.028487321 0 0 0 0 63.681328
0.54862875 -4.6095958 0.073315196 0 0 0 0 63.686279
0.43955696 -4.5801134 0.11812323 0 0 0 0 63.691223
0.89834237 -4.7123818 -0.024051845 0 0 0 0 63.696175
0.77425379 -4.683393 0.031721752 0 0 0 0 63.701118
0.66083878 -4.6430402 0.074537329 0 0 0 0 63.70607
0.55083734 -4.6155853 0.11633994 0 0 0 0 63.711014
1.0185375 -4.7455726 -0.016810898 0 0 0 0 63.715958
0.8912977 -4.7116795 0.035963323 0 0 0 0 63.720909
0.77730489 -4.6843472 0.074756727 0 0 0 0 63.725853
0.66521311 -4.6539564 0.11455923 0 0 0 0 63.730804
1.1416712 -4.7766628 -0.01055971 0 0 0 0 63.735748
1.0126635 -4.749825 0.038199142 0 0 0 0 63.740692
0.89773673 -4.724524 0.075987101 0 0 0 0 63.745644
0.7803694 -4.6852918 0.11179172 0 0 0 0 63.750587
1.2713422 -4.8245497 -0.003320338 0 0 0 0 63.755539
1.1380562 -4.7888408 0.042442914 0 0 0 0 63.760483
1.0167907 -4.7527323 0.076233737 0 0 0 0 63.765427
0.90077716 -4.7244616 0.11002381 0 0 0 0 63.770378
1.4027615 -4.8643694 0.0029361134 0 0 0 0 63.775322
1.2632297 -4.8208532 0.045697659 0 0 0 0 63.780273
1.1432863 -4.7947068 0.077475436 0 0 0 0 63.785217
1.0209656 -4.7566276 0.10726687 0 0 0 0 63.790169
1.5357412 -4.9015112 0.010868924 0 0 0 0 63.526451
1.3933905 -4.8630424 0.049618121 0 0 0 0 63.531395
1.267056 -4.8240523 0.077403806 0 0 0 0 63.536346
1.141786 -4.7870288 0.10418868 0 0 0 0 63.54129
1.6731472 -4.9411693 0.018137628 0 0 0 0 63.546242
1.5310556 -4.9106946 0.053874604 0 0 0 0 63.551186
1.3995398 -4.8658628 0.078657843 0 0 0 0 63.556129
1.2723086 -4.8298993 0.10243654 0 0 0 0 63.561081
1.8046713 -4.9529943 0.025437597 0 0 0 0 63.566025
1.6662172 -4.9424114 0.05815104 0 0 0 0 63.570976
1.5393701 -4.9184399 0.079911537 0 0 0 0 63.57592
1.4025503 -4.8637671 0.09969832 0 0 0 0 63.580864
1.7563956 -4.5002751 0.034072544 0 0 0 0 63.585815
1.8086617 -4.9828973 0.062430181 0 0 0 0 63.590759
1.6766018 -4.9520845 0.081189744 0 0 0 0 63.595711
1.5391051 -4.9074359 0.097958997 0 0 0 0 63.600655
2.1340916 -5.113595 0.04096983 0 0 0 0 63.605598
1.9410033 -4.9886799 0.06674213 0 0 0 0 63.61055
1.8189931 -4.990561 0.081472144 0 0 0 0 63.615494
1.6839134 -4.9588394 0.095226169 0 0 0 0 63.620445
1.8423553 -4.4304914 0.067432992 0 0 0 0 63.630341
1.9620978 -5.0200057 0.082770839 0 0 0 0 63.635284
1.828375 -4.9992423 0.092510343 0 0 0 0 63.640228
1.8623177 -4.2057137 0.069860674 0 0 0 0 63.650124
1.8969678 -4.5407891 0.079411909 0 0 0 0 63.655075
1.9703631 -5.0247102 0.089813076 0 0 0 0 63.660019
2.4726744 -5.2448425 0.082602307 0 0 0 0 63.669914
1.8854437 -4.2379627 0.076893464 0 0 0 0 63.674858
1.8911242 -4.5109196 0.082478113 0 0 0 0 63.67981
1.8802366 -3.9769578 0.075323299 0 0 0 0 63.694649
1.8881345 -4.2248263 0.076952629 0 0 0 0 63.699593
1.9048146 -3.0776367 0.07987909 0 0 0 0 63.744118
1.8743503 -3.344713 0.072397687 0 0 0 0 63.754013
1.9260597 -2.9578705 0.085145414 0 0 0 0 63.763908
1.8653358 -3.1538646 0.070709147 0 0 0 0 63.773804
1.8218852 -3.2332635 0.059491117 0 0 0 0 63.778748
1.9256139 -2.8167806 0.088397294 0 0 0 0 63.783691
1.8977811 -2.9156992 0.082183324 0 0 0 0 63.788643
1.8463478 -2.9643364 0.069996454 0 0 0 0 63.793587
1.8088676 -3.0425425 0.056793682 0 0 0 0 63.798538
1.9411727 -2.7071977 0.092635214 0 0 0 0 63.803482
1.8920186 -2.7647717 0.083439179 0 0 0 0 63.808426
1.8583152 -2.8358524 0.069256283 0 0 0 0 63.813377
1.7941939 -2.8628802 0.054075222 0 0 0 0 63.818321
1.9589834 -2.6055443 0.095865823 0 0 0 0 63.823273
1.9044859 -2.6522815 0.084674969 0 0 0 0 63.828217
1.8411102 -2.6712806 0.068508424 0 0 0 0 63.83316
1.7810868 -2.7011774 0.051331934 0 0 0 0 63.838112
1.9737891 -2.5039878 0.10008978 0 0 0 0 63.843056
1.9013811 -2.522279 0.08590398 0 0 0 0 63.848007
1.843199 -2.5471134 0.067739725 0 0 0 0 63.852951
1.7850193 -2.5719471 0.04857542 0 0 0 0 63.857903
1.9753118 -2.3938494 0.1032978 0 0 0 0 63.862846
1.9153175 -2.4247484 0.087119713 0 0 0 0 63.86779
1.8434112 -2.4270084 0.066960573 0 0 0 0 63.872742
1.769442 -2.4273338 0.04679982 0 0 0 0 63.877686
1.9873683 -2.3003819 0.10650315 0 0 0 0 63.882637
1.9241884 -2.3253782 0.088327229 0 0 0 0 63.887581
1.854285 -2.3275721 0.066172637 0 0 0 0 63.892525
1.7718738 -2.3141611 0.045014776 0 0 0 0 63.897476
2.0109913 -2.2245531 0.10970658 0 0 0 0 63.90242
1.937341 -2.234875 0.089530461 0 0 0 0 63.907372
1.8497463 -2.2156227 0.065370217 0 0 0 0 63.912315
1.7672746 -2.2002108 0.042215355 0 0 0 0 63.917267
2.0305488 -2.1468523 0.11290409 0 0 0 0 63.922211
1.9288623 -2.1250525 0.089716032 0 0 0 0 63.927155
1.8464242 -2.1106393 0.065559618 0 0 0 0 63.932106
1.7513834 -2.0776215 0.041404516 0 0 0 0 63.93705
2.033695 -2.05667 0.11608475 0 0 0 0 63.942001
1.9412957 -2.043576 0.090903625 0 0 0 0 63.946945
1.8453553 -2.0135863 0.064741589 0 0 0 0 63.951889
1.7492818 -1.9796028 0.040585645 0 0 0 0 63.956841
2.0431225 -1.9752905 0.1192657 0 0 0 0 63.961784
1.9414434 -1.9534886 0.092077464 0 0 0 0 63.966736
1.8423452 -1.9185979 0.064916089 0 0 0 0 63.97168
1.7400537 -1.8778093 0.038756914 0 0 0 0 63.976624
2.0557401 -1.8998097 0.12144461 0 0 0 0 63.981575
1.9364933 -1.8605629 0.093244538 0 0 0 0 63.986519
1.8291781 -1.8189316 0.064075306 0 0 0 0 63.99147
1.7341406 -1.7859149 0.036919981 0 0 0 0 63.996414
2.0491569 -1.8095984 0.12384599 0 0 0 0 64.166862
1.9464129 -1.7858485 0.094657257 0 0 0 0 64.171814
1.8422192 -1.7481376 0.064487793 0 0 0 0 64.176758
1.7286055 -1.6977285 0.036317393 0 0 0 0 64.181709
2.0670724 -1.7439497 0.1270224 0 0 0 0 64.186653
1.9489223 -1.7076882 0.094818696 0 0 0 0 64.191605
1.8334123 -1.6603386 0.063638955 0 0 0 0 64.196548
1.7260201 -1.6167345 0.035471618 0 0 0 0 64.201492
2.0737991 -1.6726571 0.12918262 0 0 0 0 64.206444
1.952587 -1.6344948 0.0959749 0 0 0 0 64.211388
1.8340473 -1.5862433 0.063789614 0 0 0 0 64.216339
1.7214994 -1.5378025 0.033618268 0 0 0 0 64.221283
2.0908065 -1.6100379 0.13235244 0 0 0 0 64.226227
1.9593767 -1.5652019 0.097132094 0 0 0 0 64.231178
1.8316183 -1.5102445 0.06293653 0 0 0 0 64.236122
1.7047527 -1.4522643 0.032747887 0 0 0 0 64.241074
2.1017497 -1.5456132 0.13551153 0 0 0 0 64.246017
1.9652287 -1.4979399 0.098284036 0 0 0 0 64.250969
1.8406315 -1.4478838 0.06308762 0 0 0 0 64.255913
1.7035451 -1.3832322 0.031886339 0 0 0 0 64.260857
2.1055341 -1.4764158 0.13766219 0 0 0 0 64.265808
1.9690809 -1.4307411 0.098431461 0 0 0 0 64.270752
1.8404198 -1.3788182 0.063228689 0 0 0 0 64.275703
1.7260054 -1.3344421 0.030046182 0 0 0 0 64.280647
2.1135077 -1.4130853 0.13981305 0 0 0 0 64.285591
1.966899 -1.3627385 0.099566564 0 0 0 0 64.290543
1.8393053 -1.3127817 0.062362909 0 0 0 0 64.295486
1.7136661 -1.2617701 0.030165423 0 0 0 0 64.300438
2.1245422 -1.3516562 0.14196803 0 0 0 0 64.305382
1.966778 -1.2966703 0.10070339 0 0 0 0 64.310326
1.8300602 -1.2430086 0.06248476 0 0 0 0 64.315277
1.7095838 -1.1968315 0.028291095 0 0 0 0 64.320221
2.1407962 -1.2970623 0.145124 0 0 0 0 64.325172
1.9698172 -1.2355003 0.10083963 0 0 0 0 64.330116
1.8321309 -1.1828734 0.062616974 0 0 0 0 64.335068
1.692306 -1.1263216 0.028395761 0 0 0 0 64.340012
2.1397021 -1.232024 0.14725739 0 0 0 0 64.344955
1.9831059 -1.1820029 0.10198702 0 0 0 0 64.349907
1.8424222 -1.1294746 0.062757194 0 0 0 0 64.354851
1.6996324 -1.074021 0.027527269 0 0 0 0 64.359802
2.1529224 -1.1765255 0.14940822 0 0 0 0 64.364746
1.9842038 -1.1228981 0.10311574 0 0 0 0 64.36969
1.836462 -1.068598 0.061872486 0 0 0 0 64.374641
1.6937357 -1.0151464 0.026639294 0 0 0 0 64.379585
2.1570153 -1.1173211 0.1515443 0 0 0 0 64.384537
1.9873307 -1.0647277 0.10424776 0 0 0 0 64.389481
1.8386878 -1.01346 0.061997321 0 0 0 0 64.394424
1.6909002 -0.95817333 0.025755379 0 0 0 0 64.399376
2.1651685 -1.0599854 0.15368682 0 0 0 0 64.40432
1.9844279 -1.0057513 0.10436738 0 0 0 0 64.409271
1.8399119 -0.95835435 0.062119953 0 0 0 0 64.414215
1.6881924 -0.90519834 0.02486534 0 0 0 0 64.419167
2.1774778 -1.0075182 0.1568311 0 0 0 0 64.42411
1.9856485 -0.95064414 0.10549027 0 0 0 0 64.429054
1.8269782 -0.89870733 0.062217586 0 0 0 0 64.434006
1.6804197 -0.85038739 0.023966765 0 0 0 0 64.43895
2.1856914 -0.95218062 0.15897082 0 0 0 0 64.443901
1.9929614 -0.89833999 0.10662275 0 0 0 0 64.448845
1.8282952 -0.84660035 0.062335763 0 0 0 0 64.453789
1.6838323 -0.8012166 0.024084823 0 0 0 0 64.45874
2.1899049 -0.89697313 0.16110127 0 0 0 0 64.463684
2.0003047 -0.84703493 0.1077538 0 0 0 0 64.468636
1.8195199 -0.79181933 0.061435215 0 0 0 0 64.473579
1.6771851 -0.75037134 0.023182577 0 0 0 0 64.478531
2.1941509 -0.84276336 0.16223028 0 0 0 0 64.483475
1.9985876 -0.79402268 0.1078669 0 0 0 0 64.488419
1.8229619 -0.74364507 0.061552096 0 0 0 0 64.49337
1.6715353 -0.69949371 0.022282774 0 0 0 0 64.498314
2.2085154 -0.7922281 0.16537677 0 0 0 0 64.503265
2.0009291 -0.74288046 0.10898644 0 0 0 0 64.508209
1.8213719 -0.69463438 0.061658859 0 0 0 0 64.513153
1.6771363 -0.65625441 0.022396499 0 0 0 0 64.518105
2.2208807 -0.7417559 0.16751869 0 0 0 0 64.523048
2.013361 -0.69440985 0.110125 0 0 0 0 64.528
1.8197472 -0.64462429 0.06176731 0 0 0 0 64.532944
1.6746114 -0.60927683 0.021497719 0 0 0 0 64.537888
2.2281816 -0.6894477 0.1696521 0 0 0 0 64.542839
2.00161 -0.64072484 0.11021642 0 0 0 0 64.547783
1.8212168 -0.59751463 0.061878253 0 0 0 0 64.552734
1.6771801 -0.56513417 0.020606158 0 0 0 0 64.557678
2.2274189 -0.6354019 0.17176989 0 0 0 0 64.56263
2.0019789 -0.59064728 0.11133002 0 0 0 0 64.567574
1.8207182 -0.5514698 0.061983004 0 0 0 0 64.572517
1.6635567 -0.51551986 0.020686299 0 0 0 0 64.577469
2.2347479 -0.58409268 0.173902 0 0 0 0 64.582413
2.0084405 -0.54337174 0.11245324 0 0 0 0 64.587364
1.8141553 -0.50362253 0.062076822 0 0 0 0 64.592308
1.6611568 -0.47254062 0.01978153 0 0 0 0 64.597252
2.2481673 -0.53558677 0.17704372 0 0 0 0 64.602203
2.0169315 -0.49702984 0.11357972 0 0 0 0 64.607147
1.8207146 -0.45934743 0.062195212 0 0 0 0 64.612099
1.6627507 -0.429432 0.019886332 0 0 0 0 64.617043
2.2333446 -0.47999722 0.17713191 0 0 0 0 64.621986
2.0122993 -0.44711417 0.11368186 0 0 0 0 64.626938
1.8222746 -0.41523603 0.06230187 0 0 0 0 64.631882
1.6644106 -0.3883206 0.018988093 0 0 0 0 64.636833
2.2617667 -0.43364146 0.18087366 0 0 0 0 64.365784
2.0278053 -0.40311664 0.1153938 0 0 0 0 64.370728
1.8207693 -0.37073675 0.06197872 0 0 0 0 64.375679
1.6549484 -0.34503815 0.018647274 0 0 0 0 64.380623
2.2621081 -0.38255906 0.18198892 0 0 0 0 64.385574
2.0222166 -0.3542316 0.11549154 0 0 0 0 64.390518
1.8203397 -0.32669076 0.062080134 0 0 0 0 64.395462
1.6606473 -0.3047967 0.017756356 0 0 0 0 64.400414
2.2745016 -0.33308843 0.18512934 0 0 0 0 64.405357
2.0257163 -0.30805391 0.11660585 0 0 0 0 64.410309
1.8189088 -0.28267735 0.062179308 0 0 0 0 64.415253
1.6502205 -0.26107961 0.017834149 0 0 0 0 64.420197
2.2838645 -0.2827138 0.18726447 0 0 0 0 64.425148
2.0271826 -0.26094177 0.11771712 0 0 0 0 64.430092
1.8164765 -0.23869655 0.062276229 0 0 0 0 64.435043
1.644887 -0.2201985 0.017919105 0 0 0 0 64.439987
2.2942243 -0.23230621 0.18940209 0 0 0 0 64.444939
2.0196214 -0.2131217 0.1178089 0 0 0 0 64.449883
1.81907 -0.19555403 0.063383438 0 0 0 0 64.454826
1.6646711 -0.1824989 0.017056763 0 0 0 0 64.459778
2.297586 -0.18212643 0.19152334 0 0 0 0 64.464722
2.0311413 -0.16768412 0.11994082 0 0 0 0 64.469673
1.824695 -0.15331136 0.063496277 0 0 0 0 64.474617
1.6683642 -0.14232199 0.016161548 0 0 0 0 64.479561
2.3029444 -0.13188124 0.19364947 0 0 0 0 64.484512
2.0236087 -0.12086378 0.12003123 0 0 0 0 64.489456
1.816293 -0.11052588 0.063577794 0 0 0 0 64.494408
1.6549971 -0.10070246 0.01622949 0 0 0 0 64.499352
2.3022711 -0.08083225 0.19576313 0 0 0 0 64.504295
2.0231009 -0.074816301 0.12113668 0 0 0 0 64.509247
1.8178837 -0.067414209 0.063682958 0 0 0 0 64.514191
1.6697112 -0.061167423 0.016358856 0 0 0 0 64.519142
2.3155861 -0.029327597 0.19890994 0 0 0 0 64.524086
2.0315859 -0.028474817 0.12226348 0 0 0 0 64.529037
1.8245028 -0.025138542 0.06379848 0 0 0 0 64.533981
1.653375 -0.020645967 0.016418289 0 0 0 0 64.538925
2.3279016 0.02214657 0.20105457 0 0 0 0 64.543877
2.0280757 0.0174747 0.12336204 0 0 0 0 64.54882
1.8320845 0.01816793 0.064918041 0 0 0 0 64.553772
1.6640903 0.018760506 0.015538437 0 0 0 0 64.558716
2.3362148 0.073488757 0.2041899 0 0 0 0 64.56366
2.045552 0.064111069 0.12451036 0 0 0 0 64.568611
1.8247074 0.0599861 0.065000698 0 0 0 0 64.573555
1.6558117 0.057544027 0.015613784 0 0 0 0 64.578506
2.3485258 0.12496388 0.20633483 0 0 0 0 64.58345
2.0490339 0.11028989 0.12562573 0 0 0 0 64.588402
1.8312882 0.1032618 0.065118127 0 0 0 0 64.593346
1.666491 0.097950459 0.014735711 0 0 0 0 64.598289
2.3498406 0.17607926 0.20845388 0 0 0 0 64.603241
2.0445182 0.15620679 0.12672228 0 0 0 0 64.608185
1.8278728 0.14621016 0.065212011 0 0 0 0 64.613136
1.6521796 0.13753654 0.014798588 0 0 0 0 64.61808
2.3640456 0.23061745 0.21160856 0 0 0 0 64.623024
2.0509622 0.20348354 0.12784654 0 0 0 0 64.627975
1.8294504 0.18932064 0.066317804 0 0 0 0 64.632919
1.6638197 0.17897397 0.014924682 0 0 0 0 64.637871
2.3652904 0.28373212 0.21373104 0 0 0 0 64.642815
2.0593348 0.25282338 0.12997881 0 0 0 0 64.647758
1.8250316 0.232236 0.066409506 0 0 0 0 64.65271
1.6624651 0.21998535 0.015020079 0 0 0 0 64.657654
2.3675325 0.33687967 0.21585602 0 0 0 0 64.662605
2.0597775 0.29990378 0.13108911 0 0 0 0 64.667549
1.8216106 0.27518401 0.066503666 0 0 0 0 64.672501
1.6631099 0.26106402 0.01412033 0 0 0 0 64.677444
2.3757339 0.39122212 0.21899691 0 0 0 0 64.682388
2.0651503 0.34914735 0.13221455 0 0 0 0 64.68734
1.8321121 0.32058901 0.067634277 0 0 0 0 64.692284
1.6607523 0.30204248 0.014213553 0 0 0 0 64.697235
2.3928294 0.44885898 0.22216408 0 0 0 0 64.702179
2.0635571 0.39716157 0.13332191 0 0 0 0 64.707123
1.8376167 0.36583173 0.067753166 0 0 0 0 64.712074
1.656427 0.34195563 0.014300523 0 0 0 0 64.717018
2.4009602 0.50520122 0.22530848 0 0 0 0 64.72197
2.0708914 0.44747066 0.13445392 0 0 0 0 64.726913
1.8311564 0.40967891 0.068842076 0 0 0 0 64.731865
1.6530665 0.38290098 0.014391542 0 0 0 0 64.736809
2.4140203 0.56370717 0.22846806 0 0 0 0 64.741753
2.0761893 0.49871203 0.1365829 0 0 0 0 64.746704
1.8336259 0.45582259 0.06895563 0 0 0 0 64.751648
1.646706 0.42374745 0.014475512 0 0 0 0 64.756599
2.4151196 0.62082088 0.2305977 0 0 0 0 64.761543
2.0903816 0.55324829 0.13873816 0 0 0 0 64.766487
1.8301274 0.50076765 0.070053443 0 0 0 0 64.771439
1.6502393 0.46792135 0.01458809 0 0 0 0 64.776382
2.4290729 0.68235737 0.23476477 0 0 0 0 64.781334
2.0886812 0.60426134 0.13985075 0 0 0 0 64.786278
1.8325601 0.54791087 0.070168793 0 0 0 0 64.791222
1.6428758 0.50873446 0.01466985 0 0 0 0 64.796173
2.4419932 0.74486256 0.23793118 0 0 0 0 64.801117
2.1008372 0.65973198 0.14200316 0 0 0 0 64.806068
1.8389202 0.59718329 0.071296968 0 0 0 0 64.811012
1.6374434 0.5516122 0.014759616 0 0 0 0 64.815964
2.4558754 0.80839914 0.24210177 0 0 0 0 64.820908
2.1040306 0.71390849 0.14313267 0 0 0 0 64.825851
1.8422493 0.64735818 0.071419716 0 0 0 0 64.830803
1.6399412 0.59675425 0.013871702 0 0 0 0 64.835747
2.4640462 0.8741743 0.2461789 0 0 0 0 65.392616
2.1204295 0.77474439 0.14620267 0 0 0 0 65.39756
1.8440388 0.69753921 0.07342349 0 0 0 0 65.402512
1.6310079 0.63944894 0.014826941 0 0 0 0 65.407455
2.4827478 0.94188577 0.25037116 0 0 0 0 65.412407
2.1274471 0.83305383 0.1483506 0 0 0 0 65.417351
1.854193 0.75194764 0.074571744 0 0 0 0 65.422295
1.634405 0.68662328 0.014946497 0 0 0 0 65.427246
2.502311 1.0136293 0.25457248 0 0 0 0 65.43219
2.1364272 0.89243025 0.15050516 0 0 0 0 65.437141
1.8594151 0.80418956 0.075704761 0 0 0 0 65.442085
1.6358012 0.73373044 0.015061309 0 0 0 0 65.447037
2.5050519 1.0798062 0.25772464 0 0 0 0 65.451981
2.1501977 0.95797026 0.15368176 0 0 0 0 65.456924
1.8596064 0.85726434 0.075827383 0 0 0 0 65.461876
1.637128 0.78283656 0.015179463 0 0 0 0 65.46682
2.5126858 1.1491498 0.26089397 0 0 0 0 65.471771
2.150214 1.0160466 0.15481314 0 0 0 0 65.476715
1.8627241 0.91243738 0.076960653 0 0 0 0 65.481659
1.6433488 0.83510947 0.015314789 0 0 0 0 65.48661
2.5477879 1.2344238 0.26715598 0 0 0 0 65.491554
2.1619489 1.0825212 0.15698685 0 0 0 0 65.496506
1.8726666 0.97284377 0.078119241 0 0 0 0 65.50145
1.6416731 0.88411456 0.01542588 0 0 0 0 65.506393
2.5572436 1.3088315 0.27133873 0 0 0 0 65.511345
2.1657166 1.1477253 0.16013962 0 0 0 0 65.516289
1.8796422 1.0321499 0.079269066 0 0 0 0 65.52124
1.6477883 0.93938619 0.015566343 0 0 0 0 65.526184
2.5715218 1.3884037 0.27654201 0 0 0 0 65.531136
2.1773448 1.2171991 0.16231859 0 0 0 0 65.536079
1.8786536 1.0901868 0.080397896 0 0 0 0 65.541023
1.6450075 0.99135596 0.015680119 0 0 0 0 65.545975
2.5974524 1.478376 0.281791 0 0 0 0 65.550919
2.1800086 1.2853699 0.16447416 0 0 0 0 65.55587
1.8864546 1.1545243 0.081558593 0 0 0 0 65.560814
1.652948 1.0516925 0.01583386 0 0 0 0 65.565758
2.5948396 1.5543804 0.28494835 0 0 0 0 65.570709
2.1953897 1.3619739 0.16767463 0 0 0 0 65.575653
1.8872908 1.2176261 0.082700744 0 0 0 0 65.580605
1.656922 1.1108949 0.015976379 0 0 0 0 65.585548
2.6225538 1.6504151 0.29221255 0 0 0 0 65.5905
2.2037711 1.4383419 0.17085825 0 0 0 0 65.595444
1.8988788 1.2880942 0.084881298 0 0 0 0 65.600388
1.6490694 1.1646942 0.016081573 0 0 0 0 65.605339
2.6393428 1.7440833 0.29744688 0 0 0 0 65.610283
2.2198741 1.5229762 0.17407465 0 0 0 0 65.615234
1.8986423 1.3531613 0.086024582 0 0 0 0 65.620178
1.6577988 1.2310619 0.01624799 0 0 0 0 65.625122
2.6716397 1.8522825 0.30474341 0 0 0 0 65.630074
2.2310102 1.6064425 0.17727742 0 0 0 0 65.635017
1.9021636 1.4253598 0.087189212 0 0 0 0 65.639969
1.657632 1.2941267 0.016387681 0 0 0 0 65.644913
2.6901455 1.9540139 0.31099626 0 0 0 0 65.649857
2.2508304 1.6992073 0.18151714 0 0 0 0 65.654808
1.9105411 1.5017239 0.089372776 0 0 0 0 65.659752
1.6583602 1.3602239 0.016534863 0 0 0 0 65.664703
2.7201974 2.0691438 0.31830004 0 0 0 0 65.669647
2.2519648 1.7823356 0.18469591 0 0 0 0 65.674599
1.9187821 1.5820878 0.090563089 0 0 0 0 65.679543
1.6424662 1.414749 0.017622564 0 0 0 0 65.684486
2.741317 2.1819706 0.32557881 0 0 0 0 65.689438
2.2705064 1.8830632 0.18894675 0 0 0 0 65.694382
1.9190898 1.6601799 0.092730731 0 0 0 0 65.699333
1.6537416 1.4942117 0.017818233 0 0 0 0 65.704277
2.2898734 1.9888226 0.19320852 0 0 0 0 65.714172
1.9261184 1.746505 0.094928794 0 0 0 0 65.719116
1.660948 1.5755376 0.018007573 0 0 0 0 65.724068
3.1734962 2.7660103 0.38168785 0 0 0 0 65.729012
2.3042047 2.0954125 0.19745992 0 0 0 0 65.733955
1.9330075 1.8368282 0.097133629 0 0 0 0 65.738907
1.6631855 1.6556928 0.019183194 0 0 0 0 65.743851
3.0955091 2.8214626 0.37963229 0 0 0 0 65.748802
2.3221869 2.2121313 0.20273784 0 0 0 0 65.753746
1.9523412 1.9435843 0.09939681 0 0 0 0 65.758698
1.6643205 1.7388144 0.019361481 0 0 0 0 65.763641
3.0350287 2.8915124 0.37964377 0 0 0 0 65.768585
2.3448892 2.3370163 0.20804146 0 0 0 0 65.773537
1.9559519 2.0418017 0.10160787 0 0 0 0 65.778481
1.6643821 1.8238989 0.020540781 0 0 0 0 65.783432
3.0073588 2.9966898 0.38379446 0 0 0 0 65.788376
2.3431475 2.4450624 0.21225774 0 0 0 0 65.79332
1.9652802 2.148217 0.10484704 0 0 0 0 65.798271
1.6719612 1.9232492 0.020762898 0 0 0 0 65.803215
2.9979873 3.1224978 0.3900249 0 0 0 0 65.808167
2.3779075 2.5973721 0.21963827 0 0 0 0 65.81311
1.9733322 2.262594 0.10809714 0 0 0 0 65.818062
1.6697781 2.0152619 0.021949179 0 0 0 0 65.823006
2.9632807 3.2284355 0.3931604 0 0 0 0 65.82795
2.4172153 2.7628462 0.22705291 0 0 0 0 65.832901
1.9860353 2.387136 0.11137624 0 0 0 0 65.837845
1.6731102 2.1214705 0.023173425 0 0 0 0 65.842796
2.9140575 3.3198707 0.39523613 0 0 0 0 65.84774
2.8357704 3.394474 0.26518497 0 0 0 0 65.852684
1.9936339 2.5145061 0.1146483 0 0 0 0 65.857635
1.6877853 2.2470794 0.023458706 0 0 0 0 65.862579
2.8417757 3.3856475 0.3936958 0 0 0 0 65.587326
2.745126 3.4416382 0.26356933 0 0 0 0 65.59227
1.999036 2.6431992 0.11743169 0 0 0 0 65.597221
1.6809003 2.3524334 0.024183087 0 0 0 0 65.602165
2.7761266 3.4605286 0.39470351 0 0 0 0 65.607117
2.6639607 3.5019858 0.26351503 0 0 0 0 65.612061
2.0300884 2.8173857 0.12183816 0 0 0 0 65.617004
1.6845053 2.4806631 0.025444586 0 0 0 0 65.621956
2.7008233 3.5250776 0.39367047 0 0 0 0 65.6269
2.6497586 3.6526382 0.2697753 0 0 0 0 65.631851
2.0339963 2.9656398 0.12613586 0 0 0 0 65.636795
1.6897311 2.6199539 0.026729206 0 0 0 0 65.641739
2.6398263 3.6101165 0.39470664 0 0 0 0 65.64669
2.6323488 3.8091853 0.27603829 0 0 0 0 65.651634
2.5720091 3.9444318 0.15413429 0 0 0 0 65.656586
1.6841583 2.7528741 0.02897745 0 0 0 0 65.66153
2.5882728 3.7114789 0.39779341 0 0 0 0 65.666473
2.6023147 3.9542992 0.28125182 0 0 0 0 65.671425
2.5130448 4.057548 0.15722381 0 0 0 0 65.676369
1.7009068 2.9355812 0.030364785 0 0 0 0 65.68132
2.5413389 3.8240027 0.40091053 0 0 0 0 65.686264
2.5404861 4.0633159 0.28432757 0 0 0 0 65.691216
2.4642529 4.1950197 0.16137958 0 0 0 0 65.696159
2.4922974 3.9394529 0.40502772 0 0 0 0 65.706055
2.4795499 4.1753621 0.28741071 0 0 0 0 65.710999
2.4303231 4.3660116 0.1666287 0 0 0 0 65.71595
2.4487357 4.0700941 0.41018423 0 0 0 0 65.725838
2.4080937 4.2730422 0.28944406 0 0 0 0 65.730789
2.35918 4.4837112 0.16969736 0 0 0 0 65.735733
2.4020681 4.2036304 0.41533855 0 0 0 0 65.745628
2.3682902 4.4398265 0.29667214 0 0 0 0 65.75058
2.3591149 4.7468991 0.17818674 0 0 0 0 65.755524
2.3495028 4.3339639 0.41947332 0 0 0 0 65.765419
2.3816597 4.7194743 0.30922231 0 0 0 0 65.770363
2.3328388 4.9861841 0.18557273 0 0 0 0 65.775314
2.3465233 5.4461622 0.04340579 0 0 0 0 65.780258
2.2913327 4.8125033 0.31120288 0 0 0 0 65.790154
2.3459811 5.3308649 0.19623534 0 0 0 0 65.795097
2.3527575 4.8474245 0.45043927 0 0 0 0 65.804993
2.2826271 5.0933995 0.3237032 0 0 0 0 65.809937
2.3457415 5.6860981 0.20688486 0 0 0 0 65.814888
2.2772198 4.9759722 0.45351672 0 0 0 0 65.824783
2.2647786 5.3779874 0.33618858 0 0 0 0 65.829727
2.379025 6.172543 0.22184208 0 0 0 0 65.834679
4.6607599 10.8029 0.91833931 0 0 0 0 65.844566
2.2779284 5.7796888 0.35495114 0 0 0 0 65.849518
2.4734933 6.8881989 0.24334323 0 0 0 0 65.854462
4.374208 10.808254 0.90570682 0 0 0 0 65.864357
2.322659 6.310534 0.38001376 0 0 0 0 65.869301
2.6997824 8.107625 0.28103364 0 0 0 0 65.874252
4.122304 10.882812 0.89727646 0 0 0 0 65.884148
2.4313815 7.1046953 0.41968679 0 0 0 0 65.889091
3.8757734 10.975551 0.89088994 0 0 0 0 65.903931
2.7296805 8.613698 0.49505481 0 0 0 0 65.908882
3.2133083 9.8074846 0.78931898 0 0 0 0 65.923721
4.5956368 15.726096 0.85990191 0 0 0 0 65.928665
0.84461486 3.837244 0.071303979 0 0 0 0 65.93856
4.7459331 15.65769 1.2151883 0 0 0 0 65.943512
4.2315068 15.830812 0.85925829 0 0 0 0 65.948456
4.3894744 15.772685 1.2065808 0 0 0 0 65.963295
3.8663697 15.935478 0.85961133 0 0 0 0 65.968246
4.0201521 15.825194 1.1938331 0 0 0 0 65.983086
0.58074814 3.9663186 0.083992206 0 0 0 0 65.997925
3.5339823 15.377452 1.1449344 0 0 0 0 66.002876
0.42738628 3.504806 0.082854331 0 0 0 0 66.017715
3.1873052 15.46972 1.1363078 0 0 0 0 66.022659
2.840764 15.586992 1.1287242 0 0 0 0 66.04245
0.56031746 5.0410872 0.20590346 0 0 0 0 66.052345
1.8700345 11.822986 0.85688138 0 0 0 0 66.498947
1.5070803 12.28799 0.6548214 0 0 0 0 66.503899
0.39154977 4.49823 0.19034123 0 0 0 0 66.508842
0.19189718 3.8010139 0.098628156 0 0 0 0 66.513794
1.6479771 12.214514 0.8720727 0 0 0 0 66.518738
1.2236267 12.317179 0.65422195 0 0 0 0 66.523682
0.2583645 4.0683608 0.17828888 0 0 0 0 66.528633
0.093906559 3.5094304 0.097905315 0 0 0 0 66.533577
1.3451401 12.054947 0.85009181 0 0 0 0 66.538528
1.2452443 16.326077 0.84840596 0 0 0 0 66.543472
0.14718091 3.7253015 0.16844264 0 0 0 0 66.548424
0.010942818 3.2463832 0.097268887 0 0 0 0 66.553368
1.0538796 11.907775 0.83016008 0 0 0 0 66.558311
0.86279672 16.29377 0.84345806 0 0 0 0 66.563263
0.054881651 3.4149134 0.15969947 0 0 0 0 66.568207
-0.062341478 3.021693 0.096723251 0 0 0 0 66.573158
1.074828 16.355774 1.1101276 0 0 0 0 66.578102
0.45297116 15.185923 0.78753787 0 0 0 0 66.583046
-0.068370715 12.883844 0.48519039 0 0 0 0 66.587997
-0.12398732 2.8364272 0.097275294 0 0 0 0 66.592941
0.65595794 15.422746 1.0364935 0 0 0 0 66.597893
0.087665811 13.551331 0.70579052 0 0 0 0 66.602837
-0.34464112 11.963688 0.4599238 0 0 0 0 66.60778
-0.17806855 2.6354148 0.096817449 0 0 0 0 66.612732
0.27054152 14.050638 0.93716037 0 0 0 0 66.617676
-0.210013 12.615453 0.65844315 0 0 0 0 66.622627
-0.58330339 11.227935 0.44007373 0 0 0 0 66.627571
-0.89486992 10.076661 0.2522743 0 0 0 0 66.632523
-0.048842441 13.307136 0.88010019 0 0 0 0 66.637466
-0.47002736 11.747911 0.61530668 0 0 0 0 66.64241
-0.79338807 10.534194 0.42136616 0 0 0 0 66.647362
-1.0773928 9.5669537 0.25395912 0 0 0 0 66.652306
-0.32889384 12.327872 0.80871594 0 0 0 0 66.657257
-0.69506204 10.996643 0.57745993 0 0 0 0 66.662201
-0.98660952 9.9881144 0.40795997 0 0 0 0 66.667145
-1.2375704 9.0770321 0.2547324 0 0 0 0 66.672096
-0.57173353 11.514976 0.75071579 0 0 0 0 66.67704
-0.89470083 10.349306 0.54585803 0 0 0 0 66.681992
-1.1557151 9.439868 0.39360759 0 0 0 0 66.686935
-1.3809605 8.622714 0.25460872 0 0 0 0 66.691887
-0.78836894 10.783027 0.69792145 0 0 0 0 66.696831
-1.0809586 9.8344994 0.52052253 0 0 0 0 66.701775
