# .PCD v0.7 - Point Cloud Data file format
VERSION 0.7
FIELDS x y z normal_x normal_y normal_z intensity curvature
SIZE 4 4 4 4 4 4 4 4
TYPE F F F F F F F F
COUNT 1 1 1 1 1 1 1 1
WIDTH 979
HEIGHT 1
VIEWPOINT 0 0 0 1 0 0 0
POINTS 979
DATA ascii
1.9964932 6.9879999 5.7090893 0 0 0 0 71.640099
1.8732194 7.3428149 5.7187996 0 0 0 0 71.645042
1.7213669 7.6594753 5.7178998 0 0 0 0 71.649986
1.5411588 7.9372678 5.6783834 0 0 0 0 71.654938
1.8490968 7.0317016 5.7044744 0 0 0 0 71.659882
1.7089719 7.3723946 5.7109122 0 0 0 0 71.664833
1.53944 7.6619973 5.6996007 0 0 0 0 71.669777
1.3508669 7.9594698 5.6842241 0 0 0 0 71.674728
1.7017089 7.0744014 5.6998487 0 0 0 0 71.679672
1.5457345 7.3999724 5.704011 0 0 0 0 71.684616
1.3622108 7.6833873 5.6985302 0 0 0 0 71.689568
1.1550965 7.9428453 5.6676216 0 0 0 0 71.694511
1.5524496 7.1071343 5.690105 0 0 0 0 71.699463
1.3795836 7.4205523 5.6940145 0 0 0 0 71.704407
1.1831605 7.6918402 5.689312 0 0 0 0 71.709351
0.96320021 7.9341822 5.6581297 0 0 0 0 71.714302
1.4030153 7.1497521 5.691462 0 0 0 0 71.719246
1.2153091 7.4470563 5.6930933 0 0 0 0 71.724197
1.0050385 7.702229 5.687119 0 0 0 0 71.729141
0.77211231 7.9364018 5.6607547 0 0 0 0 71.734085
1.2553449 7.2072515 5.7059855 0 0 0 0 71.739037
1.0473415 7.4516683 5.6779165 0 0 0 0 71.74398
0.82599527 7.7056284 5.6828465 0 0 0 0 71.748932
0.58051205 7.9028301 5.642005 0 0 0 0 71.753876
1.0975894 7.2031283 5.6737943 0 0 0 0 71.758827
0.87950301 7.446331 5.6576366 0 0 0 0 71.763771
0.64821643 7.6901598 5.6663876 0 0 0 0 71.768715
0.3916761 7.8841486 5.6364288 0 0 0 0 71.773666
0.94980234 7.266542 5.6963773 0 0 0 0 71.77861
0.71702856 7.4837136 5.6698389 0 0 0 0 71.783562
0.46950006 7.6686916 5.6488576 0 0 0 0 71.788506
0.20405476 7.8495688 5.621696 0 0 0 0 71.793449
0.79106957 7.2573771 5.6671243 0 0 0 0 71.798401
0.55097359 7.4902468 5.6636939 0 0 0 0 71.803345
0.29444581 7.6690707 5.649581 0 0 0 0 71.808296
0.021418741 7.057436 5.0711622 0 0 0 0 71.81324
0.63855708 7.2998581 5.6784534 0 0 0 0 71.818184
0.38477689 7.5046849 5.6666284 0 0 0 0 71.823135
0.11076022 6.894063 5.0862093 0 0 0 0 71.828079
-0.14463635 7.0508041 5.0808773 0 0 0 0 71.833031
0.48076785 7.2926478 5.6542268 0 0 0 0 71.837975
0.20191641 6.753737 5.0985069 0 0 0 0 71.842926
-0.046216622 6.8866048 5.0869842 0 0 0 0 71.84787
-0.31444556 7.0937371 5.1300755 0 0 0 0 71.852814
0.29821312 6.6014996 5.1067209 0 0 0 0 71.857765
0.051051572 6.7434464 5.0882974 0 0 0 0 71.862709
-0.20823267 7.0160542 5.1911368 0 0 0 0 71.867661
-0.48883936 7.1743083 5.2106285 0 0 0 0 71.872604
0.15611111 6.612226 5.1027942 0 0 0 0 71.877548
-0.10126976 6.8978801 5.2027831 0 0 0 0 71.8825
-0.40285981 7.5918531 5.626668 0 0 0 0 71.887444
-0.70707309 7.6515489 5.5809565 0 0 0 0 71.892395
0.01221788 6.7409916 5.1920781 0 0 0 0 71.897339
-0.27855301 7.4510188 5.6202135 0 0 0 0 71.90229
-0.57451034 7.5573678 5.6160498 0 0 0 0 71.907234
-0.72004855 6.2722745 4.6046071 0 0 0 0 71.912178
-0.14644596 7.3211226 5.6269331 0 0 0 0 71.91713
-0.44453526 7.4444818 5.6199269 0 0 0 0 71.922073
-0.7429105 7.5040126 5.5952592 0 0 0 0 71.927025
-0.85580313 6.1714854 4.5575686 0 0 0 0 71.931969
-0.30398577 7.3170915 5.616044 0 0 0 0 71.694252
-0.60572773 7.4105258 5.5997076 0 0 0 0 71.699203
-0.75073367 6.2166867 4.658288 0 0 0 0 71.704147
-1.2291447 7.4873056 5.5567527 0 0 0 0 71.709091
-0.46318775 7.3305731 5.6210213 0 0 0 0 71.714043
-0.62739557 6.098146 4.6220489 0 0 0 0 71.718987
-0.88716286 6.1656103 4.6397676 0 0 0 0 71.723938
-1.4007006 7.4337234 5.5559435 0 0 0 0 71.728882
-0.6219542 7.3122506 5.6066732 0 0 0 0 71.733833
-0.75884789 6.0531549 4.5996275 0 0 0 0 71.738777
-1.2486714 7.4007406 5.5888109 0 0 0 0 71.743721
-1.5680679 7.3662581 5.5470214 0 0 0 0 71.748672
-0.64158624 6.0765185 4.6668072 0 0 0 0 71.753616
-0.90688103 6.1131864 4.659164 0 0 0 0 71.758568
-1.4130563 7.3403635 5.5739837 0 0 0 0 71.763512
-1.7312192 7.2819114 5.5299549 0 0 0 0 71.768456
-0.80151796 6.2695322 4.8166261 0 0 0 0 71.773407
-1.2619203 7.3135886 5.585906 0 0 0 0 71.778351
-1.5755396 7.2849307 5.5662203 0 0 0 0 71.783302
-1.7347414 6.6194496 5.0731306 0 0 0 0 71.788246
-0.91845942 6.1264868 4.7132998 0 0 0 0 71.79319
-1.4214149 7.266264 5.5702481 0 0 0 0 71.798141
-1.738106 7.2344446 5.5635061 0 0 0 0 71.803085
-1.859991 6.475915 5.0097361 0 0 0 0 71.808037
-1.2561268 7.2347608 5.5682306 0 0 0 0 71.812981
-1.5841601 7.2337556 5.5697174 0 0 0 0 71.817932
-1.7429705 6.6028819 5.115983 0 0 0 0 71.822876
-2.0044312 6.4105721 5.0090013 0 0 0 0 71.82782
-1.4214251 7.2460246 5.5881324 0 0 0 0 71.832771
-1.7406831 7.1854038 5.5590692 0 0 0 0 71.837715
-1.8515577 6.4209065 5.0123148 0 0 0 0 71.842667
-2.3758097 7.000947 5.5243177 0 0 0 0 71.84761
-1.572704 7.1879249 5.5574217 0 0 0 0 71.852554
-1.7467942 6.5767727 5.1177678 0 0 0 0 71.857506
-1.9919711 6.3586702 5.0046411 0 0 0 0 71.86245
-2.5300663 6.9175406 5.5203204 0 0 0 0 71.867401
-1.7314115 7.1565118 5.55093 0 0 0 0 71.872345
-1.8566059 6.4137144 5.0212831 0 0 0 0 71.877296
-2.3635402 6.9639745 5.526113 0 0 0 0 71.88224
-2.6833725 6.83711 5.5193596 0 0 0 0 71.887184
-1.7408278 6.5737519 5.1198649 0 0 0 0 71.892136
-1.9929497 6.3516064 5.0046391 0 0 0 0 71.897079
-2.515907 6.8935933 5.5212631 0 0 0 0 71.902031
-2.488163 5.9405141 4.8606048 0 0 0 0 71.906975
-1.8559586 6.4365325 5.0346041 0 0 0 0 71.911919
-2.3666537 6.9698725 5.5272317 0 0 0 0 71.91687
-2.6693554 6.8271399 5.5224433 0 0 0 0 71.921814
-2.6775124 5.9936619 4.9677463 0 0 0 0 71.926765
-1.9943686 6.3834248 5.0160365 0 0 0 0 71.931709
-2.5242815 6.9213605 5.5305657 0 0 0 0 71.936653
-2.4731348 5.9366326 4.856751 0 0 0 0 71.941605
-2.6600389 5.6063733 4.7119026 0 0 0 0 71.946548
-2.3713708 7.0265713 5.5468645 0 0 0 0 71.9515
-2.6756344 6.8530269 5.5217404 0 0 0 0 71.956444
-2.6615109 5.9968376 4.9589725 0 0 0 0 71.961395
-2.8122666 5.5854392 4.7615566 0 0 0 0 71.966339
-2.5174716 6.9485006 5.5169778 0 0 0 0 71.971283
-2.4628296 5.9280167 4.8228106 0 0 0 0 71.976234
-2.6522837 5.6293845 4.7122674 0 0 0 0 71.981178
-2.9407732 5.5170984 4.7739 0 0 0 0 71.98613
-2.6760004 6.8960605 5.51226 0 0 0 0 71.991074
-2.4917498 5.6386447 4.6326218 0 0 0 0 71.996017
-2.8168902 5.6361723 4.7781134 0 0 0 0 72.000969
-3.5104768 6.2128916 5.458797 0 0 0 0 72.005913
-2.424741 5.8781872 4.7366533 0 0 0 0 72.010864
-2.7846 5.9260592 4.9153996 0 0 0 0 72.015808
-3.1133151 5.8846445 5.0514588 0 0 0 0 72.020752
-3.646687 6.1175451 5.4637995 0 0 0 0 72.025703
-3.0025797 6.8227792 5.5330763 0 0 0 0 72.030647
-2.7798467 5.5933523 4.6900148 0 0 0 0 72.035599
-3.5285711 6.305387 5.4856839 0 0 0 0 72.040543
-3.7726841 6.0084028 5.4577355 0 0 0 0 72.045494
-3.1425498 6.7307591 5.5030856 0 0 0 0 72.050438
-3.4090199 6.4685206 5.4803238 0 0 0 0 72.055382
-3.6596122 6.2052503 5.4746747 0 0 0 0 72.060333
-3.8956268 5.8942976 5.4506412 0 0 0 0 72.065277
-2.9193382 5.9170589 4.8833733 0 0 0 0 72.070229
-3.5440681 6.3733988 5.464335 0 0 0 0 72.075172
-3.7804294 6.0893083 5.453577 0 0 0 0 72.080116
-4.0227447 5.79004 5.4546156 0 0 0 0 72.085068
-2.9074705 5.5795016 4.6499872 0 0 0 0 72.090012
-3.6935132 6.3029189 5.4704905 0 0 0 0 72.094963
-3.9115224 5.9890971 5.4495625 0 0 0 0 72.099907
-4.138658 5.6729965 5.4475408 0 0 0 0 72.104858
-3.5842826 6.4999495 5.4664049 0 0 0 0 72.109802
-3.8378358 6.2225256 5.4725804 0 0 0 0 72.114746
-4.0375624 5.8849511 5.4435439 0 0 0 0 72.119698
-4.2627697 5.565733 5.4545031 0 0 0 0 72.124641
-3.7367072 6.4314919 5.4675565 0 0 0 0 72.129593
-3.9749768 6.1292782 5.4665899 0 0 0 0 72.134537
-4.166718 5.7866931 5.4455614 0 0 0 0 72.139481
-3.704731 4.6232109 4.630003 0 0 0 0 72.144432
-3.8850012 6.3531227 5.463635 0 0 0 0 72.149376
-4.0886145 6.0035119 5.4344392 0 0 0 0 72.154327
-4.2825837 5.6697092 5.4324832 0 0 0 0 72.159271
-4.0206852 6.2565694 5.44416 0 0 0 0 71.921463
-4.2193756 5.9028897 5.4269905 0 0 0 0 71.926407
-4.1669526 6.1732039 5.4422107 0 0 0 0 71.941246
-4.3739862 5.8351808 5.451138 0 0 0 0 71.946198
-3.5192487 3.8245945 4.1028614 0 0 0 0 71.956093
-4.3132157 6.0878167 5.4422388 0 0 0 0 71.961037
-4.6434417 5.3448243 5.4310389 0 0 0 0 71.970932
-4.7604017 4.9230156 5.4007854 0 0 0 0 71.975876
-4.8745551 4.8127513 5.4167953 0 0 0 0 71.995667
-4.4043889 5.1158538 5.0465331 0 0 0 0 72.005562
-4.9236555 4.6437535 5.3666906 0 0 0 0 72.015457
-3.6378732 4.4725165 4.1947393 0 0 0 0 72.020401
-4.4145269 4.8989024 4.9292307 0 0 0 0 72.025345
-4.5000157 4.521203 4.9166708 0 0 0 0 72.030296
-5.0470548 4.545218 5.4007478 0 0 0 0 72.03524
-4.3854332 5.1375113 4.8949423 0 0 0 0 72.040192
-4.5645075 4.3819056 4.8827543 0 0 0 0 72.050087
-5.1267691 4.4095306 5.3907514 0 0 0 0 72.055031
-4.5259199 5.0629997 4.912118 0 0 0 0 72.059975
-4.6626081 4.2759008 4.8879251 0 0 0 0 72.06987
-5.2146568 4.2826447 5.3927817 0 0 0 0 72.074821
-5.1275935 5.4733672 5.4097939 0 0 0 0 72.079765
-4.6990604 4.547596 4.8844757 0 0 0 0 72.084709
-4.7820573 4.1884646 4.9161229 0 0 0 0 72.089661
-5.3035641 4.154707 5.3987918 0 0 0 0 72.094604
-5.2626824 5.3670416 5.4126773 0 0 0 0 72.099556
-4.7980375 4.4366846 4.8795862 0 0 0 0 72.1045
-4.8700352 4.0736017 4.916276 0 0 0 0 72.109451
-5.3681736 4.0122061 5.3838353 0 0 0 0 72.114395
-5.3967161 5.255734 5.4145145 0 0 0 0 72.119339
-4.897027 4.3247418 4.8776846 0 0 0 0 72.12429
-5.1113052 4.0797877 5.0675101 0 0 0 0 72.129234
-5.4419522 3.8764765 5.3828773 0 0 0 0 72.134186
-5.5063949 5.1228533 5.3963132 0 0 0 0 72.13913
-4.987906 4.2059336 4.8697724 0 0 0 0 72.144073
-5.4468188 4.1462054 5.3066463 0 0 0 0 72.149025
-5.5137486 3.7427645 5.3819532 0 0 0 0 72.153969
-5.6262355 4.9967451 5.3911023 0 0 0 0 72.15892
-5.0828743 4.0910153 4.8688674 0 0 0 0 72.163864
-5.5995841 4.0641069 5.3686371 0 0 0 0 72.168808
-5.5774593 3.604177 5.376039 0 0 0 0 72.173759
-5.7461095 4.8726144 5.3879094 0 0 0 0 72.178703
-5.1819148 3.978997 4.8739591 0 0 0 0 72.183655
-5.6843958 3.9312646 5.3686209 0 0 0 0 72.188599
-5.6472583 3.4684508 5.3781061 0 0 0 0 72.19355
-5.8649697 4.745472 5.3866911 0 0 0 0 72.198494
-5.3134112 3.8893516 4.9110332 0 0 0 0 72.203438
-5.7621379 3.7935171 5.3656049 0 0 0 0 72.208389
-5.7019238 3.3269651 5.3702278 0 0 0 0 72.213333
-5.9625411 4.600687 5.369451 0 0 0 0 72.218285
-5.8726101 4.0928502 5.3308711 0 0 0 0 72.223228
-5.8419456 3.6597087 5.3666129 0 0 0 0 72.228172
-5.7576451 3.1874177 5.3673601 0 0 0 0 72.233124
-5.4833241 4.0363278 4.8522739 0 0 0 0 72.238068
-6.0018506 3.9802804 5.3617196 0 0 0 0 72.243019
-5.9167008 3.5219662 5.3656173 0 0 0 0 72.247963
-5.8204727 3.0527222 5.3724866 0 0 0 0 72.252914
-5.5710549 3.9045744 4.8412414 0 0 0 0 72.257858
-6.0926213 3.8423703 5.3625979 0 0 0 0 72.262802
-5.9854026 3.3802989 5.3626251 0 0 0 0 72.267754
-5.8691578 2.9112589 5.3676491 0 0 0 0 72.272697
-5.7742963 3.8507211 4.9311299 0 0 0 0 72.277649
-6.1833963 3.7034385 5.3654637 0 0 0 0 72.282593
-6.0521202 3.239639 5.3606572 0 0 0 0 72.287537
-5.895627 2.7601631 5.3468809 0 0 0 0 72.292488
-6.3915234 4.0475669 5.3604431 0 0 0 0 72.297432
-6.2600374 3.5577281 5.3593659 0 0 0 0 72.302383
-6.1097431 3.0931129 5.3536959 0 0 0 0 72.307327
-5.7654161 2.5439165 5.1896377 0 0 0 0 72.312271
-6.4547691 3.8802361 5.3292222 0 0 0 0 72.317223
-6.3285842 3.4071531 5.3472776 0 0 0 0 72.322166
-6.1724639 2.9514675 5.353745 0 0 0 0 72.327118
-5.7637234 2.3902555 5.1520562 0 0 0 0 72.332062
-6.5474038 3.7313468 5.3259649 0 0 0 0 72.337013
-6.4072843 3.2613394 5.3491592 0 0 0 0 72.341957
-6.2362323 2.81076 5.3587942 0 0 0 0 72.346901
-5.8166366 2.2605877 5.1633039 0 0 0 0 72.351852
-6.6430678 3.5823874 5.3266821 0 0 0 0 72.356796
-6.4789324 3.1126208 5.348063 0 0 0 0 72.361748
-6.2413807 2.6440854 5.3160219 0 0 0 0 72.366692
-5.8594737 2.1270638 5.1695871 0 0 0 0 72.371635
-6.7226048 3.4266577 5.3194504 0 0 0 0 72.376587
-6.5344205 2.9561634 5.3360085 0 0 0 0 72.381531
-6.1172585 2.4296832 5.1687469 0 0 0 0 72.386482
-5.8871632 1.9888123 5.1629367 0 0 0 0 72.391426
-6.8052392 3.2694473 5.3162546 0 0 0 0 72.539673
-6.6122322 2.8098791 5.3449516 0 0 0 0 72.544617
-6.1327085 2.2763493 5.1440907 0 0 0 0 72.549568
-5.9129076 1.8511739 5.1593542 0 0 0 0 72.554512
-6.9261956 3.1299682 5.3438606 0 0 0 0 72.559456
-6.6768494 2.6571999 5.3458548 0 0 0 0 72.564407
-6.1753936 2.1339059 5.1422715 0 0 0 0 72.569351
-5.9416871 1.7158176 5.1617169 0 0 0 0 72.574303
-6.9916072 2.9643946 5.333621 0 0 0 0 72.579247
-6.5849733 2.4462099 5.2273579 0 0 0 0 72.58419
-6.2201328 1.9923809 5.1464443 0 0 0 0 72.589142
-5.9654336 1.5795386 5.1611071 0 0 0 0 72.594086
-7.0560236 2.7978089 5.325377 0 0 0 0 72.599037
-6.5345945 2.2584651 5.1447816 0 0 0 0 72.603981
-6.2547989 1.849021 5.1436744 0 0 0 0 72.608925
-5.9861784 1.443287 5.1605196 0 0 0 0 72.613876
-7.1224866 2.6321514 5.322125 0 0 0 0 72.61882
-6.5801673 2.1050031 5.14182 0 0 0 0 72.623772
-6.2864537 1.7046883 5.1409163 0 0 0 0 72.628716
-6.0008826 1.3061326 5.1559682 0 0 0 0 72.633667
-7.1203532 2.442616 5.2721529 0 0 0 0 72.638611
-6.6247635 1.952529 5.1408744 0 0 0 0 72.643555
-6.3241959 1.5622057 5.1471286 0 0 0 0 72.648506
-6.0166345 1.1709266 5.1554279 0 0 0 0 72.65345
-6.9397149 2.200052 5.0960083 0 0 0 0 72.658401
-6.6643147 1.7971216 5.1379356 0 0 0 0 72.663345
-6.3468223 1.4159662 5.1434178 0 0 0 0 72.668289
-6.0293918 1.0347272 5.156899 0 0 0 0 72.673241
-7.0042982 2.0403187 5.1018286 0 0 0 0 72.678185
-6.7079396 1.644614 5.1409941 0 0 0 0 72.683136
-6.3644233 1.2687938 5.1377349 0 0 0 0 72.68808
-6.036119 0.89963543 5.1534271 0 0 0 0 72.693031
-7.0386405 1.8710622 5.0887809 0 0 0 0 72.697975
-6.7344313 1.4873788 5.1331344 0 0 0 0 72.702919
-6.3891215 1.1254721 5.1400352 0 0 0 0 72.70787
-6.0862179 0.76971495 5.1906714 0 0 0 0 72.712814
-6.760951 1.329091 5.1302619 0 0 0 0 72.72271
-6.4027429 0.97830474 5.1373801 0 0 0 0 72.727654
-6.7905192 1.1727328 5.1313839 0 0 0 0 72.7425
-6.4103494 0.83222419 5.1317816 0 0 0 0 72.747444
-0.42935282 0.043931834 0.44202313 0 0 0 0 72.752388
-0.37589148 0.085533924 0.33687654 0 0 0 0 72.757339
-6.7858424 1.0099317 5.1097031 0 0 0 0 72.762283
-6.4643207 0.69129652 5.1658754 0 0 0 0 72.767235
-6.8033757 0.85271579 5.1079073 0 0 0 0 72.782074
-0.42003775 0.02209951 0.43390134 0 0 0 0 72.791969
-0.39073724 0.067312151 0.34460509 0 0 0 0 72.796913
-0.43703619 0.034066927 0.42190632 0 0 0 0 72.806808
-0.4198018 0.041602671 0.38613164 0 0 0 0 72.821648
-0.41176432 0.0022264149 0.42879197 0 0 0 0 72.831543
-0.3693406 0.043677121 0.32855895 0 0 0 0 72.836494
-0.42772838 0.012224413 0.41478407 0 0 0 0 72.846382
-0.43463501 0.020358782 0.39582732 0 0 0 0 72.861229
-0.41355416 -0.01681312 0.4306125 0 0 0 0 72.871117
-0.34595573 0.023082202 0.31056023 0 0 0 0 72.876068
-0.42649326 -0.0077661015 0.4146181 0 0 0 0 72.885963
-0.42633283 -0.0025135311 0.39068604 0 0 0 0 72.900803
-0.41836411 -0.037933227 0.43738726 0 0 0 0 72.910698
-0.41411164 0.0039456277 0.3578611 0 0 0 0 72.915642
-0.42525625 -0.028767066 0.41544113 0 0 0 0 72.925537
-0.42308149 -0.022464033 0.3885358 0 0 0 0 72.940376
-0.42518941 -0.0590933 0.44614533 0 0 0 0 72.950272
-0.41587394 -0.01708249 0.35866025 0 0 0 0 72.955215
-0.42703298 -0.050827555 0.419229 0 0 0 0 72.965111
-0.42584854 -0.045533441 0.39230517 0 0 0 0 72.97995
-0.44708633 -0.084541038 0.4687396 0 0 0 0 72.989845
-0.42165631 -0.040200621 0.36440548 0 0 0 0 72.994797
-0.43283123 -0.073967643 0.42697355 0 0 0 0 73.004692
-6.0577674 -1.2376381 5.3456388 0 0 0 0 73.009636
-0.43095639 -0.068642847 0.3988305 0 0 0 0 72.763115
-6.4967861 -1.2216989 5.3094754 0 0 0 0 72.768066
-6.0176759 -1.364586 5.3407321 0 0 0 0 72.77301
-0.41570443 -0.062115427 0.36202893 0 0 0 0 72.777962
-6.4644485 -1.3664849 5.311192 0 0 0 0 72.787849
-5.9875159 -1.4944425 5.3475904 0 0 0 0 72.792801
-0.36042774 -0.076458275 0.34833273 0 0 0 0 72.802696
-6.4572415 -1.5167439 5.3356538 0 0 0 0 72.80764
-5.9392858 -1.6189743 5.3396444 0 0 0 0 72.812584
-0.36025488 -0.074226536 0.32636893 0 0 0 0 72.817535
-6.421917 -1.6615229 5.3393917 0 0 0 0 72.827431
-5.9061584 -1.7468238 5.3485451 0 0 0 0 72.832375
-6.8721128 -1.727491 5.3121409 0 0 0 0 72.84227
-6.3474684 -1.7946352 5.3145561 0 0 0 0 72.847214
-5.8569584 -1.8703773 5.3436155 0 0 0 0 72.852165
-0.3971597 -0.10387284 0.35480306 0 0 0 0 72.857109
-6.824626 -1.8851063 5.3108344 0 0 0 0 72.862061
-6.3162112 -1.9395453 5.3272591 0 0 0 0 72.867004
-5.8158178 -1.9950993 5.34761 0 0 0 0 72.871948
-6.7831893 -2.0448716 5.3184571 0 0 0 0 72.881844
-6.2739272 -2.0812795 5.3330798 0 0 0 0 72.886795
-5.7706766 -2.1197841 5.3516355 0 0 0 0 72.891739
-0.39794195 -0.12694412 0.3605881 0 0 0 0 72.89669
-6.7387533 -2.2035983 5.3251128 0 0 0 0 72.901634
-6.2045684 -2.2145629 5.3202014 0 0 0 0 72.906578
-5.7175341 -2.2393312 5.3497767 0 0 0 0 72.91153
-7.191165 -2.3282905 5.2682104 0 0 0 0 72.916473
-6.6622453 -2.3518066 5.31113 0 0 0 0 72.921425
-6.1593242 -2.3543005 5.3290653 0 0 0 0 72.926369
-5.6613913 -2.35885 5.3479404 0 0 0 0 72.931313
-7.1235456 -2.4976983 5.2649312 0 0 0 0 72.936264
-6.6138659 -2.5075378 5.3218465 0 0 0 0 72.941208
-6.0990381 -2.4897928 5.3280907 0 0 0 0 72.946159
-5.6092858 -2.4784582 5.3510718 0 0 0 0 72.951103
-7.06599 -2.6703248 5.2735381 0 0 0 0 72.956047
-6.5524435 -2.660053 5.323698 0 0 0 0 72.960999
-6.0357709 -2.6222467 5.3261709 0 0 0 0 72.965942
-5.5622048 -2.6021967 5.3621197 0 0 0 0 72.970894
-6.99441 -2.8377261 5.2733088 0 0 0 0 72.975838
-6.4690022 -2.8032262 5.3128204 0 0 0 0 72.980789
-5.980545 -2.757869 5.3331537 0 0 0 0 72.985733
-5.5051088 -2.7197473 5.3643098 0 0 0 0 72.990677
-6.9228587 -3.0061796 5.2780676 0 0 0 0 72.995628
-6.4036274 -2.9537454 5.3187222 0 0 0 0 73.000572
-5.9062986 -2.8861983 5.3293624 0 0 0 0 73.005524
-5.4289799 -2.8269517 5.3507586 0 0 0 0 73.010468
-6.8573589 -3.1757729 5.2907667 0 0 0 0 73.015411
-6.330256 -3.1011581 5.3217192 0 0 0 0 73.020363
-5.8300552 -3.0114768 5.322618 0 0 0 0 73.025307
-5.3719292 -2.9445648 5.3589473 0 0 0 0 73.030258
-6.787869 -3.3433182 5.3025169 0 0 0 0 73.035202
-6.2549114 -3.2455518 5.3247628 0 0 0 0 73.040146
-5.7698746 -3.1461041 5.3346486 0 0 0 0 73.045097
-5.3128624 -3.0611269 5.364162 0 0 0 0 73.050041
-6.6913557 -3.4994426 5.2985992 0 0 0 0 73.054993
-6.1775827 -3.388937 5.3288326 0 0 0 0 73.059937
-5.6986885 -3.2735338 5.3378406 0 0 0 0 73.064888
-5.242805 -3.1715231 5.3635283 0 0 0 0 73.069832
-6.6158962 -3.6659627 5.3134055 0 0 0 0 73.074776
-6.091258 -3.529206 5.3300047 0 0 0 0 73.079727
-5.6205153 -3.3968661 5.338131 0 0 0 0 73.084671
-5.1767764 -3.2830086 5.3678498 0 0 0 0 73.089622
-6.5114279 -3.8170114 5.3096032 0 0 0 0 73.094566
-6.0059748 -3.6675155 5.3341894 0 0 0 0 73.09951
-5.543364 -3.5212493 5.342401 0 0 0 0 73.104462
-5.1067586 -3.3914354 5.3702354 0 0 0 0 73.109406
-6.4079919 -3.9671004 5.3088026 0 0 0 0 73.114357
-5.9186888 -3.8068163 5.3393784 0 0 0 0 73.119301
-5.4652109 -3.6456225 5.3466787 0 0 0 0 73.124252
-5.0227127 -3.492604 5.3608074 0 0 0 0 73.129196
-6.3165884 -4.1254482 5.3218188 0 0 0 0 73.13414
-5.8284392 -3.9420886 5.3446331 0 0 0 0 73.139091
-5.3770757 -3.7628386 5.3451109 0 0 0 0 73.144035
-4.960731 -3.6072311 5.3750639 0 0 0 0 73.148987
-5.9640999 -4.1040263 5.1177979 0 0 0 0 73.153931
-5.6281071 -4.0022979 5.2535501 0 0 0 0 73.158875
-5.2959728 -3.8842146 5.3524427 0 0 0 0 73.163826
-4.886754 -3.7136505 5.3805008 0 0 0 0 73.16877
-5.8587928 -4.2441454 5.1221175 0 0 0 0 73.173721
-5.4118309 -4.0411654 5.1448193 0 0 0 0 73.178665
-5.0156841 -3.853606 5.1619549 0 0 0 0 73.183609
-4.7917442 -3.8046405 5.3642659 0 0 0 0 73.18856
-5.7625136 -4.3914752 5.1382899 0 0 0 0 73.193504
-5.3286829 -4.1746159 5.1610379 0 0 0 0 73.198456
-4.9226418 -3.9597614 5.1595435 0 0 0 0 73.2034
-4.5495663 -3.7725101 5.1854968 0 0 0 0 73.208351
-5.649272 -4.5235081 5.1417575 0 0 0 0 73.213295
-5.2265549 -4.2947507 5.1645465 0 0 0 0 73.218239
-4.8456273 -4.0782561 5.1748738 0 0 0 0 73.22319
-4.475657 -3.8739581 5.1939859 0 0 0 0 73.228134
-5.5342612 -4.6579423 5.1475062 0 0 0 0 73.782295
-5.1137104 -4.4060326 5.1596079 0 0 0 0 73.787239
-4.7519069 -4.1857429 5.1768961 0 0 0 0 73.792191
-4.399065 -3.9746013 5.200016 0 0 0 0 73.797134
-5.4110537 -4.7818317 5.1481338 0 0 0 0 73.802086
-5.0146093 -4.5282664 5.1710629 0 0 0 0 73.80703
-4.6619091 -4.2930083 5.1834426 0 0 0 0 73.811981
-4.3181653 -4.070941 5.2056088 0 0 0 0 73.816925
-5.2598948 -4.8791871 5.1242709 0 0 0 0 73.821869
-4.9065475 -4.6403403 5.1756992 0 0 0 0 73.82682
-4.5639353 -4.3951654 5.1871071 0 0 0 0 73.831764
-4.231276 -4.1601481 5.2043266 0 0 0 0 73.836716
-4.9609356 -4.833602 4.9601336 0 0 0 0 73.84166
-4.7974997 -4.7534356 5.1833324 0 0 0 0 73.846603
-4.4649739 -4.4942904 5.1888118 0 0 0 0 73.851555
-4.1464038 -4.253449 5.2099838 0 0 0 0 73.856499
-4.5852027 -4.6893382 4.7096777 0 0 0 0 73.86145
-4.5215993 -4.6949797 5.0111518 0 0 0 0 73.866394
-4.3660336 -4.5944576 5.1945057 0 0 0 0 73.871338
-4.058547 -4.3416772 5.2117195 0 0 0 0 73.876289
-4.3174438 -4.6372232 4.562367 0 0 0 0 73.881233
-4.222827 -4.5949464 4.8066053 0 0 0 0 73.886185
-4.2191353 -4.6415563 5.1441565 0 0 0 0 73.891129
-3.9726973 -4.4349995 5.2203846 0 0 0 0 73.89608
-4.204514 -4.739296 4.5721531 0 0 0 0 73.901024
-4.0440254 -4.6104693 4.731854 0 0 0 0 73.905968
-3.9763477 -4.5764713 4.9777861 0 0 0 0 73.910919
-3.8798707 -4.5181575 5.2202144 0 0 0 0 73.915863
-4.6025186 -5.4424119 5.1463499 0 0 0 0 73.920815
-4.3295674 -5.1673765 5.2025342 0 0 0 0 73.925758
-3.7346454 -4.4973288 4.8055611 0 0 0 0 73.930702
-3.7340698 -4.5380468 5.1501517 0 0 0 0 73.935654
-4.1986508 -5.2551193 5.1976171 0 0 0 0 73.945549
-3.5139966 -4.4295979 4.6530476 0 0 0 0 73.950493
-3.4933627 -4.4356093 4.9501719 0 0 0 0 73.955444
-4.0867486 -5.3643322 5.2193151 0 0 0 0 73.965332
-3.347338 -4.4190884 4.565484 0 0 0 0 73.970284
-3.2836967 -4.35783 4.7836795 0 0 0 0 73.975227
-3.238488 -4.4592166 4.0228715 0 0 0 0 73.980179
-3.2265837 -4.4568491 4.2770128 0 0 0 0 73.985123
-3.2246716 -4.4596314 4.5360179 0 0 0 0 73.990067
-3.1020896 -4.3036909 4.6517096 0 0 0 0 73.995018
-2.9384093 -4.262845 3.7913947 0 0 0 0 73.999962
-2.9304001 -4.2553105 4.0265598 0 0 0 0 74.004913
-2.9403474 -4.2651095 4.2763925 0 0 0 0 74.009857
-2.9494987 -4.2802358 4.5571761 0 0 0 0 74.014801
-2.7281799 -4.1724682 3.664053 0 0 0 0 74.019753
-2.733058 -4.1750355 3.8970039 0 0 0 0 74.024696
-2.7449412 -4.1797028 4.1328754 0 0 0 0 74.029648
-2.7500224 -4.1774788 4.3848786 0 0 0 0 74.034592
-2.6275835 -4.2386327 3.6731369 0 0 0 0 74.039543
-2.633491 -4.2331467 3.9001665 0 0 0 0 74.044487
-2.6503503 -4.2378297 4.132997 0 0 0 0 74.049431
-2.6664207 -4.2427874 4.3918343 0 0 0 0 74.054382
-2.4642973 -4.1992707 3.5978687 0 0 0 0 74.059326
-2.4731467 -4.1896839 3.8129184 0 0 0 0 74.064278
-2.4969516 -4.1984129 4.0436487 0 0 0 0 74.069221
-2.5209446 -4.2063818 4.2963881 0 0 0 0 74.074165
-2.3110156 -4.1670985 3.5314438 0 0 0 0 74.079117
-2.3278089 -4.1625776 3.745374 0 0 0 0 74.084061
-2.3545637 -4.1672173 3.9651239 0 0 0 0 74.089012
-2.3765085 -4.1649737 4.1999893 0 0 0 0 74.093956
-2.161777 -4.1329956 3.4680088 0 0 0 0 74.0989
-2.1835234 -4.1274471 3.6749094 0 0 0 0 74.103851
-2.2132268 -4.1290083 3.8846681 0 0 0 0 74.108795
-2.2490897 -4.1429954 4.1282449 0 0 0 0 74.113747
-2.0185637 -4.09797 3.4065366 0 0 0 0 74.11869
-2.045259 -4.0944266 3.609375 0 0 0 0 74.123642
-2.081888 -4.1020327 3.8170116 0 0 0 0 74.128586
-2.118706 -4.1088796 4.0466566 0 0 0 0 74.13353
-1.8794016 -4.0610242 3.3490541 0 0 0 0 74.138481
-1.8752112 -3.9844079 3.480933 0 0 0 0 74.143425
-1.9247199 -4.0122356 3.6972458 0 0 0 0 74.148376
-1.9933506 -4.0768738 3.9710069 0 0 0 0 74.15332
-1.7929336 -4.1315432 3.3789818 0 0 0 0 74.158264
-1.8295549 -4.1290102 3.5737278 0 0 0 0 74.163216
-1.7785629 -3.9306602 3.5883038 0 0 0 0 74.168159
-1.8291712 -3.952554 3.8096724 0 0 0 0 74.173111
-1.6478977 -4.0653324 3.3028667 0 0 0 0 74.178055
-1.6973984 -4.0830212 3.5062883 0 0 0 0 74.183006
-1.7200185 -4.0347714 3.6476419 0 0 0 0 74.18795
-1.7258385 -3.9471231 3.76756 0 0 0 0 74.192894
-1.5098842 -4.0002303 3.2306848 0 0 0 0 74.197845
-1.5702486 -4.0431647 3.4467437 0 0 0 0 74.202789
-1.6376081 -4.0891995 3.6657121 0 0 0 0 74.207741
-1.680261 -4.0725865 3.8475614 0 0 0 0 74.212685
-1.3987123 -3.9949355 3.2086377 0 0 0 0 74.217628
-1.4471385 -3.9983346 3.3862216 0 0 0 0 74.22258
-1.5035084 -4.0118642 3.5686307 0 0 0 0 74.227524
-1.5719742 -4.0529871 3.7946439 0 0 0 0 74.232475
-1.2737036 -3.9421172 3.1512201 0 0 0 0 74.237419
-1.3210973 -3.9353335 3.312922 0 0 0 0 74.242363
-1.4022461 -4.0126219 3.5424371 0 0 0 0 74.247314
-1.4567523 -4.0070705 3.7190688 0 0 0 0 74.252258
-1.1580709 -3.9043217 3.1086264 0 0 0 0 74.013542
-1.2242843 -3.9410286 3.2997081 0 0 0 0 74.018494
-1.2865247 -3.9605153 3.4740071 0 0 0 0 74.023438
-1.354893 -3.9863091 3.6711898 0 0 0 0 74.028389
-1.0717776 -3.9568393 3.1387525 0 0 0 0 74.033333
-1.1241162 -3.9388871 3.2815354 0 0 0 0 74.038284
-1.1764172 -3.9137948 3.4113953 0 0 0 0 74.043228
-1.2576342 -3.9749601 3.6310914 0 0 0 0 74.048172
-1.0052571 -4.0882459 3.232866 0 0 0 0 74.053123
-1.0596195 -4.0602174 3.3667414 0 0 0 0 74.058067
-1.0960931 -3.960252 3.4305375 0 0 0 0 74.063019
-1.1544726 -3.9373484 3.5723255 0 0 0 0 74.067963
-0.89128006 -4.045711 3.1912434 0 0 0 0 74.072906
-0.94861168 -4.0115929 3.3141601 0 0 0 0 74.077858
-1.0395474 -4.1028638 3.5344489 0 0 0 0 74.082802
-1.079105 -3.990886 3.5943506 0 0 0 0 74.087753
-0.92457348 -4.0218339 3.4482501 0 0 0 0 74.102592
-1.012681 -4.0808969 3.6519098 0 0 0 0 74.107536
-0.91155869 -4.0382905 3.5921836 0 0 0 0 74.127327
-0.01904062 -4.34446 3.5590675 0 0 0 0 74.275734
0.079098761 -4.4021287 3.6142387 0 0 0 0 74.295525
0.067416742 -4.3829665 3.6793559 0 0 0 0 74.320259
0.047771033 -4.3557296 3.730495 0 0 0 0 74.344994
1.7474576 -3.9537067 3.6857674 0 0 0 0 74.376396
1.8034905 -3.9097745 3.6477311 0 0 0 0 74.465446
1.7581853 -3.9559476 3.6218584 0 0 0 0 74.490181
1.8338279 -3.8939409 3.5971632 0 0 0 0 74.509964
3.4901471 -3.545892 4.523777 0 0 0 0 74.693008
3.4961236 -3.6316779 4.1438313 0 0 0 0 74.676834
3.519412 -3.4966879 4.075521 0 0 0 0 74.696625
4.3781037 -2.6909263 4.8726516 0 0 0 0 74.780724
4.3901949 -2.5674374 4.8401375 0 0 0 0 74.800507
4.366961 -2.8321328 4.6980085 0 0 0 0 74.805458
4.4839921 -2.4931743 4.900763 0 0 0 0 74.820297
4.3721166 -2.7015343 4.6495147 0 0 0 0 74.825241
4.6046562 -2.4309788 4.9914808 0 0 0 0 74.840088
4.408186 -2.5920191 4.6360469 0 0 0 0 74.845032
4.7163177 -2.3617828 5.0742021 0 0 0 0 74.859871
4.5439434 -2.5417082 4.7297578 0 0 0 0 74.864822
4.3718457 -2.6658623 4.4069352 0 0 0 0 74.869766
4.9036183 -2.3257513 5.2391906 0 0 0 0 74.879662
4.7045679 -2.4984186 4.8476 0 0 0 0 74.884605
4.4249043 -2.5663226 4.4064999 0 0 0 0 74.889557
4.3942342 -2.757725 4.2321129 0 0 0 0 74.894501
5.1585536 -2.3138523 5.4764791 0 0 0 0 74.899452
4.7674775 -2.4010034 4.867228 0 0 0 0 74.904396
4.5736914 -2.5198939 4.5012774 0 0 0 0 74.90934
4.3824539 -2.615046 4.1616139 0 0 0 0 74.914291
5.2859616 -2.2347004 5.5774479 0 0 0 0 74.919235
4.9319906 -2.3517413 4.9911723 0 0 0 0 74.924187
4.7363896 -2.4764831 4.6101398 0 0 0 0 74.929131
4.4724655 -2.534452 4.1892791 0 0 0 0 74.934074
5.3386874 -2.1234405 5.6021504 0 0 0 0 74.939026
5.127305 -2.3105416 5.1482873 0 0 0 0 74.94397
4.7873683 -2.3699732 4.6107702 0 0 0 0 74.948921
4.6482434 -2.4999228 4.2991519 0 0 0 0 74.953865
5.3674898 -2.0021825 5.6057649 0 0 0 0 74.958809
5.3394933 -2.2693424 5.3205457 0 0 0 0 74.96376
4.978869 -2.3305888 4.7478318 0 0 0 0 74.968704
4.8069944 -2.4483724 4.3920722 0 0 0 0 74.973656
5.3982949 -1.883938 5.6123652 0 0 0 0 74.9786
5.5615559 -2.2241566 5.5029325 0 0 0 0 74.983551
5.1782541 -2.2872262 4.8940058 0 0 0 0 74.988495
4.8789244 -2.34881 4.4068017 0 0 0 0 74.993439
5.4131737 -1.7596722 5.6028996 0 0 0 0 74.99839
5.6919093 -2.1338966 5.597055 0 0 0 0 75.003334
5.3925171 -2.2418501 5.0523291 0 0 0 0 75.008286
5.0455389 -2.2912807 4.5088587 0 0 0 0 75.013229
5.4359841 -1.6404831 5.6074467 0 0 0 0 75.018173
5.7625265 -2.0195587 5.6309462 0 0 0 0 75.023125
5.622623 -2.1934845 5.2258201 0 0 0 0 75.028069
5.3048005 -2.2677495 4.6933146 0 0 0 0 75.03302
5.4518156 -1.5193069 5.6069589 0 0 0 0 75.037964
5.7733874 -1.8842088 5.6105723 0 0 0 0 75.042915
5.7470841 -2.0980704 5.300952 0 0 0 0 75.047859
5.525085 -2.216202 4.8417583 0 0 0 0 75.052803
5.4706335 -1.4011567 5.6114635 0 0 0 0 75.057755
5.8021307 -1.7549157 5.6112828 0 0 0 0 75.062698
6.0945177 -2.0737481 5.5831633 0 0 0 0 75.06765
5.7213764 -2.1476569 4.9691925 0 0 0 0 75.072594
5.4787865 -1.2789748 5.6069012 0 0 0 0 75.643211
5.8401661 -1.6295695 5.622993 0 0 0 0 75.648155
6.1923232 -1.9562329 5.6372762 0 0 0 0 75.653107
5.7934942 -2.0259993 4.9910779 0 0 0 0 75.658051
5.4925942 -1.1608607 5.6103854 0 0 0 0 75.663002
5.8569288 -1.4983124 5.6166492 0 0 0 0 75.667946
6.2279639 -1.8168427 5.6361837 0 0 0 0 75.672897
6.2177305 -2.0203636 5.3147755 0 0 0 0 75.677841
5.4984336 -1.0417695 5.6088152 0 0 0 0 75.682785
5.8706989 -1.3670735 5.609282 0 0 0 0 75.687737
6.2705464 -1.6794839 5.6441298 0 0 0 0 75.69268
6.5670762 -1.9707435 5.5733366 0 0 0 0 75.697632
5.5002894 -0.92269564 5.6052117 0 0 0 0 75.702576
5.8953896 -1.2398829 5.6159635 0 0 0 0 75.70752
6.3031487 -1.5391568 5.6460261 0 0 0 0 75.712471
6.705195 -1.8482397 5.6539278 0 0 0 0 75.717415
5.5110703 -0.80565625 5.6126628 0 0 0 0 75.722366
6.0452981 -1.1367923 5.7434411 0 0 0 0 75.72731
6.3297758 -1.3988552 5.6448731 0 0 0 0 75.732254
6.7586193 -1.6978041 5.6651163 0 0 0 0 75.737206
5.5158844 -0.68863124 5.6160641 0 0 0 0 75.742149
6.1484137 -1.0197072 5.8296804 0 0 0 0 75.747101
6.3454046 -1.254607 5.6386738 0 0 0 0 75.752045
6.7921128 -1.5434209 5.6631827 0 0 0 0 75.756996
5.5186977 -0.57162619 5.6194501 0 0 0 0 75.76194
6.1640573 -0.88658386 5.8343577 0 0 0 0 75.766884
6.3729696 -1.1143742 5.6445317 0 0 0 0 75.771835
6.8305559 -1.3900666 5.6682816 0 0 0 0 75.776779
5.5403528 -0.45768058 5.6449633 0 0 0 0 75.781731
6.1707301 -0.75148243 5.832983 0 0 0 0 75.786674
6.5456452 -0.99615538 5.7813797 0 0 0 0 75.791618
6.8590002 -1.2327554 5.6683421 0 0 0 0 75.79657
5.579845 -0.34377074 5.6896305 0 0 0 0 75.801514
6.1813717 -0.61840868 5.8376203 0 0 0 0 75.806465
6.6576118 -0.86295736 5.8658824 0 0 0 0 75.811409
6.8804789 -1.0764799 5.6653342 0 0 0 0 75.816353
5.603436 -0.22887339 5.7211742 0 0 0 0 75.821304
6.1999178 -0.48537979 5.8533268 0 0 0 0 75.826248
6.6611848 -0.71382844 5.8596435 0 0 0 0 75.8312
6.9416976 -0.92420107 5.6976213 0 0 0 0 75.836143
5.6349392 -0.11299845 5.7617984 0 0 0 0 75.841095
6.185699 -0.35034031 5.838778 0 0 0 0 75.846039
6.6647396 -0.56472212 5.8554058 0 0 0 0 75.850983
7.1808295 -0.78981137 5.8792262 0 0 0 0 75.855934
5.6555099 0.0028572921 5.7943306 0 0 0 0 75.860878
6.1813793 -0.21735957 5.8382912 0 0 0 0 75.865829
6.6712523 -0.41665363 5.8571835 0 0 0 0 75.870773
7.2001534 -0.62463534 5.8833079 0 0 0 0 75.875717
5.6502743 0.11972539 5.8026552 0 0 0 0 75.880669
6.177042 -0.08440157 5.8398066 0 0 0 0 75.885612
6.6777277 -0.26761934 5.8619733 0 0 0 0 75.890564
7.2075186 -0.45952234 5.8822885 0 0 0 0 75.895508
5.636097 0.23658286 5.8039041 0 0 0 0 75.900459
6.1687307 0.047539212 5.8392773 0 0 0 0 75.905403
6.6702976 -0.11961131 5.8566351 0 0 0 0 75.910347
7.2148466 -0.29344344 5.8842821 0 0 0 0 75.915298
5.6337996 0.35340118 5.8192558 0 0 0 0 75.920242
6.1484871 0.17945078 5.8306479 0 0 0 0 75.925194
6.6757379 0.028356312 5.8664083 0 0 0 0 75.930138
7.2152286 -0.12938885 5.8821955 0 0 0 0 75.935081
5.6156492 0.46822989 5.8194504 0 0 0 0 75.940033
6.1401224 0.3113232 5.8361206 0 0 0 0 75.944977
6.6632986 0.17529163 5.8630185 0 0 0 0 75.949928
7.2145543 0.036610067 5.8841243 0 0 0 0 75.954872
5.5984721 0.5830344 5.8226542 0 0 0 0 75.959816
6.1268005 0.44219103 5.8375406 0 0 0 0 75.964767
6.6528039 0.32420117 5.8636694 0 0 0 0 75.969711
7.2118721 0.20156628 5.8880258 0 0 0 0 75.974663
5.5713744 0.69581831 5.8187518 0 0 0 0 75.979607
6.106514 0.57202286 5.8358917 0 0 0 0 75.984558
6.6412921 0.47206655 5.8673015 0 0 0 0 75.989502
7.2061682 0.36849216 5.8919253 0 0 0 0 75.994446
5.5432758 0.80859202 5.8148413 0 0 0 0 75.999397
6.0851989 0.70282155 5.836246 0 0 0 0 76.004341
6.6168771 0.61790419 5.8618016 0 0 0 0 76.009293
7.1825776 0.53336298 5.8846512 0 0 0 0 76.014236
5.5270467 0.92232633 5.8250446 0 0 0 0 76.01918
6.0549736 0.83060992 5.8294902 0 0 0 0 76.024132
6.5894608 0.76371157 5.8562775 0 0 0 0 76.029076
7.1659002 0.69818991 5.8874373 0 0 0 0 76.034027
5.489028 1.032068 5.8150172 0 0 0 0 76.038971
6.0395627 0.96134311 5.8408976 0 0 0 0 76.043922
6.5719285 0.91149348 5.8618617 0 0 0 0 76.048866
7.1353002 0.8619675 5.8820939 0 0 0 0 76.05381
5.4638696 1.1427687 5.8201118 0 0 0 0 76.058762
6.0073276 1.0880883 5.8361158 0 0 0 0 76.063705
6.5355487 1.0542219 5.8552289 0 0 0 0 76.068657
7.104682 1.0257221 5.8787518 0 0 0 0 76.073601
5.4228692 1.2504799 5.8100367 0 0 0 0 76.078545
5.9621811 1.2127941 5.8232012 0 0 0 0 76.083496
6.5040965 1.1989315 5.8546619 0 0 0 0 76.08844
7.0720654 1.1874336 5.8773713 0 0 0 0 76.093391
5.3957005 1.3611487 5.8161159 0 0 0 0 76.098335
5.9378142 1.3404592 5.8325005 0 0 0 0 76.103279
6.4745913 1.3435925 5.8601136 0 0 0 0 76.108231
7.0255351 1.3481071 5.8668613 0 0 0 0 76.113174
5.3547535 1.4668353 5.8082685 0 0 0 0 75.807213
5.8996224 1.4660795 5.829874 0 0 0 0 75.812157
6.4332566 1.4851677 5.8556104 0 0 0 0 75.817108
6.9820037 1.5075991 5.8645115 0 0 0 0 75.822052
5.3068056 1.571501 5.7960968 0 0 0 0 75.826996
5.8574247 1.5887148 5.8259573 0 0 0 0 75.831947
6.3829222 1.6247691 5.8478193 0 0 0 0 75.836891
6.9423714 1.668197 5.867053 0 0 0 0 75.841843
5.2549043 1.6731495 5.781858 0 0 0 0 75.846786
5.8013511 1.7083352 5.8108888 0 0 0 0 75.851738
6.3454552 1.7663521 5.8531618 0 0 0 0 75.856682
6.8967485 1.8277347 5.8695321 0 0 0 0 75.861626
5.200058 1.7718021 5.7645607 0 0 0 0 75.866577
5.7650456 1.832916 5.8170471 0 0 0 0 75.871521
6.2980413 1.9058803 5.8543978 0 0 0 0 75.876472
6.8382516 1.9822447 5.8628459 0 0 0 0 75.881416
5.1392741 1.8684514 5.7421904 0 0 0 0 75.88636
5.722796 1.9544709 5.8201213 0 0 0 0 75.891312
6.2407255 2.0423996 5.8475161 0 0 0 0 75.896255
6.7876291 2.139709 5.8672628 0 0 0 0 75.901207
5.0745182 1.9630718 5.7187638 0 0 0 0 75.906151
5.6676707 2.0720093 5.8130412 0 0 0 0 75.911102
6.1952667 2.18189 5.8537712 0 0 0 0 75.916046
6.7320247 2.2961342 5.8706264 0 0 0 0 75.92099
5.0018988 2.0517149 5.6862025 0 0 0 0 75.925941
5.6421413 2.2014711 5.8393512 0 0 0 0 75.930885
6.1319804 2.3143373 5.8477945 0 0 0 0 75.935837
6.6744299 2.4505277 5.8749514 0 0 0 0 75.940781
4.9440565 2.146291 5.6728358 0 0 0 0 75.945724
5.5929003 2.3209434 5.8433456 0 0 0 0 75.950676
6.0676761 2.4467511 5.8438101 0 0 0 0 75.95562
6.6039534 2.5998819 5.8711104 0 0 0 0 75.960571
4.880322 2.2368979 5.6513739 0 0 0 0 75.965515
5.5021906 2.4224632 5.8057809 0 0 0 0 75.970459
6.0033641 2.5781417 5.841815 0 0 0 0 75.97541
6.5265045 2.7471769 5.8661876 0 0 0 0 75.980354
4.8096619 2.3234806 5.6258073 0 0 0 0 75.985306
5.4499488 2.5408931 5.8107395 0 0 0 0 75.99025
5.9419975 2.710505 5.8448577 0 0 0 0 75.995201
6.453012 2.8944545 5.8662996 0 0 0 0 76.000145
4.7468848 2.4130285 5.610343 0 0 0 0 76.005089
5.3898082 2.6543112 5.8095741 0 0 0 0 76.01004
5.8726945 2.839833 5.8437986 0 0 0 0 76.014984
6.377501 3.0416887 5.8683953 0 0 0 0 76.019936
4.6791906 2.4985836 5.5897918 0 0 0 0 76.024879
5.3296418 2.7676947 5.8114095 0 0 0 0 76.029823
5.7925115 2.9631307 5.8355789 0 0 0 0 76.034775
6.0482893 3.0579793 5.6368237 0 0 0 0 76.039719
4.6223063 2.5900767 5.5844011 0 0 0 0 76.04467
5.0881662 2.781476 5.614552 0 0 0 0 76.049614
5.5042768 2.9716942 5.6162648 0 0 0 0 76.054565
5.9609795 3.1911728 5.6316586 0 0 0 0 76.059509
4.5801783 2.6895027 5.5982289 0 0 0 0 76.064453
4.9994593 2.8739007 5.5869026 0 0 0 0 76.069405
5.4221745 3.0869713 5.6079373 0 0 0 0 76.074348
5.8854876 3.3303258 5.6406646 0 0 0 0 76.0793
4.5183406 2.7779679 5.5907631 0 0 0 0 76.084244
4.9432526 2.9842315 5.5967383 0 0 0 0 76.089188
5.3607621 3.2131951 5.6229134 0 0 0 0 76.094139
5.7971711 3.4604626 5.6394572 0 0 0 0 76.099083
4.4604487 2.8674154 5.5883427 0 0 0 0 76.104034
4.8830824 3.0925446 5.6045179 0 0 0 0 76.108978
5.2835612 3.3294067 5.62464 0 0 0 0 76.113922
5.7018933 3.5875397 5.6371574 0 0 0 0 76.118874
4.4034934 2.9588153 5.5909538 0 0 0 0 76.123817
4.8071327 3.1908574 5.5980477 0 0 0 0 76.128769
5.1915631 3.4366167 5.6131377 0 0 0 0 76.133713
5.6076074 3.7136033 5.6368551 0 0 0 0 76.138664
4.3475199 3.0502019 5.5955734 0 0 0 0 76.143608
4.7351294 3.2901525 5.5966234 0 0 0 0 76.148552
5.1093831 3.5497656 5.615788 0 0 0 0 76.153503
5.5093699 3.8356376 5.6354733 0 0 0 0 76.158447
4.2748203 3.1306353 5.580924 0 0 0 0 76.163399
4.6551991 3.3864238 5.5900974 0 0 0 0 76.168343
5.0144153 3.6529324 5.6052155 0 0 0 0 76.173286
5.3914008 3.9446542 5.617774 0 0 0 0 76.178238
4.2148933 3.2190037 5.5834765 0 0 0 0 76.183182
4.5811973 3.483675 5.5906343 0 0 0 0 76.188133
4.9272742 3.7620299 5.6077785 0 0 0 0 76.193077
5.2931018 4.066607 5.6233921 0 0 0 0 76.198021
4.1480489 3.3033586 5.580924 0 0 0 0 76.202972
4.5012512 3.5778995 5.5880857 0 0 0 0 76.207916
4.8371696 3.8691194 5.608294 0 0 0 0 76.212868
5.183989 4.1785631 5.618804 0 0 0 0 76.217812
4.0792232 3.3867042 5.577343 0 0 0 0 76.222763
4.4222956 3.6721218 5.5865464 0 0 0 0 76.227707
4.7352624 3.9652026 5.5985818 0 0 0 0 76.232651
5.0738411 4.2904625 5.6182065 0 0 0 0 76.237602
4.0153055 3.4730194 5.5808396 0 0 0 0 76.242546
4.338378 3.7633049 5.58393 0 0 0 0 76.247498
4.6343474 4.0602727 5.5908675 0 0 0 0 76.252441
4.9607692 4.3973651 5.6145272 0 0 0 0 76.257385
3.9464436 3.5563178 5.5812593 0 0 0 0 76.262337
4.2524996 3.8514788 5.5802622 0 0 0 0 76.267281
4.5402756 4.1612849 5.5942807 0 0 0 0 76.272232
4.8456888 4.5032244 5.6128192 0 0 0 0 76.277176
3.8699112 3.6317308 5.5708699 0 0 0 0 76.040253
4.1667924 3.9397035 5.5769119 0 0 0 0 76.045204
4.4326286 4.2503428 5.584722 0 0 0 0 76.050148
4.7259269 4.6020989 5.6072373 0 0 0 0 76.055092
3.8020086 3.7159965 5.5753078 0 0 0 0 76.060043
4.0779295 4.0258393 5.5741954 0 0 0 0 76.064987
4.3316669 4.3443351 5.5839949 0 0 0 0 76.069939
4.601016 4.6959205 5.6003075 0 0 0 0 76.074883
3.7262549 3.7922735 5.5715871 0 0 0 0 76.079826
3.9890583 4.1109514 5.5734668 0 0 0 0 76.084778
4.2257533 4.434289 5.58218 0 0 0 0 76.089722
4.4751353 4.7867308 5.5933347 0 0 0 0 76.094673
3.6475465 3.8665538 5.5648184 0 0 0 0 76.099617
3.8972344 4.1930561 5.5706792 0 0 0 0 76.104561
4.1198511 4.5222301 5.5813422 0 0 0 0 76.109512
4.3423862 4.8695397 5.5802112 0 0 0 0 76.114456
3.5746911 3.946779 5.5681686 0 0 0 0 76.119408
3.8034387 4.2731509 5.5668516 0 0 0 0 76.124352
4.0051169 4.6011839 5.5713253 0 0 0 0 76.129303
4.2213979 4.9622836 5.583303 0 0 0 0 76.134247
3.4939744 4.0200152 5.5633721 0 0 0 0 76.139191
3.704746 4.3472533 5.5579138 0 0 0 0 76.144142
3.8933201 4.681098 5.5673456 0 0 0 0 76.149086
4.2467899 5.2391958 5.7927642 0 0 0 0 76.154037
3.4122779 4.0912409 5.5585437 0 0 0 0 76.158981
3.6118603 4.429265 5.5621176 0 0 0 0 76.163925
3.7776079 4.7560172 5.5592747 0 0 0 0 76.168877
4.1109586 5.3228788 5.7876272 0 0 0 0 76.17382
3.3334901 4.1654162 5.5607748 0 0 0 0 76.178772
3.513144 4.501308 5.5581565 0 0 0 0 76.183716
3.679404 4.8537707 5.5816174 0 0 0 0 76.188667
3.9692819 5.3955584 5.7773132 0 0 0 0 76.193611
3.2487938 4.2355986 5.5569096 0 0 0 0 76.198555
3.4075859 4.5653834 5.5450449 0 0 0 0 76.203506
3.6852982 5.0977082 5.770535 0 0 0 0 76.20845
3.8334012 5.4771481 5.7801523 0 0 0 0 76.213402
3.161201 4.299808 5.5479507 0 0 0 0 76.218346
3.3097763 4.641366 5.5471373 0 0 0 0 76.223289
3.5635605 5.1705065 5.7673907 0 0 0 0 76.228241
3.6917198 5.5467792 5.7738037 0 0 0 0 76.233185
3.0784321 4.3719401 5.5501251 0 0 0 0 76.238136
3.2003055 4.6984234 5.5319118 0 0 0 0 76.24308
3.4389074 5.2383199 5.7601628 0 0 0 0 76.248024
3.5519638 5.6193728 5.7725053 0 0 0 0 76.252975
2.984925 4.4301229 5.5380468 0 0 0 0 76.257919
3.1703534 4.8786659 5.6607895 0 0 0 0 76.262871
3.3161547 5.3090601 5.7609863 0 0 0 0 76.267815
3.4083521 5.681982 5.7660589 0 0 0 0 76.272766
2.8972588 4.4962611 5.53511 0 0 0 0 76.27771
3.1072202 5.0181074 5.7419133 0 0 0 0 76.282654
3.1885445 5.3708181 5.7556643 0 0 0 0 76.287605
3.2627537 5.7415485 5.7615604 0 0 0 0 76.292549
2.8066144 4.5593576 5.5331135 0 0 0 0 76.297501
2.9965725 5.0820131 5.738759 0 0 0 0 76.302444
3.0589819 5.4295783 5.7482905 0 0 0 0 76.307388
3.1113918 5.7871799 5.7458515 0 0 0 0 76.31234
2.7372143 4.6591663 5.5757232 0 0 0 0 76.317284
2.8810761 5.1369481 5.7284589 0 0 0 0 76.322235
2.9303944 5.4873018 5.7449131 0 0 0 0 76.327179
2.9677408 5.846694 5.7473688 0 0 0 0 76.33213
2.716917 4.8532391 5.7278457 0 0 0 0 76.337074
2.7684681 5.1968322 5.7252407 0 0 0 0 76.342018
2.7998559 5.5410161 5.7404733 0 0 0 0 76.34697
2.8164136 5.8862891 5.7345896 0 0 0 0 76.351913
2.6250749 4.9251833 5.7379427 0 0 0 0 76.356865
2.6568239 5.25769 5.7250419 0 0 0 0 76.361809
2.6655445 5.5818162 5.7248502 0 0 0 0 76.366753
2.6708999 5.9348168 5.7329636 0 0 0 0 76.371704
2.5245502 4.9812441 5.7297807 0 0 0 0 76.376648
2.5383601 5.3075695 5.7166581 0 0 0 0 76.381599
2.5369434 5.6364789 5.7264376 0 0 0 0 76.386543
2.5205686 5.971374 5.7241573 0 0 0 0 76.391487
2.4201035 5.0312872 5.7195163 0 0 0 0 76.396439
2.4208977 5.3564467 5.7092705 0 0 0 0 76.401382
2.3996654 5.6722236 5.7127309 0 0 0 0 76.406334
2.371259 6.0049286 5.7163248 0 0 0 0 76.411278
2.3233469 5.0972128 5.7265015 0 0 0 0 76.416229
2.3043253 5.4092402 5.7099361 0 0 0 0 76.421173
2.2643523 5.707942 5.7030396 0 0 0 0 76.426117
2.2218943 6.0404358 5.7125134 0 0 0 0 76.431068
2.2178838 5.1462097 5.7192159 0 0 0 0 76.436012
2.1848671 5.4550614 5.7054958 0 0 0 0 76.440964
2.1318903 5.7505851 5.7024536 0 0 0 0 76.445908
2.0725429 6.0729189 5.7106671 0 0 0 0 76.450851
2.111448 5.1942182 5.7099104 0 0 0 0 76.455803
2.0663726 5.5018563 5.7040753 0 0 0 0 76.460747
1.9975442 5.7852535 5.6977587 0 0 0 0 76.465698
1.9204392 6.0904984 5.6976237 0 0 0 0 76.470642
2.0058749 5.2471204 5.710669 0 0 0 0 76.475586
1.9449635 5.5436659 5.6985712 0 0 0 0 76.480537
1.8631995 5.8189092 5.6940513 0 0 0 0 76.485481
1.772094 6.1189427 5.6997385 0 0 0 0 76.490433
1.8965547 5.2871442 5.6972456 0 0 0 0 76.495377
1.8216702 5.5775018 5.6889586 0 0 0 0 76.500328
1.727875 5.8505535 5.6903119 0 0 0 0 76.505272
1.625721 6.1483836 5.7038808 0 0 0 0 76.510216
1.7880168 5.3320026 5.6931043 0 0 0 0 76.595169
1.7011057 5.6191678 5.6906838 0 0 0 0 76.600121
1.5925211 5.8761368 5.685729 0 0 0 0 76.605064
1.4717398 6.147923 5.6858411 0 0 0 0 76.610008
1.6804259 5.3838453 5.6968322 0 0 0 0 76.61496
1.5768062 5.6509547 5.6840363 0 0 0 0 76.619904
1.4572399 5.9017539 5.6839175 0 0 0 0 76.624855
1.3226196 6.1594219 5.6817489 0 0 0 0 76.629799
1.5671198 5.4197888 5.6863256 0 0 0 0 76.63475
1.4505941 5.6767554 5.6743031 0 0 0 0 76.639694
1.3200084 5.9233613 5.6810422 0 0 0 0 76.644638
1.1744545 6.1718826 5.6816745 0 0 0 0 76.64959
1.4547393 5.4586835 5.680861 0 0 0 0 76.654533
1.3280998 5.7164092 5.6807623 0 0 0 0 76.659485
1.1819775 5.9330626 5.6690207 0 0 0 0 76.664429
1.0236055 6.1654758 5.667357 0 0 0 0 76.669373
1.3441815 5.5054698 5.6865044 0 0 0 0 76.674324
1.2009577 5.7362094 5.66995 0 0 0 0 76.679268
1.0449501 5.9407501 5.6589837 0 0 0 0 76.684219
0.87661695 6.1650043 5.6621404 0 0 0 0 76.689163
1.2278796 5.5383458 5.6789355 0 0 0 0 76.694107
1.0747893 5.7559843 5.6621456 0 0 0 0 76.699059
0.90978146 5.9553638 5.6570425 0 0 0 0 76.704002
0.72976422 6.1555896 5.6518207 0 0 0 0 76.708954
1.1126548 5.5662656 5.6683178 0 0 0 0 76.713898
0.94861245 5.7757463 5.6553397 0 0 0 0 76.718849
0.77184498 5.9550514 5.6459031 0 0 0 0 76.723793
0.58208531 6.1352458 5.6343646 0 0 0 0 76.728737
0.99630952 5.5990815 5.6657472 0 0 0 0 76.733688
0.82137334 5.7964277 5.6545353 0 0 0 0 76.738632
0.63576734 5.9616642 5.6428599 0 0 0 0 76.743584
0.43608657 6.1307111 5.6351075 0 0 0 0 76.748528
0.8790223 5.6279101 5.6611218 0 0 0 0 76.753471
0.69426823 5.8091779 5.6476388 0 0 0 0 76.758423
0.49873093 5.9642668 5.6397605 0 0 0 0 76.763367
0.29062292 6.0954685 5.6104951 0 0 0 0 76.768318
0.75889003 5.6467772 5.6503549 0 0 0 0 76.773262
0.56523204 5.8169303 5.6386666 0 0 0 0 76.778206
0.36279252 5.9599133 5.6335893 0 0 0 0 76.783157
0.13808158 5.5137939 5.0894365 0 0 0 0 76.788101
0.64139748 5.6844516 5.6588302 0 0 0 0 76.793053
0.43704596 5.8315873 5.6387825 0 0 0 0 76.797997
0.22789367 5.9525809 5.6263905 0 0 0 0 76.802948
0.010160234 5.501431 5.091238 0 0 0 0 76.807892
0.51926833 5.7012734 5.6500211 0 0 0 0 76.812836
0.30898535 5.8383012 5.6338053 0 0 0 0 76.817787
0.088369802 5.435616 5.1431918 0 0 0 0 76.822731
-0.11643544 5.470253 5.0778298 0 0 0 0 76.827682
0.39813042 5.7180924 5.64222 0 0 0 0 76.832626
0.17999378 5.8400278 5.626761 0 0 0 0 76.83757
-0.032198396 5.3541679 5.0712461 0 0 0 0 76.842522
-0.24303767 5.4380512 5.0664082 0 0 0 0 76.847466
0.27792847 5.7368627 5.6394496 0 0 0 0 76.852417
0.052433942 5.3876915 5.1874137 0 0 0 0 76.857361
-0.15218145 5.3478837 5.0731831 0 0 0 0 76.862312
-0.41335475 5.9882188 5.5974245 0 0 0 0 76.867256
0.15386122 5.7476611 5.6305523 0 0 0 0 76.8722
-0.063579381 5.2806702 5.0822053 0 0 0 0 76.877151
-0.27300051 5.3316703 5.0679965 0 0 0 0 76.882095
-0.55087572 5.9468884 5.5868034 0 0 0 0 76.887047
0.030339262 5.7277646 5.5952992 0 0 0 0 76.891991
-0.18040684 5.2695551 5.0721111 0 0 0 0 76.896935
-0.39273143 5.3095012 5.0597486 0 0 0 0 76.901886
-0.68760526 5.9164376 5.5873146 0 0 0 0 76.90683
-0.08003962 5.2717814 5.1410475 0 0 0 0 76.911781
-0.29636723 5.2653675 5.0691047 0 0 0 0 76.916725
-0.51380229 5.3040991 5.070684 0 0 0 0 76.921669
-0.82225525 5.8800306 5.5857735 0 0 0 0 76.92662
-0.19206743 5.2232571 5.0835543 0 0 0 0 76.931564
-0.41347775 5.2680626 5.0751686 0 0 0 0 76.936516
-0.6325382 5.2799034 5.0654197 0 0 0 0 76.94146
-0.86053413 5.2846408 5.0565104 0 0 0 0 76.946411
-0.30513999 5.2290859 5.0816884 0 0 0 0 76.951355
-0.53045195 5.261816 5.076128 0 0 0 0 76.956299
-0.750319 5.256671 5.0641732 0 0 0 0 76.96125
-0.97797799 5.236515 5.0459752 0 0 0 0 76.966194
-0.42039227 5.2437763 5.0899067 0 0 0 0 76.971146
-0.64501464 5.2328243 5.0568409 0 0 0 0 76.976089
-0.86804068 5.2294607 5.0608802 0 0 0 0 76.981033
-1.0944768 5.190351 5.0394707 0 0 0 0 76.985985
-0.53306031 5.2258153 5.0697641 0 0 0 0 76.990929
-0.76089877 5.2196097 5.0557265 0 0 0 0 76.99588
-0.98581761 5.2042027 5.0616083 0 0 0 0 77.000824
-1.2034861 5.1165295 5.0097051 0 0 0 0 77.005775
-0.64817441 5.2305508 5.0738659 0 0 0 0 77.010719
-0.8777706 5.2043724 5.0555792 0 0 0 0 77.015663
-1.0992866 5.16115 5.0481639 0 0 0 0 77.020615
-1.3352585 5.1364317 5.0708418 0 0 0 0 77.025558
-0.76637143 5.238184 5.0839748 0 0 0 0 77.03051
-0.99145895 5.1782594 5.0473309 0 0 0 0 77.035454
-1.2139332 5.125957 5.0458007 0 0 0 0 77.040398
-1.5908499 5.5653586 5.5417128 0 0 0 0 77.045349
-0.87890047 5.210268 5.0597138 0 0 0 0 77.050293
-1.1061263 5.1501355 5.0390491 0 0 0 0 77.055244
-1.3404659 5.1371078 5.0898786 0 0 0 0 77.060188
-1.7153559 5.5120006 5.5440526 0 0 0 0 77.065132
-0.9932183 5.1923742 5.051796 0 0 0 0 77.644127
-1.2224979 5.1290612 5.0420408 0 0 0 0 77.649078
-1.5936291 5.5642147 5.5529819 0 0 0 0 77.654022
-1.8332191 5.4428992 5.5334492 0 0 0 0 77.658966
-1.1123543 5.1939764 5.0618105 0 0 0 0 77.663918
-1.3458619 5.1353841 5.0720749 0 0 0 0 77.668861
-1.7171293 5.5169306 5.5483785 0 0 0 0 77.673813
-1.9568381 5.3934255 5.5448189 0 0 0 0 77.678757
-1.2206354 5.1491723 5.0303664 0 0 0 0 77.683708
-1.591018 5.5447721 5.5028443 0 0 0 0 77.688652
-1.8376275 5.4686651 5.5447884 0 0 0 0 77.693596
-2.0699639 5.3183527 5.5309734 0 0 0 0 77.698547
-1.3417658 5.1477165 5.0433254 0 0 0 0 77.703491
-1.7306184 5.5587201 5.5498271 0 0 0 0 77.708443
-1.9569848 5.4104571 5.5370884 0 0 0 0 77.713387
-2.184212 5.2481737 5.5251756 0 0 0 0 77.71833
-1.4853368 5.2201552 5.1309686 0 0 0 0 77.723282
-1.8573568 5.5273056 5.553381 0 0 0 0 77.728226
-2.0764964 5.3601527 5.5374799 0 0 0 0 77.733177
-2.2995911 5.1828761 5.5284247 0 0 0 0 77.738121
-1.7424036 5.6285262 5.5516229 0 0 0 0 77.743065
-1.9787819 5.4781103 5.5427685 0 0 0 0 77.748016
