# .PCD v0.7 - Point Cloud Data file format
VERSION 0.7
FIELDS x y z normal_x normal_y normal_z intensity curvature
SIZE 4 4 4 4 4 4 4 4
TYPE F F F F F F F F
COUNT 1 1 1 1 1 1 1 1
WIDTH 975
HEIGHT 1
VIEWPOINT 0 0 0 1 0 0 0
POINTS 975
DATA ascii
0.46096909 -1.3700885 1.5462834 0 0 0 0 35.670921
1.1248339 -2.3774948 3.0922785 0 0 0 0 35.675869
0.82194823 -1.9039121 2.3606739 0 0 0 0 35.680817
0.65243107 -1.6470261 1.9514503 0 0 0 0 35.685764
0.52906674 -1.4643881 1.6610126 0 0 0 0 35.690712
1.1839752 -2.3696823 3.1251378 0 0 0 0 35.695656
0.96724761 -2.111594 2.6480629 0 0 0 0 35.700603
0.75060165 -1.7784659 2.1250546 0 0 0 0 35.705551
0.61018199 -1.5757449 1.7976873 0 0 0 0 35.710499
1.2250826 -2.3267751 3.1140864 0 0 0 0 35.715446
1.1596401 -2.3915024 3.0342426 0 0 0 0 35.720394
0.88082904 -1.9640619 2.3685119 0 0 0 0 35.725338
0.70531476 -1.7041612 1.9563048 0 0 0 0 35.730286
1.2681934 -2.2888789 3.1090245 0 0 0 0 35.735233
1.2077373 -2.3596222 3.0301595 0 0 0 0 35.740181
1.0501195 -2.207839 2.687798 0 0 0 0 35.745129
0.81447411 -1.8486382 2.1388664 0 0 0 0 35.750076
1.3103098 -2.2499795 3.1049674 0 0 0 0 35.75502
1.2508266 -2.3197176 3.0160997 0 0 0 0 35.759968
1.1903627 -2.36744 2.912255 0 0 0 0 35.764915
0.96168166 -2.0552926 2.3962564 0 0 0 0 35.769863
1.3494219 -2.2070663 3.0959234 0 0 0 0 35.774811
1.2929183 -2.2788095 3.0020447 0 0 0 0 35.779755
1.2384441 -2.3325522 2.9001753 0 0 0 0 35.784702
1.1759839 -2.3702617 2.7873452 0 0 0 0 35.78965
1.3915437 -2.1711702 3.0968645 0 0 0 0 35.794598
1.3360164 -2.241909 2.993983 0 0 0 0 35.799545
1.281521 -2.2906415 2.8801181 0 0 0 0 35.804493
1.2300614 -2.3463993 2.7842374 0 0 0 0 35.809437
1.4305131 -2.1325457 3.0933058 0 0 0 0 35.562557
1.3759456 -2.1992681 2.9794281 0 0 0 0 35.567505
1.3244182 -2.2509985 2.8635545 0 0 0 0 35.572453
1.2739205 -2.3047426 2.7586756 0 0 0 0 35.5774
1.4696372 -2.0926399 3.0902579 0 0 0 0 35.582344
1.418049 -2.1623685 2.9723675 0 0 0 0 35.587292
1.3644999 -2.2090824 2.8445048 0 0 0 0 35.592239
1.3189975 -2.2648423 2.7396078 0 0 0 0 35.597187
1.5087674 -2.0557382 3.0922077 0 0 0 0 35.602135
1.4561511 -2.1194506 2.9593258 0 0 0 0 35.607079
1.4085946 -2.1711853 2.8334391 0 0 0 0 35.612026
1.3620706 -2.2229326 2.7175491 0 0 0 0 35.616974
1.5479033 -2.0188375 3.0961578 0 0 0 0 35.621922
1.49726 -2.0825486 2.9542696 0 0 0 0 35.626869
1.4516888 -2.1332843 2.822377 0 0 0 0 35.631817
1.4071503 -2.1850338 2.7014806 0 0 0 0 35.636761
1.5900421 -1.9849489 3.1040959 0 0 0 0 35.641708
1.5383745 -2.0456476 2.9512136 0 0 0 0 35.646656
1.4907789 -2.0913663 2.8063321 0 0 0 0 35.651604
1.4482321 -2.1421187 2.6814299 0 0 0 0 35.656551
1.6271765 -1.94704 3.1070542 0 0 0 0 35.661499
1.5784918 -2.0087438 2.9491613 0 0 0 0 35.666443
1.5348852 -2.0564735 2.8022649 0 0 0 0 35.671391
1.494324 -2.1062272 2.6713574 0 0 0 0 35.676338
1.6633132 -1.9071264 3.1090181 0 0 0 0 35.681286
1.6186116 -1.9708395 2.9471104 0 0 0 0 35.686234
1.5729837 -2.0135529 2.7882249 0 0 0 0 35.691181
1.5364149 -2.0653186 2.6563027 0 0 0 0 35.696125
1.7034625 -1.8732333 3.1209641 0 0 0 0 35.701073
1.6557271 -1.9299219 2.9410722 0 0 0 0 35.70602
1.6120853 -1.9736384 2.7781792 0 0 0 0 35.710968
1.5785116 -2.0254116 2.6442473 0 0 0 0 35.715916
1.7416075 -1.8373307 3.1299186 0 0 0 0 35.720863
1.698859 -1.8980342 2.9490073 0 0 0 0 35.725807
1.6552026 -1.9377434 2.777118 0 0 0 0 35.730755
1.6196078 -1.9845005 2.6311967 0 0 0 0 35.735703
1.7757452 -1.7964092 3.1318908 0 0 0 0 35.74065
1.7339826 -1.8551103 2.9439781 0 0 0 0 35.745598
1.6973162 -1.900843 2.774061 0 0 0 0 35.750542
1.6627132 -1.9455992 2.6231384 0 0 0 0 35.755489
1.809885 -1.756489 3.1358621 0 0 0 0 35.760437
1.7741094 -1.8182069 2.9459279 0 0 0 0 35.765385
1.7354286 -1.8599263 2.7670207 0 0 0 0 35.770332
1.7048181 -1.9066943 2.6150839 0 0 0 0 35.77528
1.850047 -1.7225976 3.1528099 0 0 0 0 35.780224
1.8102382 -1.7782892 2.9458935 0 0 0 0 35.785172
1.7775564 -1.8230292 2.7689648 0 0 0 0 35.790119
1.7479318 -1.8677943 2.6100266 0 0 0 0 35.795067
1.8841916 -1.682678 3.1587822 0 0 0 0 35.800014
1.8523856 -1.7433985 2.9568362 0 0 0 0 35.804962
1.8186774 -1.7851254 2.7679133 0 0 0 0 35.809906
1.7890447 -1.8268859 2.6029778 0 0 0 0 35.814854
1.9223546 -1.6467783 3.1747389 0 0 0 0 35.819801
1.8905227 -1.70549 2.9617946 0 0 0 0 35.824749
1.8558004 -1.7432066 2.7638783 0 0 0 0 35.829697
1.8331637 -1.7899911 2.6019166 0 0 0 0 35.834641
1.9575105 -1.6088656 3.1867068 0 0 0 0 35.839588
1.9266585 -1.6645721 2.9637625 0 0 0 0 35.844536
1.8979356 -1.7063099 2.7688236 0 0 0 0 35.849483
1.8712813 -1.7460718 2.5938804 0 0 0 0 35.854431
1.9926683 -1.5699521 3.1986763 0 0 0 0 35.859379
1.9648033 -1.6256639 2.9707224 0 0 0 0 35.864323
1.9360634 -1.6643946 2.7667866 0 0 0 0 35.86927
1.915411 -1.7071774 2.5948219 0 0 0 0 35.874218
2.0328412 -1.5350606 3.2196269 0 0 0 0 35.879166
2.0069599 -1.5897729 2.984668 0 0 0 0 35.884113
1.9751999 -1.624486 2.7697446 0 0 0 0 35.889061
1.9585433 -1.6672792 2.595768 0 0 0 0 35.894005
2.0690095 -1.4961523 3.235594 0 0 0 0 35.898952
2.0461123 -1.550869 2.9946258 0 0 0 0 35.9039
2.0203514 -1.5886021 2.7816813 0 0 0 0 35.908848
1.9986745 -1.6253699 2.5947254 0 0 0 0 35.913795
2.1031737 -1.4562356 3.2495687 0 0 0 0 35.918743
2.0872731 -1.5139744 3.0095763 0 0 0 0 35.923687
2.0584955 -1.5466899 2.7856455 0 0 0 0 35.928635
2.0368075 -1.5814532 2.5926912 0 0 0 0 35.933582
2.1393464 -1.4183285 3.2685354 0 0 0 0 35.93853
2.1244297 -1.4730631 3.0195429 0 0 0 0 35.943478
2.1016483 -1.5077968 2.7955921 0 0 0 0 35.948425
2.0869627 -1.5455837 2.6056137 0 0 0 0 35.953369
2.1785276 -1.3814328 3.2914927 0 0 0 0 35.958317
2.1666007 -1.4351726 3.037492 0 0 0 0 35.963264
2.1428058 -1.4668972 2.8055468 0 0 0 0 35.968212
2.1261065 -1.5006713 2.6065781 0 0 0 0 35.97316
2.2127008 -1.3405167 3.3084691 0 0 0 0 35.978104
2.2057645 -1.3952692 3.0514524 0 0 0 0 35.983051
2.1839628 -1.425997 2.8155019 0 0 0 0 35.987999
2.1702621 -1.4587786 2.6145253 0 0 0 0 35.992947
2.2559011 -1.3046379 3.3394144 0 0 0 0 35.997894
2.2459426 -1.3543713 3.0694113 0 0 0 0 36.002842
2.2251246 -1.3840967 2.8264585 0 0 0 0 36.007786
2.216423 -1.4178934 2.6254659 0 0 0 0 36.012733
2.2920876 -1.2647313 3.3623846 0 0 0 0 36.017681
2.2821043 -1.3114551 3.0803843 0 0 0 0 36.022629
2.2682977 -1.3422048 2.8414094 0 0 0 0 36.027576
2.2565792 -1.371985 2.6304293 0 0 0 0 36.032524
2.3272769 -1.2226803 3.3825626 0 0 0 0 36.126347
2.3223059 -1.2694225 3.0995479 0 0 0 0 36.131294
2.3094971 -1.2991748 2.8545709 0 0 0 0 36.136242
2.3017898 -1.3289702 2.6435788 0 0 0 0 36.14119
2.3664768 -1.182784 3.4115255 0 0 0 0 36.146137
2.3644934 -1.2285304 3.1225028 0 0 0 0 36.151085
2.3536775 -1.2562848 2.8725216 0 0 0 0 36.156029
2.3489664 -1.2860875 2.6595209 0 0 0 0 36.160976
2.4096873 -1.1439022 3.4454761 0 0 0 0 36.165924
2.4036736 -1.1846249 3.1404698 0 0 0 0 36.170872
2.3928509 -1.2103759 2.8854904 0 0 0 0 36.175819
2.3971479 -1.2422079 2.6764615 0 0 0 0 36.180767
2.4448755 -1.100988 3.4684541 0 0 0 0 36.185711
2.4508824 -1.1437519 3.171411 0 0 0 0 36.190659
2.4450562 -1.1695158 2.914417 0 0 0 0 36.195606
2.4413307 -1.1953143 2.691417 0 0 0 0 36.200554
2.4860892 -1.0600989 3.5024133 0 0 0 0 36.205502
2.4930811 -1.0998589 3.1963699 0 0 0 0 36.210449
2.4892509 -1.1246268 2.9363708 0 0 0 0 36.215393
2.4915273 -1.1494416 2.7123542 0 0 0 0 36.220341
2.5293102 -1.0182163 3.5383677 0 0 0 0 36.225288
2.5282636 -1.0529389 3.2133524 0 0 0 0 36.230236
2.5384591 -1.0797548 2.963311 0 0 0 0 36.235184
2.5357168 -1.1005472 2.728312 0 0 0 0 36.240128
2.5705328 -0.97532696 3.5743294 0 0 0 0 36.245075
2.5764885 -1.0090692 3.2482944 0 0 0 0 36.250023
2.579654 -1.030853 2.9822776 0 0 0 0 36.254971
2.5889285 -1.054686 2.7552419 0 0 0 0 36.259918
2.6097479 -0.93042809 3.6062992 0 0 0 0 36.264866
2.6217065 -0.96318692 3.2792478 0 0 0 0 36.26981
2.6238594 -0.98296291 3.0062358 0 0 0 0 36.274757
2.6421502 -1.0058244 2.7831748 0 0 0 0 36.279705
2.6549823 -0.88755214 3.6472502 0 0 0 0 36.284653
2.666929 -0.91730523 3.3122015 0 0 0 0 36.2896
2.6811013 -0.9371199 3.0451548 0 0 0 0 36.294548
2.6863527 -0.95392984 2.8021367 0 0 0 0 36.299492
2.6932058 -0.8396495 3.6802258 0 0 0 0 36.30444
2.7121553 -0.86942267 3.3451571 0 0 0 0 36.309387
2.7243154 -0.88622594 3.0701189 0 0 0 0 36.314335
2.7365773 -0.90205729 2.8290815 0 0 0 0 36.319283
2.7394543 -0.79477763 3.7251763 0 0 0 0 36.32423
2.7533746 -0.81852412 3.3731272 0 0 0 0 36.329174
2.7725511 -0.83435047 3.1020701 0 0 0 0 36.334122
2.7878149 -0.84818888 2.8590257 0 0 0 0 36.339069
2.7857068 -0.74790478 3.770129 0 0 0 0 36.344017
2.8056326 -0.76966769 3.4170647 0 0 0 0 36.348965
2.8257995 -0.78249162 3.1390071 0 0 0 0 36.353912
2.8410563 -0.79432654 2.890965 0 0 0 0 36.358856
2.8249431 -0.69800532 3.8071046 0 0 0 0 36.363804
2.8538802 -0.71879518 3.4560156 0 0 0 0 36.368752
2.8770492 -0.72962624 3.1759515 0 0 0 0 36.373699
2.8902934 -0.73744899 2.9189184 0 0 0 0 36.378647
2.8792298 -0.65116262 3.8650355 0 0 0 0 36.383591
2.9101605 -0.66795301 3.5069442 0 0 0 0 36.388538
2.9273057 -0.67375714 3.2129016 0 0 0 0 36.393486
2.9495687 -0.68060881 2.9608438 0 0 0 0 36.398434
2.9264996 -0.6002925 3.91399 0 0 0 0 36.403381
2.9584246 -0.61308074 3.5488997 0 0 0 0 36.408329
2.9775658 -0.61688769 3.2508528 0 0 0 0 36.413273
3.0028305 -0.6207456 2.9957893 0 0 0 0 36.418221
2.9657505 -0.54639262 3.9539702 0 0 0 0 36.423168
3.0137095 -0.55923343 3.5998344 0 0 0 0 36.428116
3.0388587 -0.56005645 3.3007736 0 0 0 0 36.433064
3.0631163 -0.5609073 3.0397155 0 0 0 0 36.438011
3.0180452 -0.49354017 4.0109129 0 0 0 0 36.442955
3.0639894 -0.50136751 3.6457875 0 0 0 0 36.447903
3.094146 -0.5002045 3.3467143 0 0 0 0 36.45285
3.1254168 -0.49807543 3.0866389 0 0 0 0 36.457798
3.0663321 -0.43967345 4.0648685 0 0 0 0 36.462746
3.1132731 -0.44249856 3.6927447 0 0 0 0 36.46769
3.1584656 -0.43938422 3.4036312 0 0 0 0 36.472637
3.1957433 -0.43527156 3.1435409 0 0 0 0 36.477585
3.1176364 -0.38281679 4.1228185 0 0 0 0 36.482533
3.1705856 -0.38265777 3.7496805 0 0 0 0 36.48748
3.2117629 -0.37452447 3.4495826 0 0 0 0 36.492428
3.2570591 -0.3674359 3.1924727 0 0 0 0 36.497372
3.1799784 -0.32700002 4.1957369 0 0 0 0 36.502319
3.2299099 -0.32082334 3.809613 0 0 0 0 36.507267
3.2740917 -0.30869612 3.50651 0 0 0 0 36.512215
3.3203866 -0.29860732 3.2454002 0 0 0 0 36.517162
3.2383173 -0.26716799 4.2646708 0 0 0 0 36.52211
3.2882376 -0.25698495 3.8695502 0 0 0 0 36.527054
3.3354292 -0.24086531 3.5654426 0 0 0 0 36.532001
3.395756 -0.22581859 3.3102977 0 0 0 0 36.536949
3.286629 -0.20529953 4.3226347 0 0 0 0 36.541897
3.3515933 -0.19016464 3.9374766 0 0 0 0 36.546844
3.4108117 -0.17108178 3.6393383 0 0 0 0 36.551792
3.4560952 -0.15097921 3.3632398 0 0 0 0 36.556736
3.346988 -0.14147399 4.3965673 0 0 0 0 36.561684
3.4159575 -0.12234783 4.0084019 0 0 0 0 36.566631
3.4691553 -0.097238585 3.6962852 0 0 0 0 36.571579
3.5375009 -0.073210873 3.4381261 0 0 0 0 36.576527
3.4043419 -0.076637559 4.4685092 0 0 0 0 36.581474
3.4783273 -0.050523493 4.0783358 0 0 0 0 36.586418
3.5445595 -0.021454953 3.7741868 0 0 0 0 36.591366
3.6118982 0.0065807528 3.5090344 0 0 0 0 36.596313
3.4632039 -0.0086241681 4.5438285 0 0 0 0 37.135223
3.5623517 0.024397852 4.1766124 0 0 0 0 37.140171
3.6176119 0.058495779 3.8525083 0 0 0 0 37.145119
3.6759844 0.091555536 3.573396 0 0 0 0 37.150063
3.5265613 0.062212829 4.6257687 0 0 0 0 37.15501
3.632726 0.10121799 4.2585402 0 0 0 0 37.159958
3.6950076 0.14129747 3.9364226 0 0 0 0 37.164906
3.770421 0.18131042 3.6662726 0 0 0 0 37.169853
3.5919335 0.13504323 4.7127061 0 0 0 0 37.174801
3.6950872 0.18106359 4.3334899 0 0 0 0 37.179745
3.7824404 0.22806907 4.0323153 0 0 0 0 37.184692
3.8558471 0.27309218 3.7541745 0 0 0 0 37.18964
3.6633275 0.21085626 4.8066306 0 0 0 0 37.194588
3.7805252 0.26483724 4.4363861 0 0 0 0 37.199535
3.8668766 0.31885049 4.1272192 0 0 0 0 37.204483
3.9563265 0.37182963 3.8580444 0 0 0 0 37.209427
3.7377479 0.29065859 4.9085512 0 0 0 0 37.214375
3.8719966 0.35359198 4.5492716 0 0 0 0 37.219322
3.9583466 0.41461062 4.23211 0 0 0 0 37.22427
4.002676 0.4687297 3.9130483 0 0 0 0 37.229218
3.8121727 0.37346277 5.0104747 0 0 0 0 37.234165
3.9022865 0.44053954 4.5923076 0 0 0 0 37.239109
3.9174385 0.4977766 4.1983209 0 0 0 0 37.244057
3.9327114 0.55197918 3.8553312 0 0 0 0 37.249004
3.8113425 0.45150971 5.0155816 0 0 0 0 37.253952
3.8442922 0.51576304 4.5325546 0 0 0 0 37.2589
3.8504543 0.57601994 4.1385913 0 0 0 0 37.263847
3.8667586 0.63321304 3.804601 0 0 0 0 37.268791
3.7573204 0.52072656 4.9518132 0 0 0 0 37.273739
3.7822928 0.58999521 4.4718089 0 0 0 0 37.278687
3.7874773 0.65224916 4.083849 0 0 0 0 37.283634
3.8008032 0.7124449 3.754868 0 0 0 0 37.288582
3.7073202 0.59092754 4.8960338 0 0 0 0 37.293526
3.728308 0.66220212 4.4190407 0 0 0 0 37.298473
3.7305193 0.72745711 4.0380898 0 0 0 0 37.303421
3.7348452 0.78867406 3.7071311 0 0 0 0 37.308369
3.6452663 0.65616637 4.8232799 0 0 0 0 37.313316
3.6683109 0.73242366 4.3632846 0 0 0 0 37.318264
3.6685445 0.79967803 3.9883394 0 0 0 0 37.323208
3.6608651 0.86192429 3.6534107 0 0 0 0 37.328156
3.5962639 0.72236055 4.770493 0 0 0 0 37.333103
3.6123214 0.80063134 4.3125162 0 0 0 0 37.338051
3.6095791 0.87088746 3.9435799 0 0 0 0 37.342999
3.6199768 0.93907446 3.6336105 0 0 0 0 37.347946
3.5382252 0.78458154 4.7067246 0 0 0 0 37.35289
3.5563316 0.86783713 4.2627454 0 0 0 0 37.357838
3.5987668 0.95194989 3.9527085 0 0 0 0 37.362785
3.7415996 1.0627426 3.7804458 0 0 0 0 37.367733
3.4862132 0.84778088 4.6529403 0 0 0 0 37.372681
3.5615575 0.9488523 4.2888346 0 0 0 0 37.377625
3.7053571 1.0686576 4.0945759 0 0 0 0 37.382572
3.8542149 1.1904374 3.9223065 0 0 0 0 37.38752
3.4753518 0.91884953 4.6540613 0 0 0 0 37.392467
3.6651461 1.0605648 4.4367061 0 0 0 0 37.397415
3.8129661 1.191363 4.2404456 0 0 0 0 37.402363
3.9829059 1.3310851 4.0851383 0 0 0 0 37.407307
3.563889 1.020604 4.7919621 0 0 0 0 37.412254
3.7667418 1.1772844 4.5845866 0 0 0 0 37.417202
3.9396627 1.3270112 4.4122791 0 0 0 0 37.42215
4.127676 1.4856852 4.2699413 0 0 0 0 37.427097
3.6624765 1.129328 4.9458442 0 0 0 0 37.432045
3.8763869 1.3029796 4.7464547 0 0 0 0 37.436989
4.0703959 1.4716477 4.5931096 0 0 0 0 37.441936
4.2654452 1.6453067 4.4517665 0 0 0 0 37.446884
3.762085 1.2450496 5.1037297 0 0 0 0 37.451832
3.9900665 1.4366627 4.9173193 0 0 0 0 37.456779
4.1971421 1.623296 4.7749557 0 0 0 0 37.461727
5.8221397 2.3997815 6.1355944 0 0 0 0 37.466671
3.8787754 1.3707185 5.2885818 0 0 0 0 37.471619
4.1158137 1.581309 5.1081634 0 0 0 0 37.476566
5.5584311 2.291276 6.378201 0 0 0 0 37.481514
6.0634427 2.662106 6.4572515 0 0 0 0 37.486462
4.003521 1.5073628 5.4884224 0 0 0 0 37.491409
5.0296445 2.0555708 6.2883515 0 0 0 0 37.496353
5.5056472 2.412462 6.3774638 0 0 0 0 37.501301
5.9986959 2.7983217 6.4595556 0 0 0 0 37.506248
4.5309582 1.8117615 6.2464204 0 0 0 0 37.511196
4.9888358 2.1647253 6.2875743 0 0 0 0 37.516144
5.4478478 2.5316613 6.3727355 0 0 0 0 37.521088
5.9239168 2.9295638 6.4538774 0 0 0 0 37.526035
4.4800291 1.8989531 6.2146492 0 0 0 0 37.530983
4.9440093 2.2708905 6.2828026 0 0 0 0 37.535931
5.3910599 2.651854 6.3730035 0 0 0 0 37.540878
5.8421197 3.0578225 6.444212 0 0 0 0 37.545826
4.452199 1.9950715 6.2168274 0 0 0 0 37.55077
4.8991957 2.3780518 6.2830305 0 0 0 0 37.555717
5.3212271 2.7650821 6.3612962 0 0 0 0 37.560665
5.7532978 3.1800978 6.4305568 0 0 0 0 37.565613
4.4203625 2.0911994 6.2170143 0 0 0 0 37.57056
4.8503652 2.4832237 6.2792659 0 0 0 0 37.575508
5.252399 2.8783052 6.3525848 0 0 0 0 37.580452
5.6745219 3.3083403 6.43188 0 0 0 0 37.5854
4.3855152 2.1863353 6.2142067 0 0 0 0 37.590347
4.7945156 2.5854132 6.2705131 0 0 0 0 37.595295
5.1845837 2.9915209 6.3498693 0 0 0 0 37.600243
5.5776715 3.4236326 6.4142351 0 0 0 0 37.605186
4.3483686 2.2787073 6.2086964 0 0 0 0 37.339348
4.7414479 2.6887753 6.2670193 0 0 0 0 37.344296
5.1085572 3.0998971 6.3374076 0 0 0 0 37.349243
5.485724 3.5399997 6.4047914 0 0 0 0 37.354191
4.3095264 2.3728552 6.2059035 0 0 0 0 37.359135
4.6815963 2.7879794 6.2572823 0 0 0 0 37.364082
5.0327244 3.2071402 6.3297167 0 0 0 0 37.36903
5.3848796 3.6513078 6.3901649 0 0 0 0 37.373978
4.2716947 2.4679978 6.2071071 0 0 0 0 37.378925
4.6247697 2.8901706 6.2555389 0 0 0 0 37.383873
4.9579048 3.3153763 6.3270216 0 0 0 0 37.388817
5.2880569 3.7645998 6.3835278 0 0 0 0 37.393764
4.2268376 2.5601599 6.2013249 0 0 0 0 37.398712
4.5669413 2.9913626 6.2547951 0 0 0 0 37.40366
4.8780646 3.4206259 6.319335 0 0 0 0 37.408607
5.1862102 3.8719041 6.3728962 0 0 0 0 37.413555
4.1849985 2.6543107 6.2015352 0 0 0 0 37.418499
4.4980683 3.0865862 6.2420726 0 0 0 0 37.423447
4.7921996 3.5198901 6.3076568 0 0 0 0 37.428394
5.0823565 3.9772115 6.3622661 0 0 0 0 37.433342
4.1361332 2.7454813 6.1947594 0 0 0 0 37.43829
4.4302044 3.1818037 6.233346 0 0 0 0 37.443237
4.7053375 3.619154 6.2979789 0 0 0 0 37.448181
4.9775062 4.0815172 6.3546348 0 0 0 0 37.453129
4.0882769 2.837647 6.19098 0 0 0 0 37.458076
4.3512893 3.2690532 6.211638 0 0 0 0 37.463024
4.6064181 3.7084522 6.2743211 0 0 0 0 37.467972
4.8656149 4.1768417 6.3390126 0 0 0 0 37.472916
4.0374212 2.9298177 6.1882067 0 0 0 0 37.477863
4.2924833 3.3712358 6.2218909 0 0 0 0 37.482811
4.5225749 3.8077004 6.2736316 0 0 0 0 37.487759
4.7497177 4.2701735 6.3233957 0 0 0 0 37.492706
3.9815364 3.0170033 6.1784406 0 0 0 0 37.497654
4.2206173 3.464457 6.216167 0 0 0 0 37.502598
4.4337134 3.9039609 6.26895 0 0 0 0 37.507545
4.6317992 4.3575101 6.3047776 0 0 0 0 37.512493
3.9206407 3.1032009 6.1656837 0 0 0 0 37.517441
4.1386991 3.5487075 6.1974592 0 0 0 0 37.522388
4.3348026 3.9902494 6.2532845 0 0 0 0 37.527336
4.5148864 4.4438396 6.290154 0 0 0 0 37.53228
3.8697972 3.1963654 6.1689067 0 0 0 0 37.537228
4.060812 3.6369412 6.1887426 0 0 0 0 37.542175
4.2369022 4.0765305 6.2426133 0 0 0 0 37.547123
4.3979797 4.5301647 6.2785277 0 0 0 0 37.552071
3.8079062 3.2825613 6.1591492 0 0 0 0 37.557014
3.984942 3.7271655 6.1860209 0 0 0 0 37.561962
4.1369915 4.1608152 6.2299438 0 0 0 0 37.56691
4.2750378 4.6075048 6.2609076 0 0 0 0 37.571857
3.7460206 3.3687541 6.1523905 0 0 0 0 37.576805
3.8990161 3.8074191 6.1693144 0 0 0 0 37.581753
4.0350757 4.2421026 6.2182751 0 0 0 0 37.5867
4.1460605 4.6768613 6.2362938 0 0 0 0 37.591644
3.6871636 3.4599345 6.153626 0 0 0 0 37.596592
3.8110914 3.8866744 6.1546097 0 0 0 0 37.60154
3.9190719 4.3064318 6.185626 0 0 0 0 37.606487
4.0261378 4.7541852 6.2276611 0 0 0 0 37.611435
3.6162436 3.5401504 6.1388817 0 0 0 0 37.616379
3.733227 3.9758959 6.1568861 0 0 0 0 37.621326
3.8171587 4.3857126 6.1779513 0 0 0 0 37.626274
3.8951435 4.8165407 6.203043 0 0 0 0 37.631222
3.547343 3.6233566 6.1301322 0 0 0 0 37.636169
3.6422868 4.0501552 6.1411815 0 0 0 0 37.641117
3.7081993 4.4550138 6.1602845 0 0 0 0 37.646061
3.7651494 4.8768907 6.1804175 0 0 0 0 37.651009
3.4784482 3.7065599 6.1243811 0 0 0 0 37.655956
3.5503523 4.1254144 6.1274776 0 0 0 0 37.660904
3.5952122 4.517324 6.1376204 0 0 0 0 37.665852
3.6411881 4.9412189 6.1687789 0 0 0 0 37.670799
3.4035296 3.7857785 6.1126399 0 0 0 0 37.675743
3.4533837 4.192687 6.1067791 0 0 0 0 37.680691
3.5003612 4.6045723 6.1509275 0 0 0 0 37.685638
3.5091817 4.9955683 6.14715 0 0 0 0 37.690586
3.3286102 3.8639953 6.1018958 0 0 0 0 37.695534
3.3664877 4.2729239 6.1060629 0 0 0 0 37.700478
3.377306 4.6509089 6.1142721 0 0 0 0 37.705425
3.3781705 5.0469127 6.1265144 0 0 0 0 37.710373
3.2547138 3.9462047 6.0981507 0 0 0 0 37.715321
3.2745662 4.3471732 6.1003523 0 0 0 0 37.720268
3.2562706 4.7002349 6.0836115 0 0 0 0 37.725216
3.2582433 5.1132169 6.12886 0 0 0 0 37.73016
3.1757944 4.0234261 6.0894117 0 0 0 0 37.735107
3.174593 4.4114456 6.0816522 0 0 0 0 37.740055
3.176549 4.8094234 6.134891 0 0 0 0 37.745003
3.1524272 5.2014723 6.1601844 0 0 0 0 37.74995
3.0918453 4.0946612 6.073679 0 0 0 0 37.754898
3.0705948 4.4687276 6.0589547 0 0 0 0 37.759842
3.1613503 5.024395 6.3190851 0 0 0 0 37.76479
3.0738554 5.3396325 6.2534742 0 0 0 0 37.769737
3.0099216 4.1698856 6.0659423 0 0 0 0 37.774685
2.9746618 4.5379796 6.0542445 0 0 0 0 37.779633
3.0413563 5.0787063 6.3044186 0 0 0 0 37.784576
2.9700961 5.4378705 6.3027949 0 0 0 0 37.789524
2.9229727 4.2401233 6.0522113 0 0 0 0 37.794472
2.9815676 4.7718868 6.2683978 0 0 0 0 37.799419
2.9193487 5.1290197 6.2877517 0 0 0 0 37.804367
2.8320491 5.4742193 6.2831535 0 0 0 0 37.809315
2.8328097 4.3028498 6.0320926 0 0 0 0 37.574974
2.8785133 4.8386207 6.2613244 0 0 0 0 37.579922
2.7962461 5.1728115 6.2667289 0 0 0 0 37.584869
2.6929288 5.5010571 6.2571778 0 0 0 0 37.589813
2.7711015 4.415 6.0803375 0 0 0 0 37.594761
2.7735674 4.9029002 6.2556381 0 0 0 0 37.599709
2.6722159 5.2151399 6.2470717 0 0 0 0 37.604656
2.5578904 5.5354061 6.2425394 0 0 0 0 37.609604
2.7628937 4.6209545 6.2565136 0 0 0 0 37.614548
2.65853 4.9482121 6.2289619 0 0 0 0 37.619495
2.5502086 5.260458 6.2344093 0 0 0 0 37.624443
2.4177933 5.5557709 6.2159014 0 0 0 0 37.629391
2.6588714 4.6752434 6.2268171 0 0 0 0 37.634338
2.552587 5.011488 6.2262735 0 0 0 0 37.639286
2.4251692 5.2977843 6.2157469 0 0 0 0 37.64423
2.2787006 5.5741286 6.1932573 0 0 0 0 37.649178
2.5639365 4.7454972 6.2201076 0 0 0 0 37.654125
2.4395761 5.0597863 6.2085896 0 0 0 0 37.659073
2.2981052 5.3281145 6.1930823 0 0 0 0 37.664021
2.1385751 5.5844898 6.1636081 0 0 0 0 37.668968
2.4670026 4.8147521 6.2153993 0 0 0 0 37.673912
2.3195064 5.0951061 6.1779118 0 0 0 0 37.67886
2.1710434 5.3574419 6.1724143 0 0 0 0 37.683807
2.0045078 5.604826 6.1499486 0 0 0 0 37.688755
2.3609946 4.8680353 6.1937008 0 0 0 0 37.693703
2.2044816 5.1374044 6.1602249 0 0 0 0 37.698647
2.0470037 5.3897557 6.1587396 0 0 0 0 37.703594
1.8674029 5.6161718 6.1282887 0 0 0 0 37.708542
2.2570038 4.9243093 6.1769967 0 0 0 0 37.71349
2.0894654 5.1806993 6.1455355 0 0 0 0 37.718437
1.9148579 5.3980999 6.1210661 0 0 0 0 37.723385
1.7333119 5.6275048 6.1126189 0 0 0 0 37.728329
2.1530392 4.9845767 6.168293 0 0 0 0 37.733276
1.9724289 5.217998 6.1278458 0 0 0 0 37.738224
1.7918229 5.4284048 6.1113834 0 0 0 0 37.743172
1.5982076 5.6348386 6.0949469 0 0 0 0 37.748119
2.0430095 5.0308638 6.1445928 0 0 0 0 37.753067
1.85641 5.2582898 6.1151528 0 0 0 0 37.758011
1.6637155 5.4417281 6.0856991 0 0 0 0 37.762959
1.4640797 5.6351705 6.073266 0 0 0 0 37.767906
1.9329956 5.0791464 6.1258912 0 0 0 0 37.772854
1.7363468 5.2875934 6.0934601 0 0 0 0 37.777802
1.537641 5.4600391 6.0700116 0 0 0 0 37.782749
1.3289241 5.6275048 6.0465808 0 0 0 0 37.787693
1.8229941 5.1284237 6.1121883 0 0 0 0 37.792641
1.6183143 5.3218856 6.0807633 0 0 0 0 37.797588
1.4115536 5.4743485 6.0523186 0 0 0 0 37.802536
1.1957712 5.6188316 6.0218883 0 0 0 0 37.807484
1.7129987 5.1776977 6.1014829 0 0 0 0 37.812431
1.5002838 5.3551741 6.0700645 0 0 0 0 37.817375
1.2864687 5.4876533 6.0366211 0 0 0 0 37.822323
1.0656538 5.6161437 6.0071902 0 0 0 0 37.827271
1.598977 5.2209816 6.0847812 0 0 0 0 37.832218
1.3792076 5.3774729 6.0493631 0 0 0 0 37.837166
1.1613733 5.4969559 6.0199189 0 0 0 0 37.84211
0.93448514 5.600462 5.9814844 0 0 0 0 37.847057
1.482931 5.2572694 6.0640774 0 0 0 0 37.852005
1.2571251 5.3967714 6.0286603 0 0 0 0 37.856953
1.0352502 5.4982615 5.9982123 0 0 0 0 37.8619
0.80635166 5.5907664 5.9657731 0 0 0 0 37.866848
1.3658744 5.2895584 6.0423713 0 0 0 0 37.871792
1.1350515 5.4160657 6.0119557 0 0 0 0 37.87674
0.90909314 5.4905686 5.9694986 0 0 0 0 37.881687
0.67817163 5.5690732 5.9400535 0 0 0 0 37.886635
1.249869 5.3328362 6.0336671 0 0 0 0 37.891582
1.0149821 5.4353528 5.9972439 0 0 0 0 37.89653
0.78397322 5.4898658 5.9507842 0 0 0 0 37.901474
0.55103755 5.5553694 5.9273343 0 0 0 0 37.906422
1.1318122 5.3621211 6.014957 0 0 0 0 37.911369
0.89085954 5.4416528 5.9705315 0 0 0 0 37.916317
0.66291559 5.501143 5.9490657 0 0 0 0 37.921265
0.42482957 5.5236702 5.8976002 0 0 0 0 37.926208
1.0117403 5.3874102 5.993247 0 0 0 0 37.931156
0.76877367 5.4539399 5.9548163 0 0 0 0 37.936104
0.53775412 5.4874401 5.9233398 0 0 0 0 37.941051
0.30166301 5.4999571 5.8788619 0 0 0 0 37.945999
0.89171523 5.4216895 5.9845395 0 0 0 0 37.950947
0.64666063 5.4582276 5.9340944 0 0 0 0 37.955891
0.41462508 5.4797258 5.906611 0 0 0 0 37.960838
0.17951208 5.4782362 5.8651209 0 0 0 0 37.965786
0.77065396 5.4459729 5.9688268 0 0 0 0 37.970734
0.52458578 5.4705081 5.9233742 0 0 0 0 37.975681
0.29247972 5.4670086 5.8868752 0 0 0 0 37.980629
0.058347236 5.4515123 5.8493729 0 0 0 0 37.985573
0.64754456 5.4582644 5.9421091 0 0 0 0 37.99052
0.40145034 5.4667954 5.8996453 0 0 0 0 37.995468
0.1713101 5.4462891 5.863131 0 0 0 0 38.000416
-0.060850266 5.4157867 5.8266139 0 0 0 0 38.005363
0.52446055 5.4745493 5.9233918 0 0 0 0 38.010311
0.27934057 5.4680748 5.8829155 0 0 0 0 38.015255
0.05115382 5.4275641 5.8433833 0 0 0 0 38.020203
-0.17806961 5.3740573 5.7988453 0 0 0 0 38.02515
0.40036434 5.486835 5.9026723 0 0 0 0 38.030098
0.15621461 5.4633551 5.8641825 0 0 0 0 38.035046
-0.067978829 5.4128304 5.8306341 0 0 0 0 38.039993
-0.28312847 5.1364131 5.5619431 0 0 0 0 38.044937
0.27593574 5.4962101 5.882977 0 0 0 0 38.135391
0.033781707 5.4617109 5.8514662 0 0 0 0 38.140339
-0.18472013 5.3292017 5.7458529 0 0 0 0 38.145287
-0.38036385 4.9217963 5.352047 0 0 0 0 38.15023
0.15186284 5.5104818 5.8712492 0 0 0 0 38.155178
-0.086382903 5.4449801 5.8247118 0 0 0 0 38.160126
-0.2823312 4.9596119 5.3558645 0 0 0 0 38.165073
-0.48261693 4.8660302 5.3152323 0 0 0 0 38.170021
0.027747691 5.5127563 5.850513 0 0 0 0 38.174965
-0.19224149 5.0204415 5.3657122 0 0 0 0 38.179913
-0.38856858 4.9138551 5.3170638 0 0 0 0 38.18486
-0.59157413 4.8782353 5.3564653 0 0 0 0 38.189808
-0.090150878 5.0832496 5.374537 0 0 0 0 38.194756
-0.30060413 4.9507084 5.2889032 0 0 0 0 38.199699
-0.49183649 4.8590937 5.2712507 0 0 0 0 38.204647
-0.74136263 5.1663623 5.7049241 0 0 0 0 38.209595
-0.20262998 4.9915423 5.2617254 0 0 0 0 38.214542
-0.40598017 4.875968 5.2090845 0 0 0 0 38.21949
-0.59504461 4.8173218 5.2414427 0 0 0 0 38.224438
-0.85051799 5.1295886 5.6991272 0 0 0 0 38.229385
-0.31670859 4.9947834 5.2529645 0 0 0 0 38.234329
-0.51410633 4.8591981 5.1952991 0 0 0 0 38.239277
-0.70311201 4.807539 5.2496595 0 0 0 0 38.244225
-0.95573831 5.0768147 5.6763134 0 0 0 0 38.249172
-0.42988035 4.9740314 5.2211876 0 0 0 0 38.25412
-0.62709695 4.8744168 5.2175388 0 0 0 0 38.259064
-0.81309205 4.8177452 5.2818885 0 0 0 0 38.264011
-1.0619254 5.0300355 5.6635027 0 0 0 0 38.268959
-0.54396993 4.9712687 5.2124195 0 0 0 0 38.273907
-0.72939432 4.813653 5.1607161 0 0 0 0 38.278854
-0.98476374 5.1418948 5.6633997 0 0 0 0 38.283802
-1.1651094 4.9822474 5.6526833 0 0 0 0 38.288746
-0.65909266 4.9595094 5.1956472 0 0 0 0 38.293694
-0.84043378 4.81387 5.1729403 0 0 0 0 38.298641
-1.0988723 5.1191206 5.666615 0 0 0 0 38.303589
-1.2633711 4.9154587 5.6208434 0 0 0 0 38.308537
-0.77224803 4.937748 5.171864 0 0 0 0 38.313484
-0.95443797 4.821085 5.1961722 0 0 0 0 38.318428
-1.2080508 5.0773439 5.6528091 0 0 0 0 38.323376
-1.3625702 4.8616614 5.6070108 0 0 0 0 38.328323
-0.88637125 4.9219813 5.1580839 0 0 0 0 38.333271
-1.0664895 4.8163004 5.2073922 0 0 0 0 38.338219
-1.3142596 5.0275636 5.6309919 0 0 0 0 38.343163
-1.4627467 4.8118606 5.6001806 0 0 0 0 38.34811
-0.99851716 4.8992114 5.1392946 0 0 0 0 38.353058
-1.2680629 5.174489 5.6169677 0 0 0 0 38.358006
-1.4214205 4.9877763 5.6231799 0 0 0 0 38.362953
-1.5559802 4.7470527 5.5783277 0 0 0 0 38.367901
-1.1096795 4.8704391 5.1174989 0 0 0 0 38.372849
-1.3881439 5.1597171 5.626193 0 0 0 0 38.377792
-1.5226614 4.9269862 5.5943441 0 0 0 0 38.38274
-1.6491873 4.6882391 5.5634766 0 0 0 0 38.387688
-1.2287408 4.8656664 5.1237283 0 0 0 0 38.392635
-1.502317 5.120944 5.611393 0 0 0 0 38.397583
-1.6228836 4.8691893 5.571507 0 0 0 0 38.402527
-1.7413949 4.6274214 5.5496211 0 0 0 0 38.407475
-1.396098 5.0378904 5.3201375 0 0 0 0 38.412422
-1.6125388 5.0681672 5.5845766 0 0 0 0 38.41737
-1.7260563 4.8223896 5.5626788 0 0 0 0 38.422318
-1.8316067 4.5645995 5.5347595 0 0 0 0 38.427261
-1.5941881 5.2771335 5.5926347 0 0 0 0 38.432209
-1.7266848 5.0323858 5.5797744 0 0 0 0 38.437157
-1.825272 4.763586 5.5428357 0 0 0 0 38.442104
-1.915846 4.4947681 5.5118823 0 0 0 0 38.447052
-1.7163646 5.2393718 5.5748458 0 0 0 0 38.452
-1.8358983 4.9786015 5.5569525 0 0 0 0 38.456947
-1.9205049 4.6987753 5.5189815 0 0 0 0 38.461891
-2.0070133 4.4399381 5.5110245 0 0 0 0 38.466839
-1.8395211 5.204607 5.5640588 0 0 0 0 38.471786
-1.9450878 4.9288111 5.5421305 0 0 0 0 38.476734
-2.0206723 4.6489625 5.514142 0 0 0 0 38.481682
-2.0882647 4.364099 5.486136 0 0 0 0 38.486626
-1.9567312 5.1538348 5.5402508 0 0 0 0 38.491573
-2.0503023 4.8710146 5.5212955 0 0 0 0 38.496521
-2.1138949 4.5841432 5.4942808 0 0 0 0 38.501469
-2.1724617 4.3002567 5.4772577 0 0 0 0 38.506416
-2.0749288 5.1050606 5.5204439 0 0 0 0 38.511364
-2.155508 4.8142147 5.5034595 0 0 0 0 38.516308
-2.2080917 4.5243192 5.4824224 0 0 0 0 38.521255
-2.2536647 4.2344084 5.466372 0 0 0 0 38.526203
-2.1951156 5.0562854 5.5056391 0 0 0 0 38.531151
-2.2636824 4.7634139 5.4956307 0 0 0 0 38.536098
-2.2993114 4.4574914 5.4645538 0 0 0 0 38.541046
-2.299139 4.1035318 5.3743868 0 0 0 0 38.54599
-2.3132975 5.007504 5.4928288 0 0 0 0 38.550938
-2.3649094 4.6976051 5.4737806 0 0 0 0 38.555885
-2.3875299 4.3896565 5.4476786 0 0 0 0 38.560833
-2.3187582 3.9396281 5.2353373 0 0 0 0 38.565781
-2.4265208 4.9457159 5.4700007 0 0 0 0 38.570724
-2.4611552 4.6257873 5.4469166 0 0 0 0 38.575672
-2.4519186 4.2797999 5.3797369 0 0 0 0 38.58062
-2.393945 3.8747633 5.2284389 0 0 0 0 38.585567
-2.5407243 4.8879251 5.4531755 0 0 0 0 38.590515
-2.5623608 4.5619712 5.4330645 0 0 0 0 38.595463
-2.4686158 4.0948992 5.2176709 0 0 0 0 38.60041
-2.4671323 3.8088934 5.2215352 0 0 0 0 38.605354
-2.6492293 4.8139687 5.4227648 0 0 0 0 39.281391
-2.6160011 4.4159527 5.3215699 0 0 0 0 39.286339
-2.5497918 4.0248933 5.200326 0 0 0 0 39.291283
-2.5342441 3.7308693 5.2001963 0 0 0 0 39.29623
-2.7624049 4.7531366 5.4109063 0 0 0 0 39.301178
-2.6535013 4.2560468 5.1945586 0 0 0 0 39.306126
-2.6339538 3.9610159 5.1944232 0 0 0 0 39.311073
-2.6024203 3.6599689 5.1902676 0 0 0 0 39.316021
-2.7771091 4.5302186 5.2148356 0 0 0 0 39.320965
-2.7446864 4.1871805 5.1796637 0 0 0 0 39.325912
-2.7121344 3.8911302 5.1815085 0 0 0 0 39.33086
-2.6695874 3.5910652 5.1833367 0 0 0 0 39.335808
-2.8673675 4.4403591 5.1739297 0 0 0 0 39.340755
-2.8398483 4.1233158 5.1737757 0 0 0 0 39.345703
-2.7913048 3.822243 5.1735945 0 0 0 0 39.350647
-2.7287867 3.5121524 5.1643896 0 0 0 0 39.355595
-2.9735389 4.3755102 5.1640558 0 0 0 0 39.360542
-2.9280274 4.053442 5.1618729 0 0 0 0 39.36549
-2.8664885 3.7483501 5.1606717 0 0 0 0 39.370438
-2.7919617 3.4392416 5.1544499 0 0 0 0 39.375381
-3.0747242 4.3046536 5.1501708 0 0 0 0 39.380329
-3.0092442 3.9705601 5.1369548 0 0 0 0 39.385277
-2.9376843 3.6704519 5.1427407 0 0 0 0 39.390224
-2.8491502 3.3613224 5.1394987 0 0 0 0 39.395172
-3.1669452 4.2207861 5.1242666 0 0 0 0 39.40012
-3.0984066 3.9016814 5.1330519 0 0 0 0 39.405067
-3.0088663 3.5945504 5.1308098 0 0 0 0 39.410011
-2.9073293 3.2854028 5.1275492 0 0 0 0 39.414959
-3.2641356 4.1439199 5.1103706 0 0 0 0 39.419907
-3.180599 3.8227947 5.1181345 0 0 0 0 39.424854
-3.0810397 3.5196476 5.1228795 0 0 0 0 39.429802
-2.9664969 3.211482 5.1206012 0 0 0 0 39.434746
-3.3593292 4.0640497 5.0964699 0 0 0 0 39.439693
-3.2568073 3.7379 5.0972042 0 0 0 0 39.444641
-3.1462321 3.4387364 5.106936 0 0 0 0 39.449589
-3.0286393 3.1435611 5.1236596 0 0 0 0 39.454536
-3.4495418 3.9771729 5.0755587 0 0 0 0 39.459484
-3.3369904 3.6590064 5.0862823 0 0 0 0 39.464428
-3.2114201 3.3578234 5.0929923 0 0 0 0 39.469376
-3.0907805 3.0746388 5.1277165 0 0 0 0 39.474323
-3.5387404 3.8922911 5.0606451 0 0 0 0 39.479271
-3.4121895 3.5731058 5.0703487 0 0 0 0 39.484219
-3.2686281 3.2709005 5.0700336 0 0 0 0 39.489166
-3.1200423 2.9746854 5.0797138 0 0 0 0 39.49411
-3.628933 3.8074079 5.0487318 0 0 0 0 39.499058
-3.4853852 3.487201 5.0554118 0 0 0 0 39.504005
-3.3357923 3.1939847 5.066093 0 0 0 0 39.508953
-3.1741965 2.9007521 5.0777569 0 0 0 0 39.513901
-3.7071617 3.7105112 5.0227962 0 0 0 0 39.518845
-3.5605662 3.4042954 5.0464783 0 0 0 0 39.523792
-3.3959751 3.1110606 5.0541387 0 0 0 0 39.52874
-3.2243643 2.822814 5.0697913 0 0 0 0 39.533688
-3.7943504 3.6226199 5.013876 0 0 0 0 39.538635
-3.6277697 3.3133805 5.0285296 0 0 0 0 39.543583
-3.4491737 3.0231278 5.0351725 0 0 0 0 39.548531
-3.2705374 2.7428706 5.0588202 0 0 0 0 39.553474
-3.8735619 3.5267189 4.9959402 0 0 0 0 39.558422
-3.6939688 3.2224624 5.012579 0 0 0 0 39.56337
-3.5103371 2.9432003 5.03122 0 0 0 0 39.568317
-3.3167002 2.6649249 5.0518484 0 0 0 0 39.573265
-3.9447873 3.4248071 4.9729905 0 0 0 0 39.578209
-3.7661445 3.1355479 5.0076375 0 0 0 0 39.583157
-3.5615265 2.8552616 5.0162501 0 0 0 0 39.588104
-3.3528905 2.5799687 5.0318604 0 0 0 0 39.593052
-4.0299664 3.3349073 4.9690642 0 0 0 0 39.598
-3.8323286 3.0456252 4.9986854 0 0 0 0 39.602943
-3.6137099 2.7683227 5.0032816 0 0 0 0 39.607891
-3.402035 2.5050232 5.0328932 0 0 0 0 39.612839
-4.1031733 3.234993 4.9541168 0 0 0 0 39.617786
-3.890528 2.9506924 4.9827204 0 0 0 0 39.622734
-3.6678789 2.6833835 4.9973159 0 0 0 0 39.627682
-3.4421992 2.4240675 5.0249109 0 0 0 0 39.632629
-4.1693907 3.1310697 4.9341569 0 0 0 0 39.637573
-3.9537125 2.8577635 4.9737625 0 0 0 0 39.642521
-3.7150614 2.5944359 4.9843388 0 0 0 0 39.647469
-3.4813607 2.3441098 5.0169277 0 0 0 0 39.652416
-4.2395911 3.0291476 4.9232035 0 0 0 0 39.657364
-4.0089078 2.760824 4.9597912 0 0 0 0 39.662308
-3.758251 2.5024831 4.9683552 0 0 0 0 39.667255
-3.5205164 2.2641501 5.0119448 0 0 0 0 39.672203
-4.2988138 2.9202127 4.9012313 0 0 0 0 39.677151
-4.0501351 2.6548696 4.9307976 0 0 0 0 39.682098
-3.799433 2.4125259 4.9543691 0 0 0 0 39.687046
-3.5496969 2.1781805 4.9939456 0 0 0 0 39.69199
-4.3670068 2.8172851 4.8932734 0 0 0 0 39.696938
-4.113297 2.5639343 4.931839 0 0 0 0 39.701885
-3.8426104 2.3215702 4.9433851 0 0 0 0 39.706833
-3.5818608 2.0962121 4.9829512 0 0 0 0 39.711781
-4.5998034 2.8165205 5.0715742 0 0 0 0 39.716728
-4.322103 2.558141 5.1071072 0 0 0 0 39.721672
-4.038393 2.3207588 5.1296391 0 0 0 0 39.72662
-3.6160131 2.0152445 4.9779601 0 0 0 0 39.731567
-4.657021 2.7025774 5.0555954 0 0 0 0 39.736515
-4.3633175 2.450181 5.0861111 0 0 0 0 39.741463
-4.0845594 2.2288022 5.1266575 0 0 0 0 39.746407
-3.7858114 2.0064011 5.1601772 0 0 0 0 39.751354
-4.7086024 2.585959 5.0380044 0 0 0 0 39.470806
-4.4148841 2.3485243 5.0804801 0 0 0 0 39.475754
-4.1221437 2.1340945 5.1159658 0 0 0 0 39.480701
-3.8173947 1.9226485 5.1534367 0 0 0 0 39.485649
-4.7718086 2.4750259 5.0340371 0 0 0 0 39.490597
-4.4570971 2.2425673 5.0664859 0 0 0 0 39.495544
-4.1563392 2.0371282 5.1039658 0 0 0 0 39.500488
-3.8455672 1.836675 5.1454339 0 0 0 0 39.505436
-4.8190455 2.3560739 5.0160427 0 0 0 0 39.510384
-4.4973106 2.1346068 5.0524879 0 0 0 0 39.515331
-4.1965137 1.9441669 5.1009755 0 0 0 0 39.520279
-3.8737364 1.7507008 5.1384315 0 0 0 0 39.525223
-4.8692651 2.2391224 5.006053 0 0 0 0 39.53017
-4.5444999 2.030652 5.0495014 0 0 0 0 39.535118
-4.2316976 1.8481994 5.0929775 0 0 0 0 39.540066
-3.8989055 1.6647223 5.1304245 0 0 0 0 39.545013
-4.9075031 2.1171565 4.9870443 0 0 0 0 39.549961
-4.5846977 1.924688 5.0415044 0 0 0 0 39.554905
-4.2578964 1.7482209 5.0779643 0 0 0 0 39.559853
-3.9250672 1.5797437 5.1254201 0 0 0 0 39.5648
-4.9517226 1.9981956 4.9760456 0 0 0 0 39.569748
-4.6228938 1.8177204 5.0345035 0 0 0 0 39.574696
-4.2900715 1.6522471 5.0739617 0 0 0 0 39.579643
-3.9482346 1.4927615 5.1174097 0 0 0 0 39.584587
-4.9959311 1.8802323 4.970047 0 0 0 0 39.589535
-4.656095 1.7087463 5.0244946 0 0 0 0 39.594482
-4.3082724 1.5522579 5.0549374 0 0 0 0 39.59943
-3.9703963 1.4067769 5.1113992 0 0 0 0 39.604378
-5.0341463 1.759261 4.9610386 0 0 0 0 39.609322
-4.6862936 1.598767 5.0154819 0 0 0 0 39.614269
-4.3384433 1.4552798 5.0519314 0 0 0 0 39.619217
-3.9935491 1.321792 5.1093898 0 0 0 0 39.624165
-5.0683637 1.6372843 4.9500246 0 0 0 0 39.629112
-4.7134933 1.4887838 5.0044646 0 0 0 0 39.63406
-4.3636174 1.3582954 5.0459189 0 0 0 0 39.639008
-4.0117106 1.2348015 5.1023731 0 0 0 0 39.643951
-5.0965815 1.5142992 4.9380021 0 0 0 0 39.648899
-4.7416844 1.3788 4.9984488 0 0 0 0 39.653847
-4.3847952 1.2593058 5.0378995 0 0 0 0 39.658794
-4.0188899 1.1457994 5.0833406 0 0 0 0 39.663742
-5.128788 1.3913171 4.9319849 0 0 0 0 39.668686
-4.7678714 1.2698131 4.9924307 0 0 0 0 39.673634
-4.4029727 1.1603122 5.0288768 0 0 0 0 39.678581
-4.0390368 1.059809 5.0833278 0 0 0 0 39.683529
-5.1539989 1.2683264 4.9219584 0 0 0 0 39.688477
-4.788064 1.1578182 4.9844041 0 0 0 0 39.69342
-4.4211431 1.0623171 5.0228543 0 0 0 0 39.698368
-4.0591793 0.97481787 5.0843153 0 0 0 0 39.703316
-5.1772056 1.1443319 4.913929 0 0 0 0 39.708263
-4.8152394 1.04883 4.9843879 0 0 0 0 39.713211
-4.4443002 0.96532655 5.023839 0 0 0 0 39.718159
-4.0633492 0.88681048 5.0672798 0 0 0 0 39.723106
-5.2043991 1.0213403 4.9129057 0 0 0 0 39.72805
-4.8264356 0.93582398 4.9713488 0 0 0 0 39.732998
-4.4514823 0.86431879 5.0098014 0 0 0 0 39.737946
-4.0784931 0.80081284 5.0662608 0 0 0 0 39.742893
-5.212615 0.89532763 4.8968558 0 0 0 0 39.747841
-4.8466096 0.82582611 4.9703231 0 0 0 0 39.752785
-4.4666419 0.7663179 5.0077758 0 0 0 0 39.757732
-4.0896406 0.71381056 5.0622358 0 0 0 0 39.76268
-0.54667729 0.079444855 0.55217397 0 0 0 0 39.772575
-4.4748116 0.6663096 4.9987402 0 0 0 0 39.777523
-4.0918007 0.62579894 5.0491986 0 0 0 0 39.782467
-0.52770996 0.064424038 0.53116024 0 0 0 0 39.792362
-4.1069303 0.54079902 5.0541811 0 0 0 0 39.802258
-0.49282637 0.048398841 0.45212078 0 0 0 0 39.807205
-0.50275028 0.049397353 0.50413877 0 0 0 0 39.812149
-4.1140723 0.45379084 5.0511518 0 0 0 0 39.822044
-0.46686158 0.034370512 0.42709875 0 0 0 0 39.826992
-0.47179535 0.035364646 0.47210997 0 0 0 0 39.83194
-0.45487487 0.023356697 0.41509685 0 0 0 0 39.846779
-0.47279158 0.025364168 0.47212574 0 0 0 0 39.851727
-4.1063795 0.27975193 5.0240655 0 0 0 0 39.861622
-0.45687038 0.012357171 0.41611388 0 0 0 0 39.86657
-0.46679825 0.014356729 0.46513197 0 0 0 0 39.871513
-4.1025281 0.19273207 5.0120234 0 0 0 0 39.881409
-0.46984646 -0.0086333668 0.42816019 0 0 0 0 39.906143
-0.4727819 -0.0056408104 0.47116914 0 0 0 0 39.911091
-0.47705197 -0.030605853 0.4359751 0 0 0 0 39.688225
-0.46799856 -0.027627254 0.46796748 0 0 0 0 39.693169
-0.48203924 -0.054605018 0.44300979 0 0 0 0 39.727798
-0.47098529 -0.048628137 0.47300038 0 0 0 0 39.732746
-0.48296851 -0.061617572 0.48503071 0 0 0 0 39.752533
-0.50100923 -0.080589995 0.46406338 0 0 0 0 39.767376
-0.50493509 -0.075597756 0.51007444 0 0 0 0 39.772324
-0.54595578 -0.10054634 0.5091368 0 0 0 0 39.787163
-0.55494279 -0.11554001 0.52016187 0 0 0 0 39.806953
-0.53589046 -0.1055716 0.54614282 0 0 0 0 39.811897
-0.56093383 -0.13053678 0.52818286 0 0 0 0 39.82674
-0.53588462 -0.11857469 0.5501563 0 0 0 0 39.831688
-5.0476041 -1.3140066 4.8459311 0 0 0 0 39.846527
-4.7173162 -1.1614465 4.9195223 0 0 0 0 39.851475
-4.0547838 -0.84531367 5.0257092 0 0 0 0 39.86137
-5.0107598 -1.4300791 4.8458338 0 0 0 0 39.866314
-4.685463 -1.2675091 4.9174371 0 0 0 0 39.871262
-4.3631983 -1.1019274 4.9630461 0 0 0 0 39.876209
-4.0399075 -0.93134958 5.0246558 0 0 0 0 39.881157
-4.981904 -1.5501436 4.8557477 0 0 0 0 39.886105
-4.6526055 -1.3725729 4.9163518 0 0 0 0 39.891052
-4.3383317 -1.1989785 4.9629755 0 0 0 0 39.895996
-4.0250258 -1.017386 5.0266042 0 0 0 0 39.900944
-4.9350572 -1.6632262 4.8516407 0 0 0 0 39.905891
-4.6197438 -1.4776365 4.9172678 0 0 0 0 39.910839
-4.3144579 -1.2940286 4.9649081 0 0 0 0 39.915787
-4.0081444 -1.1054248 5.0295496 0 0 0 0 39.920731
-4.8951988 -1.7783018 4.856544 0 0 0 0 39.925678
-4.5838804 -1.5817029 4.917181 0 0 0 0 39.930626
-4.2845874 -1.3890846 4.9628339 0 0 0 0 39.935574
-3.9812703 -1.1884726 5.0204849 0 0 0 0 39.940521
-4.8493385 -1.8913835 4.8594413 0 0 0 0 39.945469
-4.5490103 -1.6867689 4.9220972 0 0 0 0 39.950417
-4.2517147 -1.4821433 4.9597578 0 0 0 0 39.95536
-3.963383 -1.2755122 5.0244308 0 0 0 0 39.960308
-4.7984767 -2.0014696 4.8593345 0 0 0 0 39.965256
-4.5081391 -1.7888405 4.923007 0 0 0 0 39.970203
-4.2238336 -1.5781976 4.9646878 0 0 0 0 39.975151
-3.9414973 -1.3615556 5.0253735 0 0 0 0 39.980095
-4.750608 -2.1135528 4.8652325 0 0 0 0 39.985043
-4.4672618 -1.8899121 4.926919 0 0 0 0 39.98999
-4.1849575 -1.6682619 4.9586062 0 0 0 0 39.994938
-3.9146135 -1.4466037 5.0223103 0 0 0 0 39.999886
-4.6997337 -2.2236388 4.8721285 0 0 0 0 40.004829
-4.4233866 -1.9909859 4.9278278 0 0 0 0 40.009777
-4.149075 -1.7613236 4.9595299 0 0 0 0 40.014725
-3.8877249 -1.5306517 5.0212488 0 0 0 0 40.019672
-4.6448603 -2.3327281 4.8760214 0 0 0 0 40.02462
-4.3785052 -2.0920608 4.9327374 0 0 0 0 40.029568
-4.1201816 -1.8563786 4.9694619 0 0 0 0 40.034515
-3.8598361 -1.6157005 5.0201869 0 0 0 0 40.039459
-4.5829825 -2.4358242 4.8769088 0 0 0 0 40.044407
-4.3336177 -2.1921358 4.9396482 0 0 0 0 40.049355
-4.0822926 -1.9484419 4.9723854 0 0 0 0 40.054302
-3.8279459 -1.6987531 5.0171208 0 0 0 0 40.05925
-4.5191035 -2.5379207 4.8757954 0 0 0 0 40.064194
-4.2857289 -2.291213 4.9455562 0 0 0 0 40.069141
-4.0394039 -2.0385096 4.9713035 0 0 0 0 40.074089
-3.8020465 -1.7858005 5.0240626 0 0 0 0 40.079037
-4.2963243 -2.5461631 4.7055068 0 0 0 0 40.083984
-4.0719662 -2.2954392 4.7602816 0 0 0 0 40.088932
-3.8576396 -2.053699 4.799068 0 0 0 0 40.093876
-3.6332965 -1.8029709 4.8438444 0 0 0 0 40.098824
-4.2384267 -2.6472523 4.7154055 0 0 0 0 40.103771
-4.0180707 -2.3865199 4.761189 0 0 0 0 40.108719
-3.8197351 -2.1427608 4.8069968 0 0 0 0 40.113667
-3.599395 -1.8820239 4.8417816 0 0 0 0 40.118614
-4.1855187 -2.7513371 4.735311 0 0 0 0 40.123558
-3.9731631 -2.4825919 4.7751079 0 0 0 0 40.128506
-3.7708359 -2.2258322 4.8039141 0 0 0 0 40.133453
-3.5694861 -1.9650737 4.8487234 0 0 0 0 40.138401
-4.1216145 -2.8474307 4.743207 0 0 0 0 40.143349
-3.9182572 -2.573673 4.7820163 0 0 0 0 40.148293
-3.7339239 -2.3168926 4.8178458 0 0 0 0 40.15324
-3.5465682 -2.0531173 4.8666739 0 0 0 0 40.158188
-4.053741 -2.9413886 4.7501349 0 0 0 0 40.013889
-3.8643599 -2.6646266 4.7909575 0 0 0 0 40.018837
-3.6850109 -2.3998492 4.81879 0 0 0 0 40.023785
-3.5056369 -2.1310747 4.8636241 0 0 0 0 40.028732
-3.9848359 -3.0354903 4.7590218 0 0 0 0 40.03368
-3.8044555 -2.7517149 4.794858 0 0 0 0 40.038624
-3.6401014 -2.485919 4.8277111 0 0 0 0 40.043571
-3.4697292 -2.2121313 4.8685579 0 0 0 0 40.048519
-3.9109278 -3.1235957 4.7639055 0 0 0 0 40.053467
-3.744545 -2.8388028 4.8027601 0 0 0 0 40.058414
-3.5881948 -2.5679948 4.8296251 0 0 0 0 40.063362
-3.4298227 -2.2921915 4.8704882 0 0 0 0 40.068306
-3.8360157 -3.2117014 4.7707896 0 0 0 0 40.073254
-3.6776373 -2.9208961 4.8026567 0 0 0 0 40.078201
-3.5372829 -2.6520693 4.8365412 0 0 0 0 40.083149
-3.3899124 -2.3722513 4.8744202 0 0 0 0 40.088097
-3.764096 -3.3008037 4.783679 0 0 0 0 40.09304
-3.6177177 -3.007983 4.8155622 0 0 0 0 40.097988
-3.4833701 -2.7331462 4.840456 0 0 0 0 40.102936
-3.3489981 -2.4533124 4.8813515 0 0 0 0 40.107883
-3.6861765 -3.3859105 4.7915635 0 0 0 0 40.112831
-3.5517988 -3.0900743 4.8224626 0 0 0 0 40.117779
-3.4304521 -2.8152218 4.8483734 0 0 0 0 40.122726
-3.3040855 -2.5313759 4.8832798 0 0 0 0 40.12767
-2.9955769 -2.8815398 3.9868281 0 0 0 0 40.132618
-3.485878 -3.174165 4.8313646 0 0 0 0 40.137566
-3.374532 -2.8952994 4.8552885 0 0 0 0 40.142513
-3.2581704 -2.6094403 4.8862081 0 0 0 0 40.147461
-2.3599281 -2.3751078 3.2161682 0 0 0 0 40.152405
-2.9592464 -2.8176377 4.1898031 0 0 0 0 40.157352
-3.3136129 -2.973381 4.8581996 0 0 0 0 40.1623
-3.2112529 -2.6875052 4.8901362 0 0 0 0 40.167248
-1.8991709 -2.0005169 2.6546993 0 0 0 0 40.172195
-2.4355948 -2.424098 3.5262594 0 0 0 0 40.177143
-3.217715 -3.0174901 4.8110776 0 0 0 0 40.182087
-3.1643326 -2.7675698 4.8970656 0 0 0 0 40.187035
-1.5863268 -1.7487948 2.2773879 0 0 0 0 40.191982
-1.9149269 -1.9925447 2.8367336 0 0 0 0 40.19693
-2.4533036 -2.4031322 3.7402945 0 0 0 0 40.201878
-3.1124115 -2.8436382 4.899991 0 0 0 0 40.206825
-1.3484399 -1.5570053 1.990157 0 0 0 0 40.211769
-1.6081154 -1.7508103 2.4414296 0 0 0 0 40.216717
-2.0126333 -2.0605044 3.1348491 0 0 0 0 40.221664
-2.6018748 -2.4830639 4.1694636 0 0 0 0 40.226612
-1.1765138 -1.4211578 1.7869958 0 0 0 0 40.23156
-1.3722522 -1.5610133 2.1362023 0 0 0 0 40.236504
-1.654892 -1.7698033 2.6344965 0 0 0 0 40.241451
-2.2351997 -2.2273703 3.6490903 0 0 0 0 40.246399
-1.0325716 -1.3072847 1.616865 0 0 0 0 40.251347
-1.1963499 -1.4231647 1.9110379 0 0 0 0 40.256294
-1.4230536 -1.5909984 2.3182733 0 0 0 0 40.261242
-1.8105599 -1.8837136 3.0126712 0 0 0 0 40.26619
-0.90062016 -1.1933988 1.45375 0 0 0 0 40.271133
-1.0444274 -1.3002944 1.7159007 0 0 0 0 40.276081
-1.2441726 -1.4521482 2.0741067 0 0 0 0 40.281029
-1.5257943 -1.6579444 2.5903966 0 0 0 0 40.285976
-0.80065244 -1.1134858 1.3356671 0 0 0 0 40.290924
-0.92348403 -1.2043976 1.5627958 0 0 0 0 40.295868
-1.0842737 -1.324281 1.8539621 0 0 0 0 40.300816
-1.334946 -1.5151002 2.3142178 0 0 0 0 40.305763
-0.71667385 -1.0455587 1.2376014 0 0 0 0 40.310711
-0.81553131 -1.1134881 1.4217063 0 0 0 0 40.315659
-0.95634735 -1.2203866 1.6788515 0 0 0 0 40.320602
-1.1580807 -1.3732423 2.052057 0 0 0 0 40.32555
-0.6376915 -0.97562569 1.1405427 0 0 0 0 40.330498
-0.7365604 -1.0535553 1.3246454 0 0 0 0 40.335445
-0.84940571 -1.1354748 1.5337627 0 0 0 0 40.340393
-1.0151817 -1.2583569 1.842932 0 0 0 0 40.345341
-0.57170182 -0.91968173 1.0624973 0 0 0 0 40.350288
-0.66158545 -0.99261785 1.2295901 0 0 0 0 40.355232
-0.76744539 -1.0735426 1.425699 0 0 0 0 40.36018
-0.90625489 -1.1744444 1.6858411 0 0 0 0 40.365128
-0.52470428 -0.88772261 1.0134695 0 0 0 0 40.370075
-0.58860707 -0.92667735 1.1325387 0 0 0 0 40.375023
-0.68947977 -1.0116062 1.321641 0 0 0 0 40.379967
-0.80631876 -1.0945238 1.5397611 0 0 0 0 40.384914
-0.47270626 -0.84276605 0.95243895 0 0 0 0 40.389862
-0.53561717 -0.88572139 1.0685061 0 0 0 0 40.39481
-0.62350619 -0.95765936 1.2315956 0 0 0 0 40.399757
-0.72636342 -1.0315872 1.4257011 0 0 0 0 40.404705
-0.42970496 -0.80780184 0.90341729 0 0 0 0 40.409649
-0.49262142 -0.85775763 1.0214829 0 0 0 0 40.414597
-0.55453146 -0.89571381 1.1345493 0 0 0 0 40.419544
-0.66039842 -0.98363978 1.3336551 0 0 0 0 40.424492
-0.39269859 -0.77883279 0.8644017 0 0 0 0 40.42944
-0.44762394 -0.81979418 0.96645975 0 0 0 0 40.434387
-0.59442884 -0.92869115 1.2386112 0 0 0 0 40.444279
-0.36668932 -0.7698558 0.84639519 0 0 0 0 40.449226
-0.40562609 -0.7828275 0.9124403 0 0 0 0 40.454174
-0.46555066 -0.82978517 1.0215024 0 0 0 0 40.459122
-0.54344857 -0.8907311 1.1685814 0 0 0 0 40.464066
-0.32668361 -0.72788697 0.79437935 0 0 0 0 40.469013
-0.37062383 -0.75685573 0.87242699 0 0 0 0 40.473961
-0.49046832 -0.84477139 1.0905513 0 0 0 0 40.483856
-0.29694983 -0.70388877 0.76312435 0 0 0 0 41.205349
-0.33790913 -0.73186392 0.83615911 0 0 0 0 41.210297
-0.26693711 -0.67390698 0.72612405 0 0 0 0 41.225136
-0.30989757 -0.71188116 0.80715966 0 0 0 0 41.230083
-0.24492081 -0.66192025 0.71012926 0 0 0 0 41.244926
-0.28088775 -0.68589836 0.77016002 0 0 0 0 41.24987
-0.21890703 -0.63293535 0.67513245 0 0 0 0 41.264713
-0.25887382 -0.67391145 0.75116533 0 0 0 0 41.269661
-0.19689116 -0.61194783 0.65013856 0 0 0 0 41.2845
-0.23386133 -0.64992577 0.7191692 0 0 0 0 41.289448
-0.26783186 -0.67390531 0.77519798 0 0 0 0 41.294395
-0.17787454 -0.60095853 0.63514674 0 0 0 0 41.304287
-0.20784831 -0.62094039 0.6831727 0 0 0 0 41.309235
-0.24182102 -0.64792001 0.73920125 0 0 0 0 41.314182
-0.15985677 -0.58496827 0.61715597 0 0 0 0 41.324078
-0.18783434 -0.60395133 0.65918046 0 0 0 0 41.329025
-0.21880957 -0.62793279 0.70920682 0 0 0 0 41.333969
-0.14283937 -0.5729773 0.602166 0 0 0 0 41.343864
-0.16881871 -0.58896154 0.639189 0 0 0 0 41.348812
-0.19679727 -0.60794473 0.68021321 0 0 0 0 41.35376
-0.13081934 -0.57898343 0.6071794 0 0 0 0 41.363651
-0.15080246 -0.571971 0.61819857 0 0 0 0 41.368599
-0.17778236 -0.59395486 0.66022193 0 0 0 0 41.373547
-0.1207979 -0.59598833 0.62419415 0 0 0 0 41.383442
-0.13878384 -0.57897699 0.62221199 0 0 0 0 41.388386
-0.15876754 -0.5769648 0.63723087 0 0 0 0 41.393333
-0.1097774 -0.60899347 0.63620859 0 0 0 0 41.403229
