# .PCD v0.7 - Point Cloud Data file format
VERSION 0.7
FIELDS x y z normal_x normal_y normal_z intensity curvature
SIZE 4 4 4 4 4 4 4 4
TYPE F F F F F F F F
COUNT 1 1 1 1 1 1 1 1
WIDTH 947
HEIGHT 1
VIEWPOINT 0 0 0 1 0 0 0
POINTS 947
DATA ascii
1.6629192 -3.7458382 -0.13730142 0 0 0 0 20.437056
0.94424778 -2.2647228 -0.12965399 0 0 0 0 20.442003
0.9169845 -2.3126724 -0.17152026 0 0 0 0 20.446951
0.88870573 -2.3646202 -0.21538246 0 0 0 0 20.451897
1.7629868 -3.7359846 -0.13471329 0 0 0 0 20.456844
0.98236924 -2.2127743 -0.12877449 0 0 0 0 20.461792
0.9610939 -2.2687333 -0.17067035 0 0 0 0 20.466738
0.93181694 -2.3136795 -0.21652681 0 0 0 0 20.471685
1.0244799 -2.1708319 -0.12691501 0 0 0 0 20.481579
1.0042017 -2.2227924 -0.17081496 0 0 0 0 20.486526
0.98089695 -2.2797475 -0.21870148 0 0 0 0 20.491474
1.9053125 -3.6021879 -0.12624323 0 0 0 0 20.49642
1.4672121 -2.9125032 -0.1620609 0 0 0 0 20.501368
1.0512874 -2.1908574 -0.17097998 0 0 0 0 20.506313
1.0249987 -2.234808 -0.2198505 0 0 0 0 20.511261
1.8408649 -3.3000805 -0.1158338 0 0 0 0 20.516209
1.490446 -2.7975314 -0.15809649 0 0 0 0 20.521156
1.9174575 -3.7311716 -0.27823028 0 0 0 0 20.526102
1.0710864 -2.1988714 -0.22100972 0 0 0 0 20.53105
1.9081959 -3.245131 -0.11178386 0 0 0 0 20.634293
1.546751 -2.7485685 -0.15701635 0 0 0 0 20.63924
2.0296679 -3.7342908 -0.28338921 0 0 0 0 20.644188
1.8247471 -3.5019662 -0.34438834 0 0 0 0 20.649134
1.8646209 -3.014056 -0.10448916 0 0 0 0 20.654081
1.6048602 -2.704649 -0.15622409 0 0 0 0 20.659029
1.440927 -2.5223897 -0.20342316 0 0 0 0 20.663975
1.867969 -3.3890243 -0.34251392 0 0 0 0 20.668922
1.9367269 -2.9781578 -0.10176001 0 0 0 0 20.67387
1.6549938 -2.6477175 -0.15439236 0 0 0 0 20.678816
1.5827545 -2.625597 -0.21504034 0 0 0 0 20.683764
1.9988909 -3.4292142 -0.35506704 0 0 0 0 20.688709
1.9948667 -2.920238 -0.098962247 0 0 0 0 20.693657
1.7101072 -2.6007934 -0.15358457 0 0 0 0 20.698605
1.497268 -2.3604598 -0.19955204 0 0 0 0 20.703552
1.637385 -2.6706607 -0.29022956 0 0 0 0 20.708498
2.0649829 -2.877336 -0.096221335 0 0 0 0 20.713446
1.7542435 -2.538852 -0.15272337 0 0 0 0 20.718391
1.6121877 -2.4126258 -0.20803545 0 0 0 0 20.723339
2.6874754 -4.1382375 -0.44622475 0 0 0 0 20.728287
2.1430779 -2.8484464 -0.093518324 0 0 0 0 20.733234
1.7973827 -2.4779091 -0.1508573 0 0 0 0 20.73818
1.5705342 -2.237555 -0.19876385 0 0 0 0 20.743128
2.8234804 -4.1284337 -0.45778477 0 0 0 0 20.748074
2.2081966 -2.8005362 -0.09175197 0 0 0 0 20.753021
1.8524879 -2.4329844 -0.15104815 0 0 0 0 20.757969
1.6056656 -2.1786001 -0.19786271 0 0 0 0 20.762917
2.8657532 -3.9854884 -0.45489347 0 0 0 0 20.767862
2.2463756 -2.7195852 -0.087856449 0 0 0 0 20.77281
1.900607 -2.3820488 -0.15020545 0 0 0 0 20.777756
1.64578 -2.1276529 -0.19798528 0 0 0 0 20.782703
2.8401914 -3.761441 -0.44267944 0 0 0 0 20.787651
1.6776613 -1.9477118 -0.07008028 0 0 0 0 20.792597
1.6503443 -1.977661 -0.13094492 0 0 0 0 20.797544
1.6709263 -2.0586827 -0.19703637 0 0 0 0 20.80249
2.8146031 -3.5513933 -0.43146822 0 0 0 0 20.807438
1.724756 -1.9147749 -0.068236776 0 0 0 0 20.812386
1.7024273 -1.9467316 -0.13112468 0 0 0 0 20.817333
1.684094 -1.9786942 -0.19503099 0 0 0 0 20.822279
1.6657364 -2.0146565 -0.26293775 0 0 0 0 20.827227
1.777846 -1.8848468 -0.066420615 0 0 0 0 20.832172
1.7535131 -1.9138002 -0.13129899 0 0 0 0 20.83712
1.7411634 -1.950772 -0.19723336 0 0 0 0 20.842068
1.7227988 -1.9857342 -0.26713994 0 0 0 0 20.847015
1.8329298 -1.8559215 -0.065613084 0 0 0 0 20.851961
1.8115882 -1.8878796 -0.13150556 0 0 0 0 20.856909
1.8002313 -1.9238528 -0.19944431 0 0 0 0 20.861855
1.7828597 -1.9578162 -0.27135533 0 0 0 0 20.866802
1.8730395 -1.8129735 -0.06373471 0 0 0 0 20.87175
1.8646723 -1.8559511 -0.13168788 0 0 0 0 20.876698
1.8593007 -1.8959333 -0.2016544 0 0 0 0 20.881643
1.8399266 -1.9258937 -0.27555579 0 0 0 0 20.886591
2.6450808 -2.4381323 -0.076277129 0 0 0 0 20.891537
1.9367228 -1.8400509 -0.13395806 0 0 0 0 20.896484
1.9073869 -1.8569969 -0.20381239 0 0 0 0 20.901432
1.9059767 -1.9019843 -0.28079751 0 0 0 0 20.906378
2.6872365 -2.3681858 -0.0733978 0 0 0 0 20.911325
2.2084625 -2.0014515 -0.14615798 0 0 0 0 20.916271
4.294302 -3.9605749 -0.41687378 0 0 0 0 20.921219
1.9570602 -1.8620526 -0.28396836 0 0 0 0 20.926167
2.7543571 -2.3182771 -0.071634091 0 0 0 0 20.931114
2.25458 -1.9505118 -0.1453025 0 0 0 0 20.93606
2.3589609 -2.0856576 -0.23877846 0 0 0 0 20.941008
3.0820742 -2.782728 -0.42613158 0 0 0 0 20.945953
2.7885168 -2.2423184 -0.069716878 0 0 0 0 20.950901
2.2847126 -1.8865477 -0.1453725 0 0 0 0 20.955849
2.4310396 -2.0487564 -0.24204101 0 0 0 0 20.960796
4.0994477 -3.5202398 -0.55076653 0 0 0 0 20.965742
2.8446522 -2.1823928 -0.067900978 0 0 0 0 20.97069
2.3278329 -1.8336033 -0.14450243 0 0 0 0 20.975636
4.882359 -3.902421 -0.4523015 0 0 0 0 20.980583
2.4317398 -1.9987363 -0.33496299 0 0 0 0 20.985531
2.8927934 -2.1184547 -0.066047847 0 0 0 0 20.990479
2.4138908 -1.8127229 -0.14682995 0 0 0 0 20.995424
4.1847591 -3.1903639 -0.38698378 0 0 0 0 21.000372
4.1240244 -3.2132542 -0.54369372 0 0 0 0 21.005318
2.8999801 -2.0244551 -0.06400577 0 0 0 0 21.010265
3.9640875 -2.8250387 -0.22088885 0 0 0 0 21.015213
3.912442 -2.8429446 -0.35964009 0 0 0 0 21.020159
3.9066834 -2.8969188 -0.51160276 0 0 0 0 21.025106
4.6513534 -3.0840757 -0.083964743 0 0 0 0 21.030052
4.0242724 -2.7301171 -0.22007741 0 0 0 0 21.035
4.0045733 -2.7690709 -0.36397535 0 0 0 0 21.039948
4.2823572 -3.0184674 -0.55323792 0 0 0 0 21.044895
4.7115679 -2.975153 -0.081146486 0 0 0 0 21.049841
4.1224041 -2.661252 -0.22243927 0 0 0 0 21.054789
4.4222727 -2.9056833 -0.3947987 0 0 0 0 21.059734
4.4184361 -2.9596586 -0.56476921 0 0 0 0 21.064682
4.4700608 -2.6847775 -0.075950563 0 0 0 0 21.06963
4.5811386 -2.809926 -0.24144547 0 0 0 0 21.074577
4.1818571 -2.6103122 -0.37161031 0 0 0 0 21.079523
4.5455294 -2.8908362 -0.57625741 0 0 0 0 21.084471
4.4033718 -2.5116646 -0.072556861 0 0 0 0 21.089417
6.3725047 -3.70259 -0.3205089 0 0 0 0 21.094364
5.3117151 -3.1399848 -0.46066546 0 0 0 0 21.099312
4.5478129 -2.7408276 -0.57217544 0 0 0 0 21.104259
4.4687634 -2.4173222 -0.069243349 0 0 0 0 21.761543
5.3762693 -3.0106184 -0.460089 0 0 0 0 21.771437
4.5833812 -2.6124659 -0.56968403 0 0 0 0 21.776384
4.0343285 -2.0686812 -0.062309053 0 0 0 0 21.781332
4.1006064 -2.1417704 -0.20957606 0 0 0 0 21.786278
4.5424724 -2.4074018 -0.38944435 0 0 0 0 21.791225
4.3619194 -2.3511343 -0.54065812 0 0 0 0 21.796173
4.0844965 -1.9797412 -0.061446708 0 0 0 0 21.801119
4.1417832 -2.0448177 -0.20967469 0 0 0 0 21.806067
5.5047102 -2.751776 -0.46345863 0 0 0 0 21.811012
4.6358294 -2.3575168 -0.56974417 0 0 0 0 21.81596
4.1396604 -1.8938082 -0.060605235 0 0 0 0 21.820908
4.1989512 -1.9538877 -0.209841 0 0 0 0 21.825855
5.5929008 -2.6348889 -0.46774468 0 0 0 0 21.830801
4.7539458 -2.2746744 -0.58016455 0 0 0 0 21.835749
4.3487287 -1.8730969 -0.060416065 0 0 0 0 21.840694
4.2850909 -1.8759993 -0.21212971 0 0 0 0 21.845642
4.6271024 -2.0504856 -0.38956264 0 0 0 0 21.85059
4.6752863 -2.1015489 -0.5677498 0 0 0 0 21.855537
4.7696829 -1.9276898 -0.062120683 0 0 0 0 21.860483
5.7383189 -2.3810699 -0.47418323 0 0 0 0 21.870377
4.8443427 -2.0387793 -0.58538443 0 0 0 0 21.875324
4.841857 -1.83078 -0.062345304 0 0 0 0 21.880272
4.8905416 -1.9218328 -0.58749825 0 0 0 0 21.895113
4.3453341 -1.5350533 -0.057171475 0 0 0 0 21.900059
4.3716474 -1.5650859 -0.21226563 0 0 0 0 21.905006
4.4442248 -1.6251801 -0.53453755 0 0 0 0 21.9149
4.242578 -1.392893 -0.055663235 0 0 0 0 21.919847
4.318882 -1.4359976 -0.2089676 0 0 0 0 21.924793
4.3901892 -1.4710952 -0.36425057 0 0 0 0 21.929741
4.41747 -1.4961296 -0.52934837 0 0 0 0 21.934689
4.2467651 -1.2898862 -0.054606259 0 0 0 0 21.939636
4.2801042 -1.3149295 -0.20572957 0 0 0 0 21.944582
4.2764773 -1.32292 -0.35469753 0 0 0 0 21.94953
4.2798042 -1.3369205 -0.51269478 0 0 0 0 21.954475
4.3818913 -1.2250669 -0.055098575 0 0 0 0 21.959423
4.3902316 -1.2390745 -0.21011661 0 0 0 0 21.964371
4.3836012 -1.2440609 -0.36107183 0 0 0 0 21.969318
5.1232791 -1.4631144 -0.60615236 0 0 0 0 21.974264
5.2487464 -1.3402934 -0.060650975 0 0 0 0 21.979212
5.1754651 -1.3451759 -0.6112898 0 0 0 0 21.994053
6.3075957 -1.4587915 -0.066992201 0 0 0 0 21.999001
6.1848402 -1.4426072 -0.49743998 0 0 0 0 22.008894
5.208674 -1.2202101 -0.61334777 0 0 0 0 22.01384
5.4721026 -1.1385834 -0.06142031 0 0 0 0 22.018787
5.4533086 -1.1405528 -0.25332341 0 0 0 0 22.023735
6.2430663 -1.3016753 -0.50059474 0 0 0 0 22.028681
5.2948351 -1.1073196 -0.6226263 0 0 0 0 22.033628
4.5095854 -0.83519697 -0.055333056 0 0 0 0 22.038574
4.535924 -0.84123135 -0.21442555 0 0 0 0 22.043522
4.5952573 -0.84831285 -0.3746551 0 0 0 0 22.04847
4.4737749 -0.72613287 -0.055110104 0 0 0 0 22.058363
4.5571017 -0.73824859 -0.21543913 0 0 0 0 22.063311
4.5914531 -0.73629475 -0.37456453 0 0 0 0 22.068256
4.4699545 -0.62411433 -0.05502072 0 0 0 0 22.078152
4.5362964 -0.62920606 -0.21427876 0 0 0 0 22.083099
4.5331225 -0.52919096 -0.055209059 0 0 0 0 22.097939
7.4940534 1.0355719 -0.35963279 0 0 0 0 22.062017
12.225173 1.865858 -0.1501788 0 0 0 0 22.076859
7.0063 1.1332825 -0.34051949 0 0 0 0 22.081806
12.937736 2.2728708 -0.16300538 0 0 0 0 22.096645
13.326253 2.6473455 -0.17448427 0 0 0 0 22.116434
13.638783 3.0279291 -0.18464561 0 0 0 0 22.136223
13.877304 3.4066181 -0.1954992 0 0 0 0 22.15601
14.195873 3.8241949 -0.20868023 0 0 0 0 22.175798
10.445968 3.0655208 -0.16614889 0 0 0 0 22.195587
10.786458 3.4260621 -0.17843975 0 0 0 0 22.215374
8.3504744 2.7745001 -0.43443036 0 0 0 0 22.220322
7.8354297 2.7222269 -0.67229974 0 0 0 0 22.225269
11.416104 3.9111969 -0.19591153 0 0 0 0 22.235163
7.7005773 2.7554348 -0.40867874 0 0 0 0 22.240108
7.2906218 2.7250125 -0.63298249 0 0 0 0 22.245056
11.832691 4.3506336 -0.21150559 0 0 0 0 22.254951
8.4011116 3.2264655 -0.44945592 0 0 0 0 22.259897
6.8208013 2.7336907 -0.59897894 0 0 0 0 22.264845
6.5719409 2.74704 -0.81594533 0 0 0 0 22.269791
12.140257 4.7722249 -0.22565076 0 0 0 0 22.274738
8.2363625 3.3817155 -0.44869375 0 0 0 0 22.279686
6.4469743 2.7622325 -0.57337344 0 0 0 0 22.284632
6.1381507 2.7396657 -0.76909733 0 0 0 0 22.289579
12.395818 5.1968899 -0.24158163 0 0 0 0 22.294527
7.9536891 3.6291287 -0.70843637 0 0 0 0 22.30442
5.8003535 2.7601552 -0.73364615 0 0 0 0 22.309368
12.539341 5.5897136 -0.25505477 0 0 0 0 22.314314
7.7119303 3.7394853 -0.69436777 0 0 0 0 22.324207
5.521543 2.7915609 -0.70543939 0 0 0 0 22.329155
10.531603 4.982554 -0.22878142 0 0 0 0 22.334103
10.014175 4.942275 -0.56765974 0 0 0 0 22.33905
7.5211768 3.8687699 -0.6855101 0 0 0 0 22.343996
5.256722 2.8189461 -0.67829335 0 0 0 0 22.348944
12.747381 6.3804717 -0.28467968 0 0 0 0 22.353889
9.6103544 5.0188613 -0.55592591 0 0 0 0 22.358837
7.3034034 3.9780917 -0.67454582 0 0 0 0 22.363785
7.0975041 4.0253763 -0.91469556 0 0 0 0 22.368732
12.799896 6.7714233 -0.29878393 0 0 0 0 22.373678
9.3115711 5.1372995 -0.54962349 0 0 0 0 22.378626
7.060607 4.062448 -0.6604833 0 0 0 0 22.383572
6.8837504 4.1276913 -0.89675277 0 0 0 0 22.388519
14.787765 8.2506685 -0.35872653 0 0 0 0 22.393467
8.8917065 5.1769061 -0.53583521 0 0 0 0 22.398413
6.8047905 4.1298218 -0.64537162 0 0 0 0 22.40336
6.5309315 4.1312008 -0.86025 0 0 0 0 22.408308
14.509124 8.5280867 -0.37048376 0 0 0 0 22.413254
8.6909513 5.3312058 -0.53493845 0 0 0 0 22.418201
8.5550203 5.4713898 -0.81637526 0 0 0 0 22.423149
5.9700022 3.98 -0.79691035 0 0 0 0 22.428095
14.085366 8.7097044 -0.37765956 0 0 0 0 22.433043
11.313068 7.3005638 -0.70444709 0 0 0 0 22.437988
8.2872515 5.5767813 -0.80221277 0 0 0 0 22.442936
5.5541034 3.9005949 -0.75116271 0 0 0 0 22.447884
13.514387 8.7804327 -0.38168013 0 0 0 0 22.381001
11.321464 7.678493 -0.72077143 0 0 0 0 22.385948
8.051383 5.6990662 -0.7924968 0 0 0 0 22.390896
13.433876 9.1655703 -0.39924762 0 0 0 0 22.400789
11.256914 8.0206051 -0.73341554 0 0 0 0 22.405737
7.7975955 5.7974377 -0.78039104 0 0 0 0 22.410683
12.731824 9.1155767 -0.39830306 0 0 0 0 22.420578
11.157344 8.340766 -0.74392045 0 0 0 0 22.425524
7.5598135 5.9027867 -0.76935369 0 0 0 0 22.430471
7.3669319 6.0020499 -1.0245632 0 0 0 0 22.435419
14.833324 11.129671 -0.484698 0 0 0 0 22.440365
11.152863 8.7467937 -0.76181257 0 0 0 0 22.445312
7.3330259 6.0071197 -0.75936425 0 0 0 0 22.45026
7.1401782 6.1093826 -1.0075759 0 0 0 0 22.455206
14.909055 11.718593 -0.5118981 0 0 0 0 22.460154
10.556869 8.6786461 -0.74131852 0 0 0 0 22.465099
10.044559 8.6263523 -1.0502419 0 0 0 0 22.470047
6.8853908 6.1817536 -0.98647869 0 0 0 0 22.474995
13.334139 10.977812 -0.48444322 0 0 0 0 22.479942
9.9848585 8.5994635 -0.72092825 0 0 0 0 22.484888
9.5256519 8.5760946 -1.0150695 0 0 0 0 22.489836
6.6486063 6.2650981 -0.9684577 0 0 0 0 22.494781
14.945477 12.876596 -0.56784129 0 0 0 0 22.499729
9.5129147 8.5851402 -0.70694786 0 0 0 0 22.504677
9.0357304 8.5247955 -0.98301977 0 0 0 0 22.509624
6.4158115 6.3414369 -0.95045614 0 0 0 0 22.51457
14.577794 13.142135 -0.5842638 0 0 0 0 22.519518
11.395349 10.764543 -0.86545151 0 0 0 0 22.524464
8.6118441 8.5194025 -0.95824194 0 0 0 0 22.529411
6.1639924 6.3888016 -0.92838103 0 0 0 0 22.534359
13.86371 13.081152 -0.58629954 0 0 0 0 22.539305
10.803332 10.685386 -0.84599125 0 0 0 0 22.544252
8.0968399 8.3941364 -0.9211024 0 0 0 0 22.5492
7.7948875 8.4725456 -1.1888868 0 0 0 0 22.554146
14.860639 14.666795 -0.66021854 0 0 0 0 22.559093
10.232305 10.600199 -0.82762218 0 0 0 0 22.564041
7.7749949 8.4455986 -0.90574473 0 0 0 0 22.568987
7.3379564 8.3681955 -1.1409885 0 0 0 0 22.573935
14.871467 15.360806 -0.69717592 0 0 0 0 22.57888
11.869856 12.872948 -0.98613012 0 0 0 0 22.583828
8.9758492 10.220948 -1.0665097 0 0 0 0 22.588776
6.9510584 8.3167477 -1.1033763 0 0 0 0 22.593723
14.80722 15.998922 -0.73283571 0 0 0 0 22.598669
11.234805 12.766849 -0.9655109 0 0 0 0 22.603617
8.7852278 10.488229 -1.069684 0 0 0 0 22.608562
6.5681453 8.2542934 -1.0657846 0 0 0 0 22.61351
13.116785 14.832284 -0.6879797 0 0 0 0 22.618458
10.66078 12.690662 -0.94914293 0 0 0 0 22.623405
8.3402948 10.447863 -1.0438416 0 0 0 0 22.628351
6.2672949 8.2727242 -1.0405263 0 0 0 0 22.633299
12.763103 15.113796 -0.70849353 0 0 0 0 22.638245
12.300756 15.341415 -1.1296593 0 0 0 0 22.643192
9.6276197 12.650096 -1.2329546 0 0 0 0 22.64814
7.44029 10.319111 -1.25919 0 0 0 0 22.653086
12.377377 15.35635 -0.72688502 0 0 0 0 22.658033
12.384762 16.203321 -1.1799384 0 0 0 0 22.662981
9.0675974 12.517888 -1.1966584 0 0 0 0 22.667927
7.0273705 10.250697 -1.220488 0 0 0 0 22.672874
11.943549 15.52097 -0.7430895 0 0 0 0 22.677822
11.76677 16.160194 -1.1654096 0 0 0 0 22.682768
8.5946512 12.467558 -1.1697165 0 0 0 0 22.687716
6.7045565 10.300157 -1.1961522 0 0 0 0 22.692661
11.838249 16.128138 -0.78061563 0 0 0 0 22.697609
12.252484 17.663544 -1.2603095 0 0 0 0 22.702557
11.551026 17.609491 -1.6125346 0 0 0 0 22.707504
7.6386342 12.361878 -1.3968675 0 0 0 0 22.71245
12.396114 17.713388 -0.86480194 0 0 0 0 22.717398
11.624473 17.610428 -1.246753 0 0 0 0 22.722343
10.904037 17.502401 -1.5749063 0 0 0 0 22.727291
7.1967101 12.286502 -1.3560623 0 0 0 0 22.732239
11.765013 17.659279 -0.87323582 0 0 0 0 22.737186
11.007442 17.543299 -1.2332473 0 0 0 0 22.742132
10.290067 17.419266 -1.5414174 0 0 0 0 22.74708
6.8429046 12.344003 -1.3316157 0 0 0 0 22.752026
11.147889 17.586145 -0.88073182 0 0 0 0 22.756973
10.402399 17.466146 -1.2197961 0 0 0 0 22.761921
8.3916569 14.996898 -1.3087763 0 0 0 0 22.766867
8.0169144 15.306394 -1.6083194 0 0 0 0 22.771814
10.577819 17.556946 -0.8904224 0 0 0 0 22.776762
8.6059713 15.242635 -1.0615717 0 0 0 0 22.781708
8.0339489 15.186403 -1.3043245 0 0 0 0 22.786655
7.6392188 15.460928 -1.5887914 0 0 0 0 22.791603
9.6109056 16.81329 -0.86452949 0 0 0 0 22.796549
7.8894835 14.769633 -1.0236814 0 0 0 0 22.801497
7.684247 15.383898 -1.3009101 0 0 0 0 22.806442
6.7404304 14.506178 -1.4591689 0 0 0 0 22.81139
8.4163723 15.537943 -0.81172705 0 0 0 0 22.816338
7.0816898 14.026755 -0.96942639 0 0 0 0 22.821285
7.2373366 15.385525 -1.2821107 0 0 0 0 22.826231
6.5751247 15.070416 -1.4835067 0 0 0 0 22.831179
7.4161096 14.482327 -0.76770508 0 0 0 0 22.836124
7.9145832 16.611624 -1.1387732 0 0 0 0 22.841072
6.4415579 14.56663 -1.1979077 0 0 0 0 22.84602
6.3206558 15.466776 -1.4904917 0 0 0 0 22.850967
6.9086142 14.28681 -0.76956707 0 0 0 0 22.568127
6.4849935 14.478389 -0.99288028 0 0 0 0 22.573074
6.4233537 15.492465 -1.2566693 0 0 0 0 22.57802
6.4519968 16.926413 -1.5958375 0 0 0 0 22.582968
7.6725788 16.826763 -0.91365296 0 0 0 0 22.587914
7.2651463 17.26932 -1.1770455 0 0 0 0 22.592861
6.5559707 16.925291 -1.3532068 0 0 0 0 22.597809
6.004149 16.941046 -1.5660107 0 0 0 0 22.602757
6.770083 17.193016 -1.1690243 0 0 0 0 22.61265
6.146162 17.032871 -1.3455369 0 0 0 0 22.617596
5.5362267 16.881706 -1.5291073 0 0 0 0 22.622543
5.7142987 17.086481 -1.3327833 0 0 0 0 22.637384
5.0873141 16.841339 -1.4962864 0 0 0 0 22.642332
4.6775346 16.929916 -1.4746326 0 0 0 0 22.662119
3.551744 14.151488 -1.2140094 0 0 0 0 22.681908
2.6082547 14.730338 -1.1916173 0 0 0 0 22.741272
2.4938521 16.27951 -1.2908423 0 0 0 0 22.761059
2.0707152 16.041054 -1.2501951 0 0 0 0 22.780848
1.6756759 15.906556 -1.218644 0 0 0 0 22.800636
1.7970388 15.944395 -1.1400816 0 0 0 0 22.815475
1.2957382 15.880043 -1.1961373 0 0 0 0 22.820423
2.4688067 16.270533 -1.0516119 0 0 0 0 22.825371
1.9163197 16.028244 -1.0975019 0 0 0 0 22.830318
1.4140364 15.900887 -1.1285673 0 0 0 0 22.835264
0.91875619 15.809523 -1.1706553 0 0 0 0 22.840212
2.0525098 16.038071 -1.0539997 0 0 0 0 22.845158
1.528196 15.910742 -1.0929823 0 0 0 0 22.850105
1.0380148 15.842368 -1.1170882 0 0 0 0 22.855053
0.54483807 15.808 -1.151178 0 0 0 0 22.859999
1.6643431 15.929571 -1.0634794 0 0 0 0 22.864946
1.1491365 15.862228 -1.0944908 0 0 0 0 22.869894
0.6670121 15.804842 -1.1076298 0 0 0 0 22.87484
0.17585684 15.747467 -1.1287355 0 0 0 0 22.879787
1.2842472 15.892061 -1.0779831 0 0 0 0 22.884735
0.77709603 15.834705 -1.0980278 0 0 0 0 22.889681
0.29396531 15.726315 -1.0961759 0 0 0 0 22.894629
-0.19004431 15.768931 -1.1122955 0 0 0 0 22.899574
0.91010261 15.809542 -1.090523 0 0 0 0 22.904522
0.40298796 15.741183 -1.0975738 0 0 0 0 22.90947
-0.070977308 15.751781 -1.09174 0 0 0 0 22.914417
0.54000735 15.775017 -1.106075 0 0 0 0 22.924311
0.040967859 15.732646 -1.1021564 0 0 0 0 22.929256
0.17291476 15.748487 -1.1236424 0 0 0 0 22.944099
-0.32596233 15.823114 -1.115708 0 0 0 0 22.949045
-1.3412733 16.319387 -1.097717 0 0 0 0 22.958939
-0.19211377 15.784954 -1.1452118 0 0 0 0 22.963886
-1.2153107 16.342236 -1.1171852 0 0 0 0 22.97378
-3.1280334 16.170601 -1.0928346 0 0 0 0 23.754601
-3.0184026 16.185486 -1.204221 0 0 0 0 23.769442
-4.8345561 16.143587 -0.95481032 0 0 0 0 23.818913
-4.9588113 15.943759 -1.2524275 0 0 0 0 23.868382
-5.7762156 15.316667 -0.87364185 0 0 0 0 23.878275
-4.8384638 15.957639 -1.4458573 0 0 0 0 23.883223
-5.6887217 15.392581 -1.0459522 0 0 0 0 23.893116
-6.101366 15.114038 -0.85154486 0 0 0 0 23.898064
-5.9909868 15.108926 -1.0299462 0 0 0 0 23.912905
-6.491364 15.071486 -0.83920592 0 0 0 0 23.91785
-5.8956847 15.110835 -1.2332932 0 0 0 0 23.927746
-6.3720455 15.046364 -1.0286422 0 0 0 0 23.932693
-6.8793893 15.002929 -0.82588243 0 0 0 0 23.937639
-5.7914362 15.136736 -1.4606675 0 0 0 0 23.942587
-6.2807984 15.038279 -1.2449776 0 0 0 0 23.947533
-6.7710853 15.008821 -1.0302778 0 0 0 0 23.95248
-7.288372 14.979395 -0.81548595 0 0 0 0 23.957428
-6.1586366 15.015159 -1.4814214 0 0 0 0 23.962374
-6.6808844 14.998738 -1.2596114 0 0 0 0 23.967321
-7.1801295 14.970289 -1.0328845 0 0 0 0 23.972269
-7.7941861 15.127974 -0.81373829 0 0 0 0 23.977215
-6.5657587 14.987627 -1.5110306 0 0 0 0 23.982162
-7.0829868 14.941197 -1.2732458 0 0 0 0 23.98711
-7.6899977 15.121874 -1.0481244 0 0 0 0 23.992056
-8.218195 15.079454 -0.80230486 0 0 0 0 23.997004
-6.9738975 14.945096 -1.5406436 0 0 0 0 24.001949
-7.5969067 15.100789 -1.306473 0 0 0 0 24.006897
-8.113059 15.071354 -1.0516961 0 0 0 0 24.011845
-8.6481972 15.039941 -0.79185557 0 0 0 0 24.016792
-7.4739099 15.067672 -1.5889255 0 0 0 0 24.021738
-8.0210085 15.055271 -1.3240421 0 0 0 0 24.026686
-8.5431147 15.025842 -1.055249 0 0 0 0 24.031631
-8.6888523 14.331972 -0.74783397 0 0 0 0 24.036579
-7.9170327 15.053178 -1.6234267 0 0 0 0 24.041527
-8.4561129 15.006765 -1.3415796 0 0 0 0 24.046474
-8.6736403 14.465978 -1.0238993 0 0 0 0 24.05142
-8.5876713 13.458838 -0.69731897 0 0 0 0 24.056368
-8.3422136 14.978661 -1.6550028 0 0 0 0 24.061314
-8.6645555 14.564992 -1.325948 0 0 0 0 24.066261
-8.5744724 13.567845 -0.96937919 0 0 0 0 24.071209
-8.4864244 12.651707 -0.64979351 0 0 0 0 24.076155
-8.6375675 14.67599 -1.661057 0 0 0 0 24.081102
-8.5763626 13.676873 -1.2683877 0 0 0 0 24.08605
-8.4972 12.778741 -0.92176813 0 0 0 0 24.090996
-8.3961182 11.910587 -0.6082198 0 0 0 0 24.095943
-8.4984379 13.68581 -1.5886815 0 0 0 0 24.100891
-8.670886 13.122968 -1.2401606 0 0 0 0 24.105837
-8.3719425 11.97358 -0.87332052 0 0 0 0 24.110785
-8.3327131 11.2655 -0.57054049 0 0 0 0 24.11573
-8.6179514 13.158934 -1.5673653 0 0 0 0 24.120678
-8.3468657 12.007576 -1.1584275 0 0 0 0 24.125626
-8.2995605 11.300483 -0.83367401 0 0 0 0 24.130573
-8.270278 10.657414 -0.53685147 0 0 0 0 24.135519
-8.300889 12.038548 -1.4726062 0 0 0 0 24.140467
-8.2654991 11.307467 -1.1148136 0 0 0 0 24.145412
-8.2391186 10.690399 -0.79797745 0 0 0 0 24.15036
-8.2078037 10.09133 -0.50615585 0 0 0 0 24.155308
-8.2235012 11.338444 -1.4239774 0 0 0 0 24.160255
-8.2240343 10.713405 -1.0790496 0 0 0 0 24.165201
-8.1776495 10.111315 -0.76527882 0 0 0 0 24.170149
-8.1273117 9.5382242 -0.47551802 0 0 0 0 24.175095
-8.1540709 10.690349 -1.3803134 0 0 0 0 24.180042
-8.1595592 10.126317 -1.0423611 0 0 0 0 24.18499
-8.1061487 9.5612211 -0.73360908 0 0 0 0 24.189936
-8.0867519 9.0591669 -0.44973436 0 0 0 0 24.194883
-8.0869503 10.090411 -1.3392202 0 0 0 0 23.898293
-8.0834017 9.5573645 -1.0063033 0 0 0 0 23.90324
-8.0449295 9.0552807 -0.70550466 0 0 0 0 23.908188
-8.0184946 8.581214 -0.42466021 0 0 0 0 23.913136
-8.0424328 9.5543451 -1.3054686 0 0 0 0 23.918081
-8.0298615 9.0542889 -0.97657841 0 0 0 0 23.923029
-7.9923687 8.5822077 -0.67977166 0 0 0 0 23.927975
-7.9679017 8.1461439 -0.40191481 0 0 0 0 23.932922
-7.9798946 9.032258 -1.2707764 0 0 0 0 23.93787
-7.9643087 8.5601988 -0.94689238 0 0 0 0 23.942816
-7.9477687 8.1481428 -0.65600443 0 0 0 0 23.947763
-7.925281 7.7390819 -0.38113669 0 0 0 0 23.952709
-7.9193296 8.5411739 -1.2390715 0 0 0 0 23.957657
-7.9157109 8.1161289 -0.92113954 0 0 0 0 23.962605
-7.8961582 7.725071 -0.63325876 0 0 0 0 23.967552
-7.8796411 7.3510175 -0.36136529 0 0 0 0 23.972498
-7.8657317 8.0830975 -1.2093368 0 0 0 0 23.977446
-7.8650899 7.6940589 -0.89638942 0 0 0 0 23.982391
-7.8445239 7.3269997 -0.61250865 0 0 0 0 23.987339
-7.8339815 6.9819536 -0.34259027 0 0 0 0 23.992287
-7.8191066 7.6590309 -1.1835719 0 0 0 0 23.997234
-7.8174524 7.2909908 -0.87362516 0 0 0 0 24.00218
-7.808856 6.9629464 -0.59369761 0 0 0 0 24.007128
-7.7953048 6.6328979 -0.32578734 0 0 0 0 24.012074
-7.7754574 7.2579679 -1.1587927 0 0 0 0 24.017021
-7.7787881 6.9189348 -0.85382473 0 0 0 0 24.021969
-7.7701793 6.608891 -0.57589453 0 0 0 0 24.026917
-7.7586074 6.3038449 -0.30997393 0 0 0 0 24.031862
-7.7387896 6.8809137 -1.1369852 0 0 0 0 24.03681
-7.7431021 6.5678821 -0.83501023 0 0 0 0 24.041756
-7.7264891 6.2688298 -0.55910587 0 0 0 0 24.046703
-7.7288933 5.9938006 -0.29613307 0 0 0 0 24.051651
-7.6861091 6.5108414 -1.1142306 0 0 0 0 24.056597
-7.69841 6.2208195 -0.81622511 0 0 0 0 24.061544
-7.6817837 5.943768 -0.54331768 0 0 0 0 24.066492
-7.6861753 5.6837416 -0.28133583 0 0 0 0 24.071438
-7.6514058 6.1687899 -1.0944095 0 0 0 0 24.076385
-7.6556983 5.8937593 -0.79842949 0 0 0 0 24.081333
-7.6480598 5.6367188 -0.5284884 0 0 0 0 24.086279
-7.6514401 5.3936915 -0.26850772 0 0 0 0 24.091227
-7.6106892 5.8407316 -1.0756063 0 0 0 0 24.096172
-7.2953372 2.8492324 -0.66018271 0 0 0 0 24.318789
-7.2875123 2.6472149 -0.65424317 0 0 0 0 24.338577
-7.2887974 2.5301902 -0.40325266 0 0 0 0 24.343523
-7.299099 2.4131761 -0.157232 0 0 0 0 24.348471
-7.252461 2.566195 -0.91838008 0 0 0 0 24.353416
-7.254683 2.4431691 -0.6463868 0 0 0 0 24.358364
-7.2659669 2.334156 -0.3973619 0 0 0 0 24.363312
-7.2160578 2.3592448 -0.90837437 0 0 0 0 24.126959
-7.255259 2.2522588 -0.64125407 0 0 0 0 24.131907
-5.8637829 -4.7525444 -0.36464763 0 0 0 0 24.826954
-4.9995184 -4.4124546 -0.72135901 0 0 0 0 24.836849
-5.1619396 -4.4682946 -0.52284563 0 0 0 0 24.841795
-5.5486584 -4.71489 -0.35263759 0 0 0 0 24.846743
-5.6600113 -4.7147851 -0.15128297 0 0 0 0 24.851688
-4.7383575 -4.3897424 -0.69317263 0 0 0 0 24.856636
-4.8177071 -4.3716712 -0.49691686 0 0 0 0 24.861584
-4.9171462 -4.3745766 -0.32159957 0 0 0 0 24.866531
-5.0115662 -4.3704886 -0.142298 0 0 0 0 24.871477
-4.4821882 -4.3560228 -0.66596609 0 0 0 0 24.876425
-4.576591 -4.3539348 -0.48066422 0 0 0 0 24.881371
-4.6720529 -4.3528442 -0.3133595 0 0 0 0 24.886318
-4.7654977 -4.3477559 -0.14206119 0 0 0 0 24.891266
-4.247035 -4.32828 -0.64169031 0 0 0 0 24.896214
-4.2954035 -4.2832408 -0.45953041 0 0 0 0 24.901159
-4.4239421 -4.3181138 -0.30412459 0 0 0 0 24.906105
-4.5314307 -4.3260098 -0.14178336 0 0 0 0 24.911053
-3.9297373 -4.2026248 -0.60466218 0 0 0 0 24.916
-4.0151954 -4.1935449 -0.43838841 0 0 0 0 24.920948
-4.168807 -4.2603903 -0.29490668 0 0 0 0 24.925896
-4.2943487 -4.290266 -0.14151077 0 0 0 0 24.930841
-3.7460442 -4.2038708 -0.58556491 0 0 0 0 25.641792
-3.8165488 -4.1808047 -0.42535603 0 0 0 0 25.64674
-3.9041271 -4.178721 -0.283099 0 0 0 0 25.651688
-3.9776783 -4.1576514 -0.13788196 0 0 0 0 25.656635
-3.6611016 -4.3139572 -0.58279395 0 0 0 0 25.661581
-3.7055697 -4.2559175 -0.42165911 0 0 0 0 25.666529
-3.7631207 -4.2198639 -0.28148764 0 0 0 0 25.671474
-3.8016405 -4.1578293 -0.13937016 0 0 0 0 25.676422
-3.5270758 -4.361093 -0.57316041 0 0 0 0 25.68137
-3.6276386 -4.3679962 -0.42186689 0 0 0 0 25.686317
-3.6551487 -4.292973 -0.28078055 0 0 0 0 25.691263
-3.7247171 -4.263907 -0.14357537 0 0 0 0 25.696209
-3.4351199 -4.4611859 -0.56940603 0 0 0 0 25.701157
-3.4996352 -4.4221253 -0.41721481 0 0 0 0 25.706104
-3.531157 -4.3460975 -0.28011703 0 0 0 0 25.711052
-3.6167564 -4.3360152 -0.14686692 0 0 0 0 25.716
-3.5826068 -4.8890386 -0.60597646 0 0 0 0 25.720945
-3.3746285 -4.4762511 -0.41155225 0 0 0 0 25.725891
-3.4432161 -4.4451857 -0.28135017 0 0 0 0 25.730839
-3.5117962 -4.4091206 -0.15014829 0 0 0 0 25.735786
-3.3744555 -4.8452477 -0.58454722 0 0 0 0 25.740734
-3.1993501 -4.8334227 -0.56802213 0 0 0 0 25.760521
-3.0162208 -4.8026047 -0.54951686 0 0 0 0 25.78031
-2.849113 -4.7847705 -0.53396416 0 0 0 0 25.800098
-2.6699648 -4.7339478 -0.51544231 0 0 0 0 25.819885
-2.5238874 -4.7350912 -0.50382626 0 0 0 0 25.839672
-2.3647647 -4.7012472 -0.48824397 0 0 0 0 25.859463
-2.5847189 -4.9370317 -0.392625 0 0 0 0 25.864408
-2.2146559 -4.6753936 -0.47463447 0 0 0 0 25.87925
-2.4166 -4.8921962 -0.38206658 0 0 0 0 25.884197
-2.0725579 -4.6575313 -0.46200076 0 0 0 0 25.899036
-2.2865636 -4.9143224 -0.3774009 0 0 0 0 25.903984
-1.9334571 -4.6366658 -0.44935665 0 0 0 0 25.918825
-2.1204288 -4.8524837 -0.36683229 0 0 0 0 25.923773
-1.7973565 -4.6127968 -0.4377023 0 0 0 0 25.938614
-1.9813462 -4.8356175 -0.35918716 0 0 0 0 25.943562
-1.667264 -4.5969214 -0.42602956 0 0 0 0 25.958401
-1.8382493 -4.8037548 -0.35155103 0 0 0 0 25.963348
-1.5401744 -4.5810423 -0.41534671 0 0 0 0 25.978189
-1.7001536 -4.7728868 -0.3438991 0 0 0 0 25.983135
-1.4180934 -4.5711584 -0.40564841 0 0 0 0 25.997978
-1.5680677 -4.7490129 -0.33722889 0 0 0 0 26.002924
-1.2970098 -4.5582728 -0.39594564 0 0 0 0 26.017765
-1.4379807 -4.7211356 -0.33155137 0 0 0 0 26.022713
-1.1769196 -4.5383859 -0.3862384 0 0 0 0 26.037554
-1.3128998 -4.7022538 -0.32485843 0 0 0 0 26.0425
-1.0628487 -4.5324922 -0.37851322 0 0 0 0 26.057343
-1.1918246 -4.6833673 -0.32015285 0 0 0 0 26.062288
-0.94776827 -4.5195994 -0.36978912 0 0 0 0 26.077129
-1.075765 -4.6804752 -0.31543201 0 0 0 0 26.082077
-1.191731 -4.7953629 -0.26610771 0 0 0 0 26.087025
-0.83568609 -4.504703 -0.36105525 0 0 0 0 26.096916
-0.9586938 -4.6655841 -0.31071228 0 0 0 0 26.101864
-1.0696622 -4.7714767 -0.26540199 0 0 0 0 26.106812
-0.72522712 -4.48487 -0.35289139 0 0 0 0 25.831169
-0.84324628 -4.6467538 -0.30655289 0 0 0 0 25.836117
-0.94618917 -4.722652 -0.2632553 0 0 0 0 25.841063
-0.61715472 -4.477972 -0.34515452 0 0 0 0 25.850956
-0.72614616 -4.605865 -0.30084115 0 0 0 0 25.855904
-0.82208282 -4.66677 -0.26056334 0 0 0 0 25.860851
-0.50908726 -4.4730744 -0.33841619 0 0 0 0 25.870745
-0.60902369 -4.5449758 -0.29412752 0 0 0 0 25.87569
-0.7070002 -4.6318789 -0.25884494 0 0 0 0 25.880638
-0.81600511 -4.7477708 -0.22353242 0 0 0 0 25.885586
-0.40199944 -4.4501743 -0.33067325 0 0 0 0 25.890533
-0.49389967 -4.4820838 -0.28740674 0 0 0 0 25.895479
-0.59594303 -4.6199827 -0.25811419 0 0 0 0 25.900425
-0.6868403 -4.6288929 -0.22185068 0 0 0 0 25.905373
-0.29794008 -4.4532714 -0.32392088 0 0 0 0 25.91032
-0.38579437 -4.4351845 -0.28166521 0 0 0 0 25.915268
-0.48488176 -4.6010866 -0.25838175 0 0 0 0 25.920216
-0.58184123 -4.6589909 -0.22710268 0 0 0 0 25.925161
-0.19286121 -4.4363689 -0.31716955 0 0 0 0 25.930107
-0.2817387 -4.4302812 -0.27891171 0 0 0 0 25.935055
-0.37783626 -4.5981865 -0.25863695 0 0 0 0 25.940002
-0.46775642 -4.6100974 -0.22937711 0 0 0 0 25.94495
-0.088775828 -4.4154654 -0.30941397 0 0 0 0 25.949898
-0.17766955 -4.4143777 -0.27515662 0 0 0 0 25.954844
-0.26775107 -4.5602884 -0.25689849 0 0 0 0 25.959789
-0.35869601 -4.5831985 -0.23263645 0 0 0 0 25.964737
0.013285332 -4.4135585 -0.30365163 0 0 0 0 25.969685
-0.07461305 -4.4084721 -0.27239746 0 0 0 0 25.974632
-0.15859921 -4.4593887 -0.25315517 0 0 0 0 25.979578
-0.2506541 -4.5752983 -0.23589176 0 0 0 0 25.984526
0.11535419 -4.4036522 -0.2978878 0 0 0 0 25.989471
0.026448278 -4.3975644 -0.26963127 0 0 0 0 25.994419
-0.055490322 -4.3994837 -0.25039437 0 0 0 0 25.999367
-0.1446062 -4.5583959 -0.24013999 0 0 0 0 26.004314
0.21744299 -4.3787451 -0.29012242 0 0 0 0 26.00926
0.12849706 -4.3966575 -0.26786652 0 0 0 0 26.014208
0.045561742 -4.3865757 -0.25162715 0 0 0 0 26.019154
-0.039441012 -4.4374919 -0.23838311 0 0 0 0 26.024101
0.31850868 -4.3718371 -0.28435302 0 0 0 0 26.029049
0.22955923 -4.3847494 -0.26509753 0 0 0 0 26.033997
0.14660974 -4.3806672 -0.25185862 0 0 0 0 26.038942
0.061641175 -4.390584 -0.24061464 0 0 0 0 26.043888
0.41957247 -4.3639283 -0.27958223 0 0 0 0 26.048836
0.32962132 -4.3728395 -0.26232439 0 0 0 0 26.053783
0.24864258 -4.3847599 -0.25409147 0 0 0 0 26.058731
0.162683 -4.3796754 -0.24484503 0 0 0 0 26.063679
0.51964468 -4.3500185 -0.27380729 0 0 0 0 26.068624
0.43267384 -4.3679323 -0.2605581 0 0 0 0 26.07357
0.34870216 -4.3668499 -0.25431728 0 0 0 0 26.078518
0.26471537 -4.3757677 -0.2500768 0 0 0 0 26.083466
0.62071586 -4.3371086 -0.26803365 0 0 0 0 26.088413
0.53273207 -4.3570223 -0.25878218 0 0 0 0 26.093359
0.45074934 -4.3589416 -0.25554723 0 0 0 0 26.098307
0.36774763 -4.3748603 -0.25430989 0 0 0 0 26.103252
0.72377259 -4.3362007 -0.26326412 0 0 0 0 26.1082
0.6347959 -4.3431134 -0.25601029 0 0 0 0 26.113148
0.55279088 -4.3540325 -0.25777572 0 0 0 0 26.118095
0.46878779 -4.3629503 -0.25953606 0 0 0 0 26.123041
0.82185483 -4.3142872 -0.25647953 0 0 0 0 26.127989
0.73485309 -4.3332024 -0.25423157 0 0 0 0 26.132935
0.65384185 -4.342123 -0.25900012 0 0 0 0 26.137882
0.56783748 -4.3440385 -0.26375541 0 0 0 0 26.14283
0.92591524 -4.3093801 -0.25170982 0 0 0 0 26.147778
0.83591396 -4.3192916 -0.25245416 0 0 0 0 26.152723
0.75389761 -4.3252115 -0.26022038 0 0 0 0 26.157669
0.67087841 -4.3341298 -0.26798418 0 0 0 0 26.162617
1.025987 -4.2924676 -0.24692789 0 0 0 0 26.167564
0.93796825 -4.309382 -0.25167808 0 0 0 0 26.172512
0.85693818 -4.3213024 -0.26244736 0 0 0 0 26.17746
0.77290928 -4.3292203 -0.27420887 0 0 0 0 26.182405
1.1270539 -4.2805562 -0.24214728 0 0 0 0 26.187351
1.0400262 -4.2984715 -0.24990056 0 0 0 0 26.192299
0.95799202 -4.3063912 -0.26366752 0 0 0 0 26.197247
0.87395799 -4.3113093 -0.27842942 0 0 0 0 26.202194
1.233114 -4.2756491 -0.23737864 0 0 0 0 26.20714
1.143085 -4.2865615 -0.2481243 0 0 0 0 26.212088
1.0610421 -4.2924814 -0.26589164 0 0 0 0 26.217033
0.97998327 -4.3124027 -0.28466195 0 0 0 0 26.221981
1.3361835 -4.2607388 -0.23260054 0 0 0 0 26.226929
1.2451495 -4.2686505 -0.24634396 0 0 0 0 26.231876
1.1670836 -4.2875743 -0.26812235 0 0 0 0 26.236822
1.0830245 -4.2994924 -0.28988501 0 0 0 0 26.24177
1.4382558 -4.2428274 -0.22781837 0 0 0 0 26.246716
1.3511943 -4.2657428 -0.24657282 0 0 0 0 26.251663
1.272128 -4.2796659 -0.27034888 0 0 0 0 26.256611
1.1860707 -4.2815824 -0.29510665 0 0 0 0 26.261559
1.5433193 -4.2339182 -0.2230427 0 0 0 0 26.266504
1.4552577 -4.2488327 -0.24479495 0 0 0 0 26.27145
1.3741819 -4.261754 -0.27256605 0 0 0 0 26.276398
1.2930973 -4.2786756 -0.30233744 0 0 0 0 26.281345
0.89942747 -2.3162994 -0.12628485 0 0 0 0 26.286293
0.86036068 -2.3522608 -0.14216904 0 0 0 0 26.291241
1.4782349 -4.244844 -0.27478713 0 0 0 0 26.296186
1.3981415 -4.2627659 -0.30756149 0 0 0 0 26.301132
1.5145577 -3.6329827 -0.18754007 0 0 0 0 26.059544
0.90896219 -2.3183956 -0.14086102 0 0 0 0 26.064491
0.87388557 -2.3483596 -0.16175339 0 0 0 0 26.069437
0.83779866 -2.3863225 -0.18364319 0 0 0 0 26.074385
0.97814876 -2.2164564 -0.11901172 0 0 0 0 26.07933
0.95703727 -2.285434 -0.13894248 0 0 0 0 26.084278
0.91996491 -2.3083963 -0.16082951 0 0 0 0 26.089226
0.88587463 -2.3443615 -0.18472487 0 0 0 0 26.094173
1.0262231 -2.1894948 -0.11509262 0 0 0 0 26.099119
0.99513614 -2.2304628 -0.1359961 0 0 0 0 26.104067
0.96604031 -2.2694328 -0.16090509 0 0 0 0 26.109013
0.93494469 -2.3084009 -0.18580872 0 0 0 0 26.11396
1.8596141 -3.717288 -0.18231146 0 0 0 0 26.118908
1.040213 -2.1924982 -0.1350683 0 0 0 0 26.123856
1.0081252 -2.2234654 -0.15996924 0 0 0 0 26.128801
0.97802526 -2.2614343 -0.18687569 0 0 0 0 26.133747
1.5235577 -2.8869557 -0.14234118 0 0 0 0 26.138695
1.9184823 -3.7953322 -0.2223994 0 0 0 0 26.143642
1.0531993 -2.1855006 -0.160041 0 0 0 0 26.14859
1.024096 -2.2244706 -0.18795025 0 0 0 0 26.153538
1.591638 -2.8550122 -0.13847053 0 0 0 0 26.158484
1.4537015 -2.7258778 -0.16408481 0 0 0 0 26.163429
1.9304481 -3.7583318 -0.26735941 0 0 0 0 26.168377
1.0701649 -2.186507 -0.19002426 0 0 0 0 26.173325
1.6587188 -2.8220673 -0.13459629 0 0 0 0 26.178272
1.4968133 -2.6579103 -0.16114706 0 0 0 0 26.183218
2.0095465 -3.6983979 -0.26751384 0 0 0 0 26.188166
1.9184468 -3.6763084 -0.31625485 0 0 0 0 26.193111
1.7248007 -2.788121 -0.1307185 0 0 0 0 26.198059
1.5499039 -2.608952 -0.15923563 0 0 0 0 26.203007
1.4479026 -2.5308526 -0.19094889 0 0 0 0 26.207954
1.9675967 -3.565346 -0.3153286 0 0 0 0 26.2129
1.7908815 -2.7521746 -0.12783985 0 0 0 0 26.217848
1.6039896 -2.5649946 -0.15732621 0 0 0 0 26.222794
1.5648642 -2.5919552 -0.19820827 0 0 0 0 26.227741
2.0117507 -3.452378 -0.31338853 0 0 0 0 26.232689
1.8529705 -2.7102242 -0.12394969 0 0 0 0 26.237637
1.6600732 -2.5230389 -0.15542147 0 0 0 0 26.242582
1.5031517 -2.3638875 -0.18598986 0 0 0 0 26.247528
1.632708 -2.6590085 -0.25132152 0 0 0 0 26.252476
1.9140612 -2.6662724 -0.12005609 0 0 0 0 26.257423
1.708167 -2.4700751 -0.15349478 0 0 0 0 26.262371
1.5462418 -2.3119197 -0.18505108 0 0 0 0 26.267319
1.7067537 -2.6380699 -0.25646362 0 0 0 0 26.272264
1.9781461 -2.6283236 -0.11616966 0 0 0 0 26.27721
1.7622494 -2.4261169 -0.15258339 0 0 0 0 26.282158
1.5783459 -2.244941 -0.18408273 0 0 0 0 26.287106
2.3388371 -3.4266584 -0.33708078 0 0 0 0 26.292053
2.0442281 -2.5903761 -0.11328769 0 0 0 0 26.296999
1.8143344 -2.3821568 -0.15066604 0 0 0 0 26.301947
1.6134431 -2.1849651 -0.18312195 0 0 0 0 26.306892
2.8721693 -3.9981515 -0.40242732 0 0 0 0 26.31184
2.1093125 -2.5524275 -0.10940224 0 0 0 0 26.316788
1.8644192 -2.3351946 -0.1497428 0 0 0 0 26.321735
1.6565289 -2.1369965 -0.18218179 0 0 0 0 26.326681
2.8434567 -3.7691133 -0.39128801 0 0 0 0 26.331629
1.6819783 -1.9480152 -0.086222358 0 0 0 0 26.336575
1.6518447 -1.976985 -0.13012952 0 0 0 0 26.341522
1.6826323 -2.0700121 -0.1811966 0 0 0 0 26.34647
2.8207228 -3.5590806 -0.38116524 0 0 0 0 26.351418
1.7330512 -1.9180539 -0.083302453 0 0 0 0 26.356363
1.7069116 -1.9480275 -0.12922019 0 0 0 0 26.361309
1.6837698 -1.9750038 -0.1771459 0 0 0 0 26.366257
1.6646147 -2.0079842 -0.22808208 0 0 0 0 26.371204
1.7931136 -1.8961008 -0.081405371 0 0 0 0 26.376152
1.7629749 -1.9200708 -0.12931274 0 0 0 0 26.3811
1.7388291 -1.9460464 -0.17923588 0 0 0 0 26.386045
1.7216674 -1.9810286 -0.23217729 0 0 0 0 26.390991
1.8351984 -1.8531306 -0.078460723 0 0 0 0 26.395939
1.8140453 -1.887109 -0.12839159 0 0 0 0 26.400887
1.7988856 -1.9200932 -0.18133818 0 0 0 0 26.405834
1.7777272 -1.9490718 -0.2352692 0 0 0 0 26.41078
1.8892672 -1.8241715 -0.076546654 0 0 0 0 26.415728
1.867112 -1.855149 -0.12847498 0 0 0 0 26.420673
1.8539492 -1.8891351 -0.18242674 0 0 0 0 26.425621
1.8367817 -1.9201175 -0.23936814 0 0 0 0 26.430569
2.6257064 -2.418848 -0.094398007 0 0 0 0 26.435516
1.9301704 -1.8321983 -0.12858352 0 0 0 0 26.440462
1.9100112 -1.8571779 -0.18451719 0 0 0 0 26.44541
1.8998342 -1.8931669 -0.24347667 0 0 0 0 26.450356
2.6698177 -2.350878 -0.090451732 0 0 0 0 26.455303
2.1910369 -1.9844311 -0.14020132 0 0 0 0 26.460251
2.0040345 -1.8582556 -0.18970473 0 0 0 0 26.465199
1.9548932 -1.8592085 -0.24756378 0 0 0 0 26.470144
2.6469843 -2.2258456 -0.085332729 0 0 0 0 26.47509
2.2421184 -1.9394683 -0.13927595 0 0 0 0 26.480038
2.3597922 -2.086576 -0.21656336 0 0 0 0 26.484985
4.3043637 -3.8863797 -0.51853931 0 0 0 0 26.489933
2.6890905 -2.1598735 -0.082380816 0 0 0 0 26.494881
2.2872062 -1.8874998 -0.13833463 0 0 0 0 26.499826
4.6606607 -3.9166973 -0.40539923 0 0 0 0 26.504772
4.3795094 -3.7674356 -0.52165955 0 0 0 0 26.50972
2.7391922 -2.1009085 -0.078448914 0 0 0 0 26.514668
2.3222992 -1.8295219 -0.13736722 0 0 0 0 26.519615
4.8706865 -3.9038768 -0.41686118 0 0 0 0 26.524561
2.4287643 -1.9956177 -0.2936089 0 0 0 0 26.529509
2.7941999 -2.044975 -0.075677536 0 0 0 0 26.487125
2.4082644 -1.8086159 -0.13867061 0 0 0 0 26.492073
5.0626364 -3.8680751 -0.42646566 0 0 0 0 26.497021
4.4347849 -3.462492 -0.5178355 0 0 0 0 26.501968
2.8622863 -1.9970267 -0.073791221 0 0 0 0 26.506914
3.9631715 -2.8290436 -0.21359381 0 0 0 0 26.511862
4.8990068 -3.5639083 -0.40796974 0 0 0 0 26.516808
4.4869428 -3.3345261 -0.51889616 0 0 0 0 26.521755
4.6092763 -3.059628 -0.10219396 0 0 0 0 26.526703
4.0213046 -2.733084 -0.21167316 0 0 0 0 26.531651
4.0019693 -2.774065 -0.33160549 0 0 0 0 26.536596
4.5670719 -3.2265861 -0.52402765 0 0 0 0 26.541542
4.6754222 -2.9546742 -0.098288916 0 0 0 0 26.54649
4.1084132 -2.6571507 -0.21182562 0 0 0 0 26.551437
4.0800824 -2.6891236 -0.33373508 0 0 0 0 26.556385
4.6172271 -3.1006181 -0.52508199 0 0 0 0 26.561333
4.4417467 -2.6694446 -0.08862137 0 0 0 0 26.566278
6.1092272 -3.751977 -0.30083543 0 0 0 0 26.571224
4.5109248 -2.8225064 -0.36375859 0 0 0 0 26.576172
4.7053475 -2.9986849 -0.53123212 0 0 0 0 26.58112
4.3959479 -2.508388 -0.082433425 0 0 0 0 26.586067
6.376286 -3.7162046 -0.30742779 0 0 0 0 26.591013
5.4564157 -3.2363601 -0.432078 0 0 0 0 26.595961
4.7714872 -2.8837311 -0.53432572 0 0 0 0 26.600906
4.4770732 -2.4244478 -0.078566983 0 0 0 0 26.605854
6.6123753 -3.6524031 -0.31193855 0 0 0 0 26.610802
5.5495591 -3.1194293 -0.43423423 0 0 0 0 26.615749
4.810647 -2.7517521 -0.53535056 0 0 0 0 26.620695
4.0384555 -2.0730324 -0.068390086 0 0 0 0 26.625643
4.0860848 -2.1400754 -0.19449179 0 0 0 0 26.630589
4.3925381 -2.3363552 -0.34424454 0 0 0 0 26.635536
4.1143608 -2.2271006 -0.4575265 0 0 0 0 26.640484
4.0895815 -1.9840653 -0.065450072 0 0 0 0 26.645432
4.1192174 -2.0390921 -0.1935062 0 0 0 0 26.650377
4.2887707 -2.1552463 -0.3329134 0 0 0 0 26.655323
4.606163 -2.3515363 -0.50769049 0 0 0 0 26.660271
4.1357074 -1.8940935 -0.062496975 0 0 0 0 26.665218
4.1793365 -1.9521329 -0.19258788 0 0 0 0 26.670166
4.2649426 -2.0202107 -0.32878387 0 0 0 0 26.675114
4.9730773 -2.3898561 -0.5445357 0 0 0 0 26.680059
4.203825 -1.8131415 -0.059598383 0 0 0 0 26.685005
4.2714405 -1.8762028 -0.19374886 0 0 0 0 26.689953
4.5689192 -2.0354733 -0.34847268 0 0 0 0 26.694901
4.7094326 -2.1266015 -0.51380414 0 0 0 0 26.699848
4.7687545 -1.9296393 -0.060937073 0 0 0 0 26.704794
5.9053402 -2.4626713 -0.4427264 0 0 0 0 26.714687
5.0733685 -2.1449175 -0.54963666 0 0 0 0 26.719635
4.834887 -1.8316842 -0.058028672 0 0 0 0 26.724583
6.0104799 -2.3417499 -0.44690707 0 0 0 0 26.734476
5.1345019 -2.0279577 -0.55471373 0 0 0 0 26.739424
4.3612008 -1.5422413 -0.050781731 0 0 0 0 26.74437
4.4038258 -1.5822803 -0.19086888 0 0 0 0 26.749317
4.4034739 -1.6002806 -0.32984969 0 0 0 0 26.754265
4.2433786 -1.3961208 -0.046420876 0 0 0 0 26.764158
4.2830172 -1.4301572 -0.18350071 0 0 0 0 26.769104
4.3806329 -1.476246 -0.32572365 0 0 0 0 26.774052
4.405251 -1.5012692 -0.47476614 0 0 0 0 26.778999
4.2445121 -1.2931077 -0.044355009 0 0 0 0 26.783947
4.2771568 -1.321138 -0.18141742 0 0 0 0 26.788895
4.2738228 -1.3321357 -0.31639132 0 0 0 0 26.79384
4.274467 -1.3431375 -0.46037507 0 0 0 0 26.798786
4.3516197 -1.2201897 -0.041549847 0 0 0 0 26.803734
4.3802571 -1.2442164 -0.18360209 0 0 0 0 26.808681
4.3659229 -1.2482046 -0.32154897 0 0 0 0 26.813629
4.3795552 -1.2622182 -0.46956444 0 0 0 0 26.818575
5.2535381 -1.3459828 -0.044692095 0 0 0 0 26.823523
5.3992057 -1.4131192 -0.57399005 0 0 0 0 26.838364
6.2994666 -1.4629012 -0.047174849 0 0 0 0 26.843311
5.5003209 -1.300194 -0.5841614 0 0 0 0 26.85815
5.4788008 -1.1441516 -0.040092245 0 0 0 0 26.863098
5.4034481 -1.1387569 -0.21615224 0 0 0 0 26.868046
6.5696301 -1.3836994 -0.47102889 0 0 0 0 26.872993
5.5125403 -1.1638026 -0.5843851 0 0 0 0 26.877939
4.524169 -0.84102964 -0.033901606 0 0 0 0 26.882885
4.5488029 -0.85103154 -0.18294556 0 0 0 0 26.887833
4.6404228 -0.86708868 -0.33615449 0 0 0 0 26.89278
4.4443049 -0.72494775 -0.031622153 0 0 0 0 26.902676
4.5419307 -0.7430101 -0.18184569 0 0 0 0 26.907621
4.5655775 -0.7430113 -0.32988599 0 0 0 0 26.912567
4.4304295 -0.62192082 -0.029506523 0 0 0 0 26.922462
4.5430593 -0.63699549 -0.17976575 0 0 0 0 26.92741
4.4877291 -0.62193179 -0.32361162 0 0 0 0 26.932358
4.4795475 -0.52694607 -0.027545504 0 0 0 0 26.942249
4.570179 -0.53500211 -0.17974959 0 0 0 0 26.947197
4.7226019 -0.44867635 -0.024999162 0 0 0 0 27.517918
20.31089 2.1568499 -0.023989355 0 0 0 0 27.696011
9.9622545 1.2805905 -0.017469872 0 0 0 0 27.715797
7.7805071 1.05924 -0.28774047 0 0 0 0 27.720745
11.766659 1.7812806 -0.018214578 0 0 0 0 27.735586
7.4746604 1.1914883 -0.27697587 0 0 0 0 27.740534
12.773018 2.2245681 -0.018222112 0 0 0 0 27.755375
13.180325 2.600301 -0.017936707 0 0 0 0 27.775162
13.612645 3.0000176 -0.018697446 0 0 0 0 27.79495
13.768934 3.3589382 -0.018867612 0 0 0 0 27.814739
14.048249 3.7587695 -0.020293901 0 0 0 0 27.834526
14.284569 4.1666336 -0.021624945 0 0 0 0 27.854315
8.9652748 2.852571 -0.65442044 0 0 0 0 27.864208
14.514894 4.5855031 -0.023939503 0 0 0 0 27.874104
8.7039833 2.8667541 -0.33379161 0 0 0 0 27.879049
8.0013657 2.7532899 -0.59029621 0 0 0 0 27.883995
7.5248117 2.7056608 -0.8402738 0 0 0 0 27.888943
14.704217 5.006403 -0.026164819 0 0 0 0 27.89389
11.699711 4.1536198 -0.44788495 0 0 0 0 27.898838
7.3614655 2.7267723 -0.54785991 0 0 0 0 27.903786
7.0079541 2.710052 -0.78909755 0 0 0 0 27.908731
14.89855 5.4473004 -0.029396757 0 0 0 0 27.913677
8.5013142 3.2409494 -0.33213827 0 0 0 0 27.918625
6.8925695 2.7401297 -0.51678723 0 0 0 0 27.923573
6.6560931 2.7613237 -0.75526977 0 0 0 0 27.92852
14.914845 5.8363266 -0.03225847 0 0 0 0 27.933466
12.335325 5.026227 -0.48090321 0 0 0 0 27.938414
8.1379194 3.4592624 -0.6132412 0 0 0 0 27.943359
6.1992106 2.7476683 -0.70923328 0 0 0 0 27.948307
14.947144 6.2343421 -0.036152888 0 0 0 0 27.953255
12.547627 5.4531078 -0.49518746 0 0 0 0 27.958202
7.9390655 3.5954275 -0.60372168 0 0 0 0 27.963148
5.8613224 2.7689271 -0.67744744 0 0 0 0 27.968096
15.023459 6.6623254 -0.041136201 0 0 0 0 27.973042
12.682919 5.8580446 -0.50631118 0 0 0 0 27.977989
7.742209 3.7285903 -0.59420943 0 0 0 0 27.982937
5.5964332 2.8091328 -0.65281606 0 0 0 0 27.987885
14.977517 7.0429316 -0.04660828 0 0 0 0 27.749626
10.059165 4.9286056 -0.41016394 0 0 0 0 27.754574
7.555994 3.858475 -0.58684307 0 0 0 0 27.759521
14.936817 7.4379997 -0.051346879 0 0 0 0 27.769413
9.680274 5.0189109 -0.40123558 0 0 0 0 27.774361
7.3851342 3.9916224 -0.58037466 0 0 0 0 27.779308
14.900115 7.8380647 -0.057094481 0 0 0 0 27.789204
9.4024096 5.1531415 -0.39552495 0 0 0 0 27.794149
9.0807505 5.18641 -0.71780986 0 0 0 0 27.799095
6.9057331 4.1140208 -0.82622945 0 0 0 0 27.804043
14.749376 8.1882143 -0.062603779 0 0 0 0 27.80899
11.081199 6.4099436 -0.47089705 0 0 0 0 27.813938
8.8098974 5.3116326 -0.70412159 0 0 0 0 27.818886
6.5728407 4.1322823 -0.79543298 0 0 0 0 27.823832
18.037085 10.547849 -0.082262509 0 0 0 0 27.828777
11.161483 6.8009152 -0.48192126 0 0 0 0 27.833725
8.5480347 5.4308472 -0.69245678 0 0 0 0 27.838673
6.0979071 4.0416446 -0.74634868 0 0 0 0 27.84362
14.933103 9.1861563 -0.078633644 0 0 0 0 27.848566
11.263785 7.2238717 -0.49498868 0 0 0 0 27.853514
8.3281803 5.5670304 -0.6828832 0 0 0 0 27.858459
5.6529627 3.9449837 -0.70033485 0 0 0 0 27.863407
17.695717 11.442187 -0.10014696 0 0 0 0 27.868355
11.29207 7.6158814 -0.50490135 0 0 0 0 27.873302
8.0903149 5.6892262 -0.67227596 0 0 0 0 27.878248
7.8887367 5.7914023 -0.98482019 0 0 0 0 27.883194
17.650093 11.979266 -0.11084938 0 0 0 0 27.888142
11.249327 7.9659429 -0.51266783 0 0 0 0 27.893089
7.8824544 5.8253994 -0.66473401 0 0 0 0 27.898037
7.6618848 5.9105883 -0.96824151 0 0 0 0 27.902985
17.564459 12.507372 -0.12146962 0 0 0 0 27.90793
11.175573 8.3040266 -0.52037114 0 0 0 0 27.912876
11.274977 8.7439966 -0.95951676 0 0 0 0 27.917824
7.3860092 5.9838076 -0.94656718 0 0 0 0 27.922771
16.958553 12.656852 -0.13003343 0 0 0 0 27.927719
11.186869 8.7190495 -0.53124738 0 0 0 0 27.932667
10.676032 8.689455 -0.92315543 0 0 0 0 27.937613
7.1441402 6.0790014 -0.92896593 0 0 0 0 27.942558
16.000446 12.513583 -0.13489476 0 0 0 0 27.947506
13.461275 10.995456 -0.65169066 0 0 0 0 27.952454
10.136091 8.6508675 -0.89092392 0 0 0 0 27.957401
6.9192705 6.180182 -0.91340297 0 0 0 0 27.962347
15.236409 12.476171 -0.14216413 0 0 0 0 27.967295
12.723256 10.892016 -0.63103753 0 0 0 0 27.97224
9.6111374 8.599268 -0.85973197 0 0 0 0 27.977188
6.6933956 6.2713628 -0.89684188 0 0 0 0 27.982136
15.103726 12.947306 -0.1547116 0 0 0 0 27.987083
12.087263 10.837502 -0.61460179 0 0 0 0 27.992029
9.0851669 8.5226679 -0.82854712 0 0 0 0 27.996975
6.4705153 6.3585405 -0.88129061 0 0 0 0 28.001923
15.04109 13.489389 -0.16840036 0 0 0 0 28.00687
13.946656 13.089219 -0.72514129 0 0 0 0 28.011818
8.6071997 8.4600306 -0.80046743 0 0 0 0 28.016766
8.2595415 8.5143089 -1.1407242 0 0 0 0 28.021711
14.969459 14.043479 -0.18307102 0 0 0 0 28.026657
13.234645 13.009759 -0.70755249 0 0 0 0 28.031605
10.36042 10.667826 -0.97980064 0 0 0 0 28.036552
7.7865872 8.4166641 -1.0956671 0 0 0 0 28.0415
14.863821 14.591593 -0.19767383 0 0 0 0 28.046448
12.61366 12.981231 -0.69415599 0 0 0 0 28.051394
9.8044453 10.584244 -0.94656146 0 0 0 0 28.056339
7.379653 8.3729706 -1.0587475 0 0 0 0 28.061287
14.478989 14.864903 -0.21072929 0 0 0 0 28.066235
14.76946 15.916755 -0.83420944 0 0 0 0 28.071182
8.9702797 10.153853 -0.88678896 0 0 0 0 28.076128
7.0017166 8.3352556 -1.0248922 0 0 0 0 28.081076
14.373364 15.444016 -0.22733545 0 0 0 0 28.086021
13.454047 15.184712 -0.78445292 0 0 0 0 28.090969
10.738718 12.739651 -1.0830888 0 0 0 0 28.095917
6.6417804 8.3035269 -0.99307817 0 0 0 0 28.100864
13.051826 14.671979 -0.22557884 0 0 0 0 28.10581
12.742007 15.070245 -0.76689065 0 0 0 0 28.110758
10.172734 12.656074 -1.051839 0 0 0 0 28.115704
7.9148331 10.388672 -1.2064147 0 0 0 0 28.120651
13.745817 16.177528 -0.25774384 0 0 0 0 28.125599
12.366185 15.324541 -0.76898962 0 0 0 0 28.130547
9.675786 12.637445 -1.0257316 0 0 0 0 28.135492
7.4798827 10.320995 -1.1674515 0 0 0 0 28.140438
12.764495 15.72625 -0.26067114 0 0 0 0 28.145386
11.928318 15.504878 -0.76797473 0 0 0 0 28.150333
