# .PCD v0.7 - Point Cloud Data file format
VERSION 0.7
FIELDS x y z normal_x normal_y normal_z intensity curvature
SIZE 4 4 4 4 4 4 4 4
TYPE F F F F F F F F
COUNT 1 1 1 1 1 1 1 1
WIDTH 961
HEIGHT 1
VIEWPOINT 0 0 0 1 0 0 0
POINTS 961
DATA ascii
17.157032 10.243022 2.5740583 0 0 0 0 66.534729
17.096458 10.876592 2.3003082 0 0 0 0 66.539688
17.7528 12.018785 2.0901613 0 0 0 0 66.544632
17.150116 10.063025 2.8588874 0 0 0 0 66.549576
17.055899 10.71139 2.5625055 0 0 0 0 66.55452
17.537125 11.73826 2.3713484 0 0 0 0 66.559464
17.427958 12.407063 2.0772364 0 0 0 0 66.564423
17.060316 10.524575 2.8375912 0 0 0 0 66.569366
17.526867 11.566485 2.6358728 0 0 0 0 66.57431
17.420853 12.252401 2.3712301 0 0 0 0 66.579254
17.312016 12.957615 2.087939 0 0 0 0 66.584198
16.954689 10.98138 2.8153646 0 0 0 0 66.589157
17.416069 12.070543 2.6260917 0 0 0 0 66.594101
17.306005 12.778702 2.3737078 0 0 0 0 66.599045
17.18895 13.509942 2.1015356 0 0 0 0 66.603989
17.432076 11.848763 2.8873305 0 0 0 0 66.608932
17.310781 12.584946 2.6189816 0 0 0 0 66.613892
17.181694 13.314581 2.375818 0 0 0 0 66.618835
17.046873 14.061417 2.1150608 0 0 0 0 66.623779
17.327633 12.344809 2.8688059 0 0 0 0 66.628723
17.180458 13.099128 2.6087551 0 0 0 0 66.633682
17.065615 13.866992 2.3824105 0 0 0 0 66.638626
16.921261 14.646797 2.1325412 0 0 0 0 66.64357
17.219851 12.847735 2.8510268 0 0 0 0 66.648514
17.063404 13.629098 2.6040571 0 0 0 0 66.653458
16.931221 14.425519 2.3867087 0 0 0 0 66.658417
16.423885 14.906734 2.1069489 0 0 0 0 66.663361
17.101744 13.357167 2.8319757 0 0 0 0 66.668304
16.94079 14.170821 2.5989361 0 0 0 0 66.673248
16.793869 14.982069 2.3960395 0 0 0 0 66.678192
15.445216 14.695516 2.02054 0 0 0 0 66.683151
16.989483 13.891932 2.8141119 0 0 0 0 66.688095
16.824234 14.732949 2.5971625 0 0 0 0 66.693039
15.903085 14.86556 2.2989295 0 0 0 0 66.697983
14.56289 14.52299 1.9462851 0 0 0 0 66.702927
16.871056 14.429481 2.7981133 0 0 0 0 66.707886
16.473082 15.10319 2.5605834 0 0 0 0 66.71283
14.963771 14.648458 2.1948636 0 0 0 0 66.717773
14.382263 15.038702 1.9627277 0 0 0 0 66.722717
16.750927 14.982019 2.7836039 0 0 0 0 66.727661
15.446767 14.819027 2.4233084 0 0 0 0 66.73262
14.403493 14.771472 2.1443927 0 0 0 0 66.737564
14.238042 15.612291 1.9844315 0 0 0 0 66.742508
16.029564 14.994807 2.6740017 0 0 0 0 66.747452
14.554931 14.61561 2.3069899 0 0 0 0 66.752396
14.280631 15.337788 2.1594124 0 0 0 0 66.757355
14.1045 16.214594 2.0122318 0 0 0 0 66.762299
15.109179 14.782231 2.5308478 0 0 0 0 66.767242
14.319078 15.046733 2.2928975 0 0 0 0 66.772186
14.151755 15.925906 2.1756809 0 0 0 0 66.777145
13.963201 16.832682 2.0434685 0 0 0 0 66.782089
14.394123 14.72121 2.4246542 0 0 0 0 66.787033
14.180753 15.60086 2.2932153 0 0 0 0 66.791977
14.012491 16.521622 2.1936388 0 0 0 0 66.796921
13.82147 17.481859 2.076674 0 0 0 0 66.80188
14.274618 15.257881 2.4166076 0 0 0 0 66.806824
14.048687 16.170528 2.3010378 0 0 0 0 66.811768
13.861621 17.12985 2.2121212 0 0 0 0 66.816711
13.67276 18.151825 2.112154 0 0 0 0 66.821655
14.144979 15.819072 2.4067037 0 0 0 0 66.826614
13.920833 16.779465 2.3095839 0 0 0 0 66.831558
13.730377 17.790272 2.2379739 0 0 0 0 66.836502
13.515616 18.852552 2.1505785 0 0 0 0 66.841446
14.017397 16.400488 2.4001329 0 0 0 0 66.84639
13.765896 17.389084 2.3149717 0 0 0 0 66.851349
13.573954 18.453495 2.2616053 0 0 0 0 66.856293
13.314793 19.5222 2.1868024 0 0 0 0 66.861237
13.872356 16.991089 2.392169 0 0 0 0 66.86618
13.624135 18.038534 2.3261013 0 0 0 0 66.871124
13.414731 19.155733 2.2879355 0 0 0 0 66.876083
12.784543 19.728691 2.1716404 0 0 0 0 66.881027
13.738279 17.626356 2.3877797 0 0 0 0 66.885971
13.472081 18.715628 2.3392673 0 0 0 0 66.890915
13.105634 19.674259 2.292572 0 0 0 0 66.895859
13.603261 18.272198 2.3882773 0 0 0 0 66.656555
13.325825 19.417717 2.3581631 0 0 0 0 66.661499
12.581972 19.848442 2.2681396 0 0 0 0 66.666443
13.450725 18.942814 2.3867824 0 0 0 0 66.676346
12.892762 19.736395 2.3288302 0 0 0 0 66.68129
13.261054 19.592625 2.3817787 0 0 0 0 66.696136
12.739413 19.76708 2.3207057 0 0 0 0 66.715927
9.7644606 19.774635 2.0419624 0 0 0 0 66.730759
11.342981 20.275244 2.2031732 0 0 0 0 66.740662
8.7277784 18.757225 1.9212334 0 0 0 0 66.750549
9.075285 18.811111 1.9537169 0 0 0 0 66.765396
8.1454496 18.631332 1.8906255 0 0 0 0 66.77034
8.4955101 18.695944 1.9107667 0 0 0 0 66.785172
7.5935984 18.539953 1.8640298 0 0 0 0 66.790131
8.8926783 18.827839 1.9019082 0 0 0 0 66.800018
7.9387636 18.602921 1.8711971 0 0 0 0 66.804962
7.0509081 18.422941 1.8383019 0 0 0 0 66.809906
9.7567616 19.748901 1.9564503 0 0 0 0 66.814865
8.2918787 18.647013 1.8409876 0 0 0 0 66.819809
7.3964052 18.501539 1.8329579 0 0 0 0 66.824753
6.5443244 18.370876 1.8206241 0 0 0 0 66.829697
8.7569933 18.783094 1.8052552 0 0 0 0 66.834641
7.7367749 18.540567 1.7878529 0 0 0 0 66.8396
6.8744779 18.413181 1.7983834 0 0 0 0 66.844543
6.0359168 18.270515 1.7995011 0 0 0 0 66.849487
8.1502123 18.580467 1.7300125 0 0 0 0 66.854431
7.2053151 18.44235 1.7405522 0 0 0 0 66.85939
6.337563 18.257828 1.757916 0 0 0 0 66.864334
5.5423083 18.174894 1.7812874 0 0 0 0 66.869278
7.6035566 18.465002 1.6662004 0 0 0 0 66.874222
6.6997504 18.391455 1.696826 0 0 0 0 66.879166
5.8638082 18.23303 1.7344854 0 0 0 0 66.884125
5.0523329 18.065369 1.7625402 0 0 0 0 66.889069
7.0799203 18.371717 1.6067671 0 0 0 0 66.894012
6.1738205 18.237301 1.6483629 0 0 0 0 66.898956
5.3530431 18.074926 1.6982203 0 0 0 0 66.9039
4.5885572 17.996244 1.7495937 0 0 0 0 66.908859
6.570581 18.294216 1.5518827 0 0 0 0 66.913803
5.6796327 18.133831 1.6063906 0 0 0 0 66.918747
4.9035721 18.044264 1.6780804 0 0 0 0 66.923691
4.133451 17.912476 1.7371589 0 0 0 0 66.928635
5.1917925 18.000608 1.5654128 0 0 0 0 66.938538
4.4339466 17.950346 1.6509079 0 0 0 0 66.943481
3.6892011 17.854282 1.7269392 0 0 0 0 66.948425
4.7282038 17.92874 1.5305462 0 0 0 0 66.958328
3.9699032 17.821569 1.6228917 0 0 0 0 66.963272
3.2430894 17.770905 1.7155297 0 0 0 0 66.968216
5.3589187 18.900496 1.4622978 0 0 0 0 66.97316
4.2628036 17.83065 1.4935237 0 0 0 0 66.978104
3.5340042 17.778505 1.6052113 0 0 0 0 66.983063
2.794342 17.591043 1.6982455 0 0 0 0 66.988007
4.6268559 17.883415 1.3460183 0 0 0 0 66.99295
3.8245032 17.797119 1.4645172 0 0 0 0 66.997894
3.0888517 17.674707 1.581465 0 0 0 0 67.002853
2.3248308 17.163086 1.6579432 0 0 0 0 67.007797
4.1668491 17.777277 1.3012773 0 0 0 0 67.012741
3.3783913 17.715055 1.4330564 0 0 0 0 67.017685
2.6611264 17.605919 1.5636554 0 0 0 0 67.022629
1.9002647 16.980263 1.6408685 0 0 0 0 67.027588
3.7395878 17.810081 1.2651511 0 0 0 0 67.032532
2.9347317 17.57892 1.3993664 0 0 0 0 67.037476
2.2334046 17.515028 1.5445653 0 0 0 0 67.042419
1.4842944 16.718504 1.6184034 0 0 0 0 67.047363
3.2775383 17.616562 1.2172481 0 0 0 0 67.052322
2.5075531 17.520838 1.3722063 0 0 0 0 67.057266
1.8122679 17.389332 1.5246377 0 0 0 0 67.06221
1.0750662 16.396769 1.5909264 0 0 0 0 67.067154
2.8430908 17.520702 1.1782838 0 0 0 0 67.072098
2.0853167 17.419901 1.3454642 0 0 0 0 67.077057
1.3909647 17.201344 1.4997411 0 0 0 0 67.082001
0.69585824 16.339613 1.5889648 0 0 0 0 67.086945
2.4107859 17.421881 1.1384255 0 0 0 0 67.091888
1.6705327 17.331318 1.3193518 0 0 0 0 67.096832
0.97970742 16.94659 1.4720683 0 0 0 0 67.101791
0.31276768 15.993937 1.5603917 0 0 0 0 67.106735
1.9932264 17.350914 1.1037227 0 0 0 0 67.111679
1.2597406 17.287077 1.2968106 0 0 0 0 67.116623
0.58157963 16.711517 1.4468161 0 0 0 0 67.121567
-0.051365096 15.759711 1.5452747 0 0 0 0 67.126526
1.5824064 17.339365 1.0733844 0 0 0 0 67.111725
0.85419446 17.180815 1.27259 0 0 0 0 67.116669
0.19169518 16.43655 1.4181678 0 0 0 0 67.121613
-0.40419379 15.505825 1.5280987 0 0 0 0 67.126556
1.1658933 17.179201 1.0365981 0 0 0 0 67.131516
0.45084506 17.082817 1.2508366 0 0 0 0 67.136459
-0.18395291 16.235674 1.3979044 0 0 0 0 67.141403
-0.78187954 15.898856 1.5714674 0 0 0 0 67.146347
0.7588703 17.052591 1.0027595 0 0 0 0 67.151306
0.055172164 16.992184 1.2298762 0 0 0 0 67.15625
-0.55173486 16.016092 1.3772904 0 0 0 0 67.161194
-1.1259775 15.642477 1.5571638 0 0 0 0 67.166138
0.3555221 16.977316 0.97226161 0 0 0 0 67.171082
-0.3363646 16.876669 1.2087477 0 0 0 0 67.176041
-0.92066371 16.019434 1.3763953 0 0 0 0 67.180984
-1.4645655 15.397336 1.5425229 0 0 0 0 67.185928
-0.040475987 16.894413 0.94404525 0 0 0 0 67.190872
-0.7226156 16.711184 1.1842773 0 0 0 0 67.195816
-1.2884493 15.997696 1.3733226 0 0 0 0 67.200775
-1.790339 15.156792 1.5287926 0 0 0 0 67.205719
-0.4364737 16.81152 0.91683012 0 0 0 0 67.210663
-1.09756 16.51721 1.1617917 0 0 0 0 67.215607
-1.6527148 15.898798 1.3647877 0 0 0 0 67.220551
-2.1113491 14.943624 1.5191947 0 0 0 0 67.22551
-0.82684511 16.758976 0.89164597 0 0 0 0 67.230453
-1.4628103 16.286505 1.1365536 0 0 0 0 67.235397
-2.004076 15.758381 1.3556682 0 0 0 0 67.240341
-2.4249926 14.722769 1.509886 0 0 0 0 67.245285
-1.2143981 16.666483 0.86678302 0 0 0 0 67.250244
-1.815455 15.99916 1.1082301 0 0 0 0 67.255188
-2.3383191 15.528316 1.3385587 0 0 0 0 67.260132
-2.7276857 14.503428 1.5015801 0 0 0 0 67.265076
-1.6046776 16.589922 0.84338856 0 0 0 0 67.27002
-2.1565242 15.743501 1.0839264 0 0 0 0 67.274979
-2.6650088 15.286536 1.3208715 0 0 0 0 67.279922
-3.0233245 14.283359 1.4923335 0 0 0 0 67.284866
-1.9947861 16.553495 0.82267934 0 0 0 0 67.28981
-2.5132983 15.612632 1.069474 0 0 0 0 67.294769
-2.9849894 15.073256 1.3082865 0 0 0 0 67.299713
-3.3210113 14.086322 1.4863306 0 0 0 0 67.304657
-2.3771172 16.456274 0.80099761 0 0 0 0 67.309601
-2.8710346 15.524852 1.0576068 0 0 0 0 67.314545
-3.3030059 14.861048 1.2956809 0 0 0 0 67.319504
-3.6005206 13.864052 1.4802382 0 0 0 0 67.324448
-2.7623446 16.356865 0.7783767 0 0 0 0 67.329391
-3.238014 15.485887 1.0511011 0 0 0 0 67.334335
-3.6135275 14.660234 1.2847393 0 0 0 0 67.339279
-3.8816986 13.656697 1.4736551 0 0 0 0 67.344238
-3.136586 16.235992 0.75851035 0 0 0 0 67.349182
-3.602108 15.405849 1.0409553 0 0 0 0 67.354126
-3.9096763 14.429946 1.2718316 0 0 0 0 67.35907
-4.1526527 13.444824 1.4682704 0 0 0 0 67.364014
-3.5124922 16.10795 0.73687422 0 0 0 0 67.368973
-3.9635816 15.334045 1.0345526 0 0 0 0 67.373917
-4.2147446 14.241486 1.2645203 0 0 0 0 67.37886
-4.2542329 12.749241 1.4134911 0 0 0 0 67.383804
-3.8712234 15.932651 0.71686935 0 0 0 0 67.388748
-4.3083878 15.182647 1.0218368 0 0 0 0 67.393707
-4.3241181 13.475371 1.2080241 0 0 0 0 67.398651
-4.5134606 12.566056 1.4122354 0 0 0 0 67.403595
-4.2065773 15.684194 0.69437438 0 0 0 0 67.408539
-4.4384408 14.364685 0.97095764 0 0 0 0 67.413483
-4.6199594 13.326488 1.2044719 0 0 0 0 67.418442
-4.7588601 12.36538 1.408618 0 0 0 0 67.423386
-4.5556149 15.494289 0.6749019 0 0 0 0 67.428329
-4.7538009 14.204694 0.96167099 0 0 0 0 67.433273
-4.8835554 13.107762 1.1953579 0 0 0 0 67.438232
-4.9981189 12.16197 1.4051226 0 0 0 0 67.443176
-4.8789196 15.245412 0.65448636 0 0 0 0 67.44812
-5.0527716 13.993209 0.94815302 0 0 0 0 67.453064
-5.1388783 12.88343 1.1874708 0 0 0 0 67.458008
-5.2420626 11.973473 1.4051241 0 0 0 0 67.462967
-5.2171412 15.060064 0.63792199 0 0 0 0 67.467911
-5.3346992 13.759477 0.93544716 0 0 0 0 67.472855
-5.4122462 12.703446 1.1830536 0 0 0 0 67.477798
-5.4789543 11.784252 1.4041843 0 0 0 0 67.482742
-5.540534 14.835291 0.62072605 0 0 0 0 67.487701
-5.6296315 13.56932 0.92625743 0 0 0 0 67.492645
-5.6708851 12.50808 1.1782111 0 0 0 0 67.497589
-5.7115626 11.589177 1.4024612 0 0 0 0 67.502533
-5.8579249 14.610806 0.60455316 0 0 0 0 67.507477
-5.9101439 13.348725 0.91613853 0 0 0 0 67.512436
-5.9298873 12.320755 1.1751082 0 0 0 0 67.51738
-5.9392653 11.396382 1.4026904 0 0 0 0 67.522324
-6.1788988 14.399181 0.588947 0 0 0 0 67.527267
-6.1980247 13.157927 0.90901262 0 0 0 0 67.532211
-6.1788254 12.110765 1.1698012 0 0 0 0 67.53717
-6.1607852 11.199889 1.4040743 0 0 0 0 67.542114
-6.4960113 14.190782 0.57525772 0 0 0 0 67.547058
-6.475842 12.944461 0.89968276 0 0 0 0 67.552002
-6.4328623 11.924672 1.1676909 0 0 0 0 67.556946
-6.4063044 11.046472 1.4089408 0 0 0 0 67.561905
-6.8091755 13.983647 0.56455094 0 0 0 0 67.566849
-6.757576 12.750943 0.89368463 0 0 0 0 67.571793
-6.7741656 11.894339 1.1810728 0 0 0 0 67.576736
-6.7396517 11.038916 1.4336255 0 0 0 0 67.581696
-7.1233306 13.735221 0.54051071 0 0 0 0 68.497009
-7.0504651 12.55021 0.88024217 0 0 0 0 68.501968
-7.0910492 11.778185 1.1794317 0 0 0 0 68.506912
-6.9735608 10.84161 1.4288788 0 0 0 0 68.511856
-7.4344606 13.532783 0.53080595 0 0 0 0 68.5168
-7.3103118 12.322248 0.87365347 0 0 0 0 68.521744
-7.3338609 11.571245 1.1782206 0 0 0 0 68.526703
-7.2896762 10.787223 1.4491924 0 0 0 0 68.531647
-7.7520947 13.341061 0.52171469 0 0 0 0 68.536591
-7.5825624 12.12384 0.87001425 0 0 0 0 68.541534
-7.5562544 11.335103 1.1740968 0 0 0 0 68.546478
-6.424685 9.0742941 1.2569572 0 0 0 0 68.551437
-8.0336342 13.084852 0.51097965 0 0 0 0 68.556381
-7.8440566 11.909883 0.86595684 0 0 0 0 68.561325
-6.2591691 8.9536772 0.96150309 0 0 0 0 68.566269
-7.6769266 10.326897 1.4478317 0 0 0 0 68.571213
-8.3546324 12.901044 0.50461811 0 0 0 0 68.576172
-8.1086769 11.698764 0.8617956 0 0 0 0 68.581116
-8.0406036 10.937433 1.1771652 0 0 0 0 68.58606
-7.8752742 10.112123 1.4501197 0 0 0 0 68.591003
-8.6515608 12.67423 0.49683112 0 0 0 0 68.595947
-8.4218168 11.560756 0.86594301 0 0 0 0 68.600906
-8.2826633 10.736548 1.1777782 0 0 0 0 68.60585
-8.0557213 9.8790703 1.4501144 0 0 0 0 68.610794
-8.9595156 12.468991 0.49126852 0 0 0 0 68.615738
-8.7623415 11.451518 0.87099427 0 0 0 0 68.620682
-8.529295 10.547611 1.1829729 0 0 0 0 68.625641
-8.2711763 9.6876154 1.4555488 0 0 0 0 68.630585
-8.9214363 11.806797 0.47179973 0 0 0 0 68.635529
-8.7852097 10.935631 0.84929013 0 0 0 0 68.640472
-8.6973667 10.264848 1.1777111 0 0 0 0 68.645432
-8.5143766 9.5321636 1.4686439 0 0 0 0 68.650375
-8.7150049 10.973063 0.44694209 0 0 0 0 68.655319
-8.6262407 10.238564 0.81457543 0 0 0 0 68.660263
-8.5419817 9.6233749 1.1330936 0 0 0 0 68.665207
-8.4673777 9.0652466 1.4346172 0 0 0 0 68.670166
-8.5647001 10.268094 0.42747808 0 0 0 0 68.67511
-8.4767027 9.593256 0.783081 0 0 0 0 68.680054
-8.3887091 9.0270023 1.0919534 0 0 0 0 68.684998
-8.3571606 8.553956 1.3923953 0 0 0 0 68.689941
-8.3965645 9.5890226 0.40823469 0 0 0 0 68.694901
-8.3767061 9.0429983 0.75815105 0 0 0 0 68.699844
-8.29494 8.5243454 1.0613797 0 0 0 0 68.704788
-8.2401199 8.0681086 1.3523549 0 0 0 0 68.709732
-8.2693501 8.992301 0.39302623 0 0 0 0 68.714676
-8.2341518 8.482688 0.73177135 0 0 0 0 68.719635
-8.1784964 8.0297365 1.0296489 0 0 0 0 68.724579
-8.1243458 7.6093564 1.3154029 0 0 0 0 68.729523
-8.1589432 8.454958 0.3797375 0 0 0 0 68.734467
-8.1034603 7.9619441 0.70700926 0 0 0 0 68.73941
-8.069644 7.5689273 1.0007493 0 0 0 0 68.74437
-8.0241585 7.1840239 1.2812588 0 0 0 0 68.749313
-8.0416136 7.9410276 0.36769944 0 0 0 0 68.754257
-8.0037727 7.5040426 0.68798405 0 0 0 0 68.759201
-7.9628634 7.131104 0.97307265 0 0 0 0 68.764145
-7.9314771 6.7905273 1.2510108 0 0 0 0 68.769104
-7.9329138 7.4617801 0.35645649 0 0 0 0 68.774048
-7.8947864 7.0616288 0.66948742 0 0 0 0 68.778992
-7.8563571 6.7204237 0.94848388 0 0 0 0 68.783936
-7.8333068 6.4083343 1.2214154 0 0 0 0 68.788879
-7.8141613 7.0031285 0.347572 0 0 0 0 68.793839
-7.8045225 6.6554518 0.65268523 0 0 0 0 68.798782
-7.7663879 6.3420815 0.92573172 0 0 0 0 68.803726
-7.7517276 6.0595121 1.19462 0 0 0 0 68.80867
-7.7268291 6.595119 0.3398324 0 0 0 0 68.813629
-7.7122493 6.2704883 0.63818181 0 0 0 0 68.818573
-7.6729813 5.9759817 0.90459049 0 0 0 0 68.823517
-7.6719475 5.7277188 1.1702478 0 0 0 0 68.828461
-7.639286 6.2041659 0.33252493 0 0 0 0 68.833405
-7.6145787 5.8987923 0.62326175 0 0 0 0 68.838364
-7.6085372 5.6507015 0.88693798 0 0 0 0 68.843307
-7.5927238 5.4079428 1.1464741 0 0 0 0 68.848251
-7.5434966 5.8296518 0.32570496 0 0 0 0 68.853195
-7.5446792 5.5639358 0.61097151 0 0 0 0 68.858139
-7.5303345 5.3311157 0.87016368 0 0 0 0 68.863098
-7.5132565 5.1042933 1.1251618 0 0 0 0 68.868042
-7.4681454 5.4852543 0.3197763 0 0 0 0 68.872986
-7.4610672 5.2357726 0.59952515 0 0 0 0 68.87793
-7.457777 5.0253057 0.85390437 0 0 0 0 68.882874
-7.4570951 4.8276892 1.1068317 0 0 0 0 68.887833
-7.3946905 5.159883 0.31620049 0 0 0 0 68.892776
-7.3822451 4.9244285 0.58849287 0 0 0 0 68.89772
-7.3818302 4.7327013 0.83821827 0 0 0 0 68.902664
-7.3827405 4.5478826 1.0867015 0 0 0 0 68.907608
-7.3136549 4.8438807 0.31234848 0 0 0 0 68.912567
-7.3092217 4.6299233 0.57986987 0 0 0 0 68.917511
-7.3115888 4.4549389 0.82500976 0 0 0 0 68.922455
-7.3224239 4.2895927 1.0707829 0 0 0 0 68.927399
-7.255918 4.5548549 0.30947918 0 0 0 0 68.932343
-7.2337093 4.3465462 0.57088631 0 0 0 0 68.937302
-7.240757 4.1861777 0.81050426 0 0 0 0 68.942245
-7.2543368 4.0366445 1.0537243 0 0 0 0 68.947189
-7.1946497 4.2760396 0.30728564 0 0 0 0 68.952133
-7.1854496 4.0889883 0.56390649 0 0 0 0 68.957092
-7.1920552 3.9405835 0.80111742 0 0 0 0 68.962036
-7.1988969 3.7971718 1.0381566 0 0 0 0 68.96698
-7.1204987 4.0040984 0.30555344 0 0 0 0 68.710007
-7.1304517 3.8399885 0.55825937 0 0 0 0 68.714966
-7.1386933 3.7043235 0.79098982 0 0 0 0 68.71991
-7.1450348 3.5707867 1.0246577 0 0 0 0 68.724854
-7.069479 3.7498679 0.30442417 0 0 0 0 68.729797
-7.0749822 3.5978427 0.55273795 0 0 0 0 68.734756
-7.0815306 3.469094 0.78024 0 0 0 0 68.7397
-7.0925674 3.3503122 1.0123854 0 0 0 0 68.744644
-7.0780816 3.2686117 0.77607894 0 0 0 0 68.759491
-0.29486045 0.1759001 0.098236799 0 0 0 0 68.769379
-0.32321629 0.18203945 0.11192184 0 0 0 0 68.774323
-0.3286168 0.1691556 0.12340241 0 0 0 0 68.799057
-0.331424 0.1644334 0.13557047 0 0 0 0 68.804001
-0.30918694 0.16221376 0.098733224 0 0 0 0 68.80896
-0.31812939 0.16020149 0.1107815 0 0 0 0 68.813904
-0.31943828 0.14551152 0.12234303 0 0 0 0 68.838638
-0.31929156 0.14189629 0.13348573 0 0 0 0 68.843582
-0.3153314 0.14491323 0.099390507 0 0 0 0 68.848526
-0.32627141 0.14280578 0.1114334 0 0 0 0 68.85347
-0.31544581 0.12565783 0.12213311 0 0 0 0 68.87822
-0.31834289 0.12289853 0.13323326 0 0 0 0 68.883163
-0.32751468 0.12832473 0.099998057 0 0 0 0 68.888107
-0.33341712 0.12549122 0.11308876 0 0 0 0 68.893051
-0.32367963 0.11025856 0.12271826 0 0 0 0 68.917786
-0.32053578 0.10678712 0.13386968 0 0 0 0 68.922729
-0.34883294 0.1143353 0.10147768 0 0 0 0 68.927689
-0.35273746 0.11159718 0.11457403 0 0 0 0 68.932632
-0.35613543 0.098808408 0.12606362 0 0 0 0 68.957367
-0.34594741 0.094638579 0.13626972 0 0 0 0 68.962311
-0.37105343 0.098299481 0.10302462 0 0 0 0 68.967255
-0.37296006 0.095656946 0.11612665 0 0 0 0 68.972198
-6.4737663 1.1070596 0.32155734 0 0 0 0 68.987045
-0.39348909 0.085119821 0.12946503 0 0 0 0 68.996933
-0.3712669 0.080525458 0.13973916 0 0 0 0 69.001892
-6.4265614 0.93596232 0.32467476 0 0 0 0 69.006836
-0.40317392 0.079271495 0.11865215 0 0 0 0 69.01178
-6.4037576 0.77277428 0.32941946 0 0 0 0 69.026627
-6.4296227 0.73717409 0.52365488 0 0 0 0 69.03157
-6.4480162 0.71352291 0.70550388 0 0 0 0 69.036514
-0.41257545 0.065714039 0.14516404 0 0 0 0 69.041458
-6.3730493 0.61196649 0.33412328 0 0 0 0 69.046417
-6.3900533 0.57969117 0.52528268 0 0 0 0 69.051361
-6.4055219 0.55801076 0.70207483 0 0 0 0 69.056305
-6.4323039 0.54210591 0.88762307 0 0 0 0 69.061249
-6.3272505 0.44984725 0.33794478 0 0 0 0 69.066193
-6.364655 0.42556825 0.52773857 0 0 0 0 69.071152
-6.38235 0.40871742 0.70235395 0 0 0 0 69.076096
-6.405261 0.39586359 0.88381261 0 0 0 0 69.081039
-6.2957182 0.29308438 0.34252506 0 0 0 0 69.085983
-6.3272061 0.27095389 0.52826959 0 0 0 0 69.090927
-6.3421378 0.25920644 0.70172125 0 0 0 0 69.095886
-6.2621794 0.13641913 0.34711701 0 0 0 0 69.105774
-6.2918983 0.11930955 0.53069568 0 0 0 0 69.110718
-0.34436426 0.023607772 0.13710363 0 0 0 0 69.120621
-6.2267828 -0.017118996 0.35261574 0 0 0 0 69.125565
-0.32887557 0.014893738 0.12450171 0 0 0 0 69.135452
-0.31644413 0.0071381759 0.1148552 0 0 0 0 69.150299
-0.31746697 0.0067505385 0.13389967 0 0 0 0 69.160187
-0.31804404 -0.00029053047 0.10513537 0 0 0 0 69.165131
-0.31307372 -0.00039011927 0.12419655 0 0 0 0 69.175034
-0.30196738 -0.0082191294 0.11391816 0 0 0 0 68.932419
-0.27309704 -0.0053555588 0.12797926 0 0 0 0 68.942307
-0.29752862 -0.016357208 0.1042482 0 0 0 0 68.947266
-0.27865565 -0.013900995 0.12028062 0 0 0 0 68.957153
-0.28421384 -0.022446875 0.1125822 0 0 0 0 68.972
-0.2982688 -0.022459332 0.13155647 0 0 0 0 68.981888
-0.29267308 -0.033132929 0.10494494 0 0 0 0 68.986832
-0.27988845 -0.028964994 0.12089172 0 0 0 0 68.996735
-0.2506201 -0.032913797 0.11118764 0 0 0 0 69.011566
-0.25176755 -0.030446116 0.126131 0 0 0 0 69.021469
-0.24423869 -0.039888367 0.10348842 0 0 0 0 69.026413
-0.23643969 -0.036026523 0.11742256 0 0 0 0 69.036301
-0.23106125 -0.043013997 0.11072022 0 0 0 0 69.051147
-0.23619974 -0.04077141 0.12465312 0 0 0 0 69.061035
-0.23162788 -0.051286753 0.10403622 0 0 0 0 69.065994
-0.23376977 -0.048900582 0.11797746 0 0 0 0 69.075882
-0.23528714 -0.058219597 0.11132569 0 0 0 0 69.090729
-0.23747683 -0.054834887 0.12523219 0 0 0 0 69.100616
-0.22791003 -0.065111324 0.10462956 0 0 0 0 69.10556
-0.23209739 -0.061822239 0.11853059 0 0 0 0 69.115463
-0.23946808 -0.074389264 0.1129664 0 0 0 0 69.130295
-0.23384942 -0.066696867 0.12475722 0 0 0 0 69.140198
-0.23993757 -0.084659234 0.10635303 0 0 0 0 69.145142
-0.2402252 -0.079181649 0.12019555 0 0 0 0 69.155029
-0.23379801 -0.087119363 0.11353225 0 0 0 0 69.169876
-0.23212714 -0.080616347 0.12534662 0 0 0 0 69.179764
-0.22442184 -0.09391477 0.1068427 0 0 0 0 69.184723
-0.23654771 -0.092041984 0.11975696 0 0 0 0 69.194611
-0.20947507 -0.092017859 0.11190911 0 0 0 0 69.209457
-0.22355084 -0.091239259 0.12485259 0 0 0 0 69.219345
-0.21485031 -0.1044552 0.1073514 0 0 0 0 69.224289
-0.21417412 -0.098034009 0.11816349 0 0 0 0 69.234192
-0.20875344 -0.10594975 0.11349713 0 0 0 0 69.249023
-0.21692309 -0.10295574 0.12438879 0 0 0 0 69.258926
-0.21598144 -0.12147844 0.10903925 0 0 0 0 69.26387
-0.22415546 -0.11844984 0.12093034 0 0 0 0 69.273758
-0.21773061 -0.12635224 0.11526802 0 0 0 0 69.288605
-0.2142459 -0.11582766 0.12494912 0 0 0 0 69.298492
-0.21901241 -0.14059445 0.1107927 0 0 0 0 69.303452
-0.20877612 -0.12474136 0.12031852 0 0 0 0 69.313339
-0.21105629 -0.13903166 0.11584076 0 0 0 0 69.328186
-0.21056853 -0.12865105 0.12551326 0 0 0 0 69.338074
-0.20458685 -0.14789717 0.11121351 0 0 0 0 69.343018
-0.21380338 -0.14395314 0.12206747 0 0 0 0 69.352921
-0.20533139 -0.15275684 0.1164467 0 0 0 0 69.367752
-0.21654567 -0.14890935 0.12729503 0 0 0 0 69.377655
-0.19786233 -0.16157378 0.11182284 0 0 0 0 69.382599
-0.21002728 -0.1587728 0.12270339 0 0 0 0 69.392487
-0.18334977 -0.15374334 0.11541266 0 0 0 0 69.303955
-0.20516647 -0.15841101 0.12651032 0 0 0 0 69.313858
-0.17103145 -0.15932463 0.11069731 0 0 0 0 69.318802
-0.18123761 -0.15549789 0.11954994 0 0 0 0 69.32869
-0.16706564 -0.15798767 0.11473542 0 0 0 0 69.343536
-0.17246573 -0.14996172 0.12246252 0 0 0 0 69.353424
-0.20473626 -0.20682947 0.1163072 0 0 0 0 69.358383
-0.16210109 -0.15660201 0.11877627 0 0 0 0 69.368271
-0.19401784 -0.20016417 0.12019075 0 0 0 0 69.383118
-0.16488211 -0.16062802 0.12197054 0 0 0 0 69.393005
-0.23800276 -0.26332149 0.12223563 0 0 0 0 69.397949
-0.18909575 -0.19781549 0.1231981 0 0 0 0 69.407852
-0.23499328 -0.26296255 0.12830703 0 0 0 0 69.422684
-0.18707834 -0.1975729 0.1272665 0 0 0 0 69.432587
-0.26042083 -0.31629023 0.12809359 0 0 0 0 69.437531
-0.2415819 -0.27110726 0.13363177 0 0 0 0 69.447418
-0.24789935 -0.30550051 0.13284381 0 0 0 0 69.462265
-0.24236563 -0.27500391 0.13783382 0 0 0 0 69.472153
-0.22948733 -0.31278709 0.12821849 0 0 0 0 69.477112
-0.2439729 -0.30320096 0.13585061 0 0 0 0 69.487
-0.22181134 -0.30526721 0.13206039 0 0 0 0 69.501846
-0.23534232 -0.2946696 0.13866046 0 0 0 0 69.511734
-0.19403431 -0.29912627 0.12600712 0 0 0 0 69.516678
-0.21792886 -0.30200326 0.13403265 0 0 0 0 69.526581
-0.19201367 -0.29888308 0.13007793 0 0 0 0 69.541412
-0.21780457 -0.30388901 0.13716887 0 0 0 0 69.551315
-0.17936102 -0.31137899 0.1276112 0 0 0 0 69.556259
-0.19283988 -0.30181471 0.13324656 0 0 0 0 69.566147
-0.17828593 -0.31221679 0.13071539 0 0 0 0 69.580994
-0.19561063 -0.30587658 0.13544556 0 0 0 0 69.590881
-0.17485483 -0.34109855 0.13078368 0 0 0 0 69.59584
-0.18101235 -0.3172414 0.13394932 0 0 0 0 69.605728
-2.453609 -4.2558646 0.57510459 0 0 0 0 69.615616
-0.17387566 -0.33993953 0.13381813 0 0 0 0 69.620575
-0.17817272 -0.31306082 0.13488428 0 0 0 0 69.630463
-2.3598697 -4.3282223 0.58319283 0 0 0 0 69.635406
-2.4466395 -4.2534609 0.60722566 0 0 0 0 69.64035
-0.17654791 -0.34599724 0.13608882 0 0 0 0 69.645309
-2.2494969 -4.3718209 0.58834809 0 0 0 0 69.655197
-2.3485165 -4.3127356 0.6108737 0 0 0 0 69.660141
-2.4434042 -4.2557693 0.62448603 0 0 0 0 69.665085
-0.17841054 -0.34804872 0.13722207 0 0 0 0 69.670044
-2.1455357 -4.4276972 0.59490883 0 0 0 0 69.674988
-2.2464876 -4.3698492 0.61346561 0 0 0 0 69.679932
-2.3406024 -4.3079853 0.62290579 0 0 0 0 69.684875
-2.4427567 -4.2455139 0.63228762 0 0 0 0 69.689835
-2.1372375 -4.4106321 0.61451805 0 0 0 0 69.699722
-2.2444098 -4.3684521 0.62358963 0 0 0 0 69.704666
-2.3511574 -4.3143167 0.63024086 0 0 0 0 69.70961
-2.1408024 -4.4165807 0.62287521 0 0 0 0 69.724457
-2.2457783 -4.3574996 0.62535679 0 0 0 0 69.729401
-2.14871 -4.4150553 0.62194407 0 0 0 0 69.749191
-1.1555958 -4.7455549 0.64003402 0 0 0 0 69.598541
-1.1628892 -4.7352786 0.62980479 0 0 0 0 69.623276
-1.0714927 -4.8416638 0.64109182 0 0 0 0 69.643066
-1.1730094 -4.7485771 0.60838252 0 0 0 0 69.64801
-0.80746776 -4.7514949 0.64722407 0 0 0 0 69.657898
-0.93861943 -4.7704554 0.63132316 0 0 0 0 69.662857
-1.0674068 -4.7965183 0.60967857 0 0 0 0 69.667801
-1.1936426 -4.7716775 0.57925266 0 0 0 0 69.672745
-0.6768679 -4.6543026 0.63853168 0 0 0 0 69.677689
-0.80481571 -4.677218 0.61978185 0 0 0 0 69.682632
-0.93144602 -4.7062864 0.59525061 0 0 0 0 69.687592
-1.0696158 -4.7449951 0.56900489 0 0 0 0 69.692535
-0.56187892 -4.6276908 0.63825113 0 0 0 0 69.697479
-0.69113505 -4.664752 0.61799157 0 0 0 0 69.702423
-0.81399423 -4.6887784 0.58929771 0 0 0 0 69.707382
-0.94717211 -4.7063766 0.55832976 0 0 0 0 69.712326
-0.4515453 -4.6083045 0.63820338 0 0 0 0 69.71727
-0.57470948 -4.6262379 0.61229551 0 0 0 0 69.722214
-0.67648357 -4.5275235 0.5693717 0 0 0 0 69.727158
-0.79943454 -4.5287585 0.53387105 0 0 0 0 69.732117
-0.33479887 -4.5147347 0.63057041 0 0 0 0 69.737061
-0.44592771 -4.4503555 0.59281349 0 0 0 0 69.742004
-0.56309873 -4.4882245 0.56162995 0 0 0 0 69.746948
-0.69213951 -4.5288177 0.5264864 0 0 0 0 69.751892
-0.22230914 -4.3954229 0.62000757 0 0 0 0 69.756851
-0.34195468 -4.4443135 0.59220308 0 0 0 0 69.761795
-0.45886785 -4.4872818 0.55819893 0 0 0 0 69.766739
-0.58257771 -4.513752 0.51857978 0 0 0 0 69.771683
-0.11968628 -4.3823628 0.62114477 0 0 0 0 69.776627
-0.23736791 -4.4302669 0.59031326 0 0 0 0 69.781586
-0.34990516 -4.4601235 0.55286527 0 0 0 0 69.78653
-0.47497016 -4.4997416 0.5117023 0 0 0 0 69.791473
-0.01762916 -4.3782954 0.62359726 0 0 0 0 69.796417
-0.13407299 -4.410274 0.58820784 0 0 0 0 69.801361
-0.24545087 -4.4431853 0.54787123 0 0 0 0 69.80632
-0.36550727 -4.4826684 0.50372463 0 0 0 0 69.811264
0.084793285 -4.361197 0.62559223 0 0 0 0 69.816208
-0.029492393 -4.3961816 0.58731693 0 0 0 0 69.821152
-0.14066105 -4.4331946 0.54412431 0 0 0 0 69.826096
-0.25948024 -4.4567528 0.49541935 0 0 0 0 69.831055
0.185173 -4.3432279 0.6265465 0 0 0 0 69.835999
0.072286032 -4.3862224 0.5865593 0 0 0 0 69.840942
-0.036500834 -4.4102569 0.53891718 0 0 0 0 69.845886
-0.15487158 -4.442873 0.48853281 0 0 0 0 69.850845
0.28354967 -4.325316 0.62849426 0 0 0 0 69.855789
0.17319062 -4.3583264 0.58416384 0 0 0 0 69.860733
0.065286793 -4.4003663 0.53616112 0 0 0 0 69.865677
-0.050073177 -4.4329448 0.48278734 0 0 0 0 69.870621
0.38178349 -4.3044391 0.62933588 0 0 0 0 69.87558
0.27296993 -4.348455 0.58340037 0 0 0 0 69.880524
0.16783325 -4.3854661 0.53223103 0 0 0 0 69.885468
0.052390151 -4.4161577 0.47578853 0 0 0 0 69.890411
0.48044643 -4.2924705 0.63249528 0 0 0 0 69.895355
0.37226051 -4.3285961 0.58228171 0 0 0 0 69.900314
0.26789302 -4.3606763 0.52793998 0 0 0 0 69.905258
0.15504341 -4.4033227 0.46993092 0 0 0 0 69.910202
0.58001447 -4.2784867 0.63458717 0 0 0 0 69.915146
0.47045341 -4.3067851 0.58108878 0 0 0 0 69.92009
0.36863098 -4.3498211 0.52514529 0 0 0 0 69.925049
0.25745171 -4.3854914 0.46389556 0 0 0 0 69.929993
0.67609662 -4.2546625 0.63631499 0 0 0 0 69.934937
0.57108277 -4.2938542 0.58022106 0 0 0 0 69.93988
0.46903062 -4.3320088 0.52110219 0 0 0 0 69.944824
0.35876706 -4.3657432 0.4567866 0 0 0 0 69.949783
0.77585393 -4.2446251 0.63954794 0 0 0 0 69.954727
0.67056137 -4.2779369 0.58024305 0 0 0 0 69.959671
0.56832826 -4.3122082 0.51798433 0 0 0 0 69.964615
0.46046805 -4.3539395 0.45096114 0 0 0 0 69.969559
0.87437189 -4.2296762 0.64160085 0 0 0 0 69.974518
0.7678504 -4.2581558 0.57911754 0 0 0 0 69.979462
0.66996503 -4.2992921 0.51512086 0 0 0 0 69.984406
0.5608272 -4.3351932 0.44488379 0 0 0 0 69.989349
0.96880919 -4.207407 0.64171588 0 0 0 0 69.746094
0.86576921 -4.2457457 0.57759196 0 0 0 0 69.751038
0.76664138 -4.2820005 0.51041079 0 0 0 0 69.755997
0.66059363 -4.3197732 0.43824866 0 0 0 0 69.760941
1.0652308 -4.190546 0.64469236 0 0 0 0 69.765884
0.96305829 -4.2259507 0.5774675 0 0 0 0 69.770828
0.86599135 -4.2632151 0.50732964 0 0 0 0 69.775787
0.76210177 -4.3039937 0.4322817 0 0 0 0 69.780731
1.1623143 -4.1666799 0.64642429 0 0 0 0 69.785675
1.0600588 -4.2001967 0.57613093 0 0 0 0 69.790619
0.96762991 -4.2503161 0.50446624 0 0 0 0 69.795563
0.86255705 -4.2872248 0.42727569 0 0 0 0 69.800522
1.2573943 -4.1428704 0.64914942 0 0 0 0 69.805466
1.1608247 -4.1901917 0.57736766 0 0 0 0 69.81041
1.0647323 -4.2265921 0.5022012 0 0 0 0 69.815353
0.96386862 -4.2674427 0.42116651 0 0 0 0 69.820297
1.3580472 -4.1307545 0.65331268 0 0 0 0 69.825256
1.2580621 -4.169383 0.57720673 0 0 0 0 69.8302
1.164932 -4.2047477 0.4990156 0 0 0 0 69.835144
1.0654626 -4.2535739 0.41726851 0 0 0 0 69.840088
1.4553663 -4.1118283 0.65621978 0 0 0 0 69.845032
1.3573447 -4.1494703 0.57708651 0 0 0 0 69.849991
1.2667099 -4.1947927 0.49725735 0 0 0 0 69.854935
1.1702031 -4.2425833 0.41248581 0 0 0 0 69.859879
1.5526358 -4.0918984 0.65909123 0 0 0 0 69.864822
1.4590583 -4.138402 0.5782901 0 0 0 0 69.869766
1.3702897 -4.1807413 0.49536279 0 0 0 0 69.874725
1.2714587 -4.2217517 0.40733981 0 0 0 0 69.879669
1.6529934 -4.0737772 0.663041 0 0 0 0 69.884613
1.560625 -4.1243343 0.57938731 0 0 0 0 69.889557
1.4705306 -4.1598444 0.49321103 0 0 0 0 69.894501
1.3750038 -4.2068071 0.40241212 0 0 0 0 69.89946
1.7567372 -4.0634894 0.66728306 0 0 0 0 69.904404
1.661849 -4.1032739 0.58023566 0 0 0 0 69.909348
1.5728657 -4.140841 0.49113566 0 0 0 0 69.914291
1.4784015 -4.1888618 0.39737764 0 0 0 0 69.91925
1.8536129 -4.0355582 0.6698693 0 0 0 0 69.924194
1.7631744 -4.0842395 0.58015537 0 0 0 0 69.929138
1.6807758 -4.1335292 0.49049988 0 0 0 0 69.934082
1.5837914 -4.1707788 0.39334777 0 0 0 0 69.939026
1.9570574 -4.0192347 0.67489707 0 0 0 0 69.943985
1.8664428 -4.0640688 0.58104426 0 0 0 0 69.948929
1.781724 -4.1066136 0.48713744 0 0 0 0 69.953873
1.6891359 -4.1517267 0.38828281 0 0 0 0 69.958817
2.0614552 -4.001894 0.67889237 0 0 0 0 69.96376
1.9717566 -4.0447922 0.58197385 0 0 0 0 69.968719
1.8881446 -4.0893588 0.48614293 0 0 0 0 69.973663
1.7988125 -4.1394253 0.38447726 0 0 0 0 69.978607
2.1635122 -3.9776583 0.68263286 0 0 0 0 69.983551
2.0749693 -4.0235763 0.58382565 0 0 0 0 69.988495
1.9966155 -4.0730333 0.48419008 0 0 0 0 69.993454
1.9039105 -4.1153717 0.37923378 0 0 0 0 69.998398
2.2698033 -3.9581764 0.68756139 0 0 0 0 70.003342
2.1834199 -4.0071001 0.58586931 0 0 0 0 70.008286
2.1016929 -4.0488296 0.48294291 0 0 0 0 70.013229
2.017581 -4.1028628 0.37543917 0 0 0 0 70.018188
2.3781886 -3.9405868 0.69256657 0 0 0 0 70.023132
2.2905812 -3.9847145 0.58669674 0 0 0 0 70.028076
2.2153473 -4.0362048 0.48214549 0 0 0 0 70.03302
2.1279109 -4.083508 0.3713865 0 0 0 0 70.037964
2.4874249 -3.9199476 0.69746733 0 0 0 0 70.042923
2.4063108 -3.9738364 0.58997279 0 0 0 0 70.047867
2.3255634 -4.0147376 0.48101866 0 0 0 0 70.052811
2.2368491 -4.0562115 0.36704549 0 0 0 0 70.057755
2.5998483 -3.9031122 0.70351815 0 0 0 0 70.062698
2.5185621 -3.9531894 0.5908851 0 0 0 0 70.067657
2.4422126 -4.0019536 0.48022947 0 0 0 0 70.072601
2.3512213 -4.0376468 0.36303911 0 0 0 0 70.077545
2.7119315 -3.8793192 0.70831966 0 0 0 0 70.082489
2.6296127 -3.9285572 0.59265077 0 0 0 0 70.087448
2.5563238 -3.9782817 0.47904193 0 0 0 0 70.092392
2.4271593 -3.950001 0.35440031 0 0 0 0 70.097336
2.8239601 -3.8544862 0.71408439 0 0 0 0 70.10228
2.7489915 -3.9104769 0.59568775 0 0 0 0 70.107224
2.6746695 -3.9593623 0.47904319 0 0 0 0 70.112183
2.4967072 -3.8546617 0.34545577 0 0 0 0 70.117126
2.9422746 -3.8353405 0.72007984 0 0 0 0 70.12207
2.8661752 -3.8884964 0.59857607 0 0 0 0 70.127014
2.7893887 -3.9276798 0.47657233 0 0 0 0 70.131958
2.5632491 -3.7594314 0.33749875 0 0 0 0 70.136917
3.061341 -3.8111482 0.72589922 0 0 0 0 70.141861
2.9852123 -3.8634517 0.60036302 0 0 0 0 70.146805
2.9127753 -3.9095001 0.4766227 0 0 0 0 70.151749
2.6180668 -3.6498032 0.32797149 0 0 0 0 70.156693
3.1759732 -3.778199 0.73038554 0 0 0 0 70.161652
3.109385 -3.8411129 0.60327023 0 0 0 0 70.166595
3.0325298 -3.8785212 0.47519997 0 0 0 0 70.171539
2.6731734 -3.5461617 0.31865501 0 0 0 0 70.176483
2.3574915 -2.6607599 0.54986763 0 0 0 0 70.181427
3.2354558 -3.816673 0.60611123 0 0 0 0 70.186386
3.1436532 -3.834955 0.47328863 0 0 0 0 70.19133
2.74124 -3.4618526 0.31108397 0 0 0 0 70.196274
2.9009652 -3.1465096 0.6428287 0 0 0 0 70.201218
2.3788221 -2.6590145 0.45497558 0 0 0 0 70.206161
2.8633749 -3.3244507 0.42491442 0 0 0 0 70.211121
2.8052039 -3.3757057 0.3044264 0 0 0 0 70.216064
2.012578 -2.0642972 0.46077451 0 0 0 0 70.344727
2.0155475 -2.1398394 0.38946697 0 0 0 0 70.34967
2.6991625 -2.9824927 0.39278242 0 0 0 0 70.354614
2.8273468 -3.23915 0.29451883 0 0 0 0 70.359558
2.0595648 -2.0208395 0.46053061 0 0 0 0 70.364517
2.0592072 -2.0896516 0.38596606 0 0 0 0 70.369461
2.071326 -2.1678152 0.31279519 0 0 0 0 70.374405
2.4188883 -2.6305578 0.25494638 0 0 0 0 70.379349
2.1023159 -1.9726586 0.45809522 0 0 0 0 70.384293
2.1039083 -2.0403748 0.38350153 0 0 0 0 70.389252
2.1274157 -2.1260142 0.3096517 0 0 0 0 70.394196
2.1652272 -2.237211 0.22978 0 0 0 0 70.399139
2.1462071 -1.9273846 0.45676842 0 0 0 0 70.404083
2.150703 -1.9929925 0.3811129 0 0 0 0 70.409027
2.1676304 -2.0669885 0.30581617 0 0 0 0 70.413986
2.2167821 -2.1846621 0.22523035 0 0 0 0 70.41893
2.1889982 -1.8801619 0.45536521 0 0 0 0 70.423874
2.1922538 -1.9408655 0.37852845 0 0 0 0 70.428818
2.2153287 -2.0175946 0.30235863 0 0 0 0 70.433762
2.2682853 -2.1311128 0.22064285 0 0 0 0 70.438721
2.2317867 -1.8329366 0.45396033 0 0 0 0 70.443665
2.2369964 -1.8925799 0.37609482 0 0 0 0 70.448608
2.272455 -1.9766982 0.30024871 0 0 0 0 70.453552
2.3167348 -2.0766761 0.21700831 0 0 0 0 70.458511
4.054635 -3.2277586 0.74170291 0 0 0 0 70.463455
4.0934358 -3.3550684 0.60238934 0 0 0 0 70.468399
2.3336236 -1.9365981 0.2981849 0 0 0 0 70.473343
2.3671834 -2.0221734 0.21237811 0 0 0 0 70.478287
4.0182133 -3.0558522 0.72147411 0 0 0 0 70.483246
4.0616541 -3.1758568 0.58392245 0 0 0 0 70.48819
3.7731388 -3.0218751 0.41698009 0 0 0 0 70.493134
2.4197714 -1.9705269 0.20885941 0 0 0 0 70.498077
4.1078186 -2.9831536 0.72139758 0 0 0 0 70.503021
4.0719743 -3.0383947 0.57214737 0 0 0 0 70.50798
3.8690019 -2.9540231 0.41310212 0 0 0 0 70.512924
3.4263725 -2.6813741 0.24917877 0 0 0 0 70.517868
4.252357 -2.9484832 0.72994542 0 0 0 0 70.522812
4.2257199 -3.0074151 0.57686865 0 0 0 0 70.527756
3.9377563 -2.8645406 0.40731791 0 0 0 0 70.532715
3.4915218 -2.6000898 0.24366571 0 0 0 0 70.537659
4.4184542 -2.924664 0.7409845 0 0 0 0 70.542603
2.966296 -1.9955611 0.42166752 0 0 0 0 70.547546
3.0001249 -2.0655463 0.32330015 0 0 0 0 70.55249
3.5567663 -2.5207987 0.23822211 0 0 0 0 70.557449
4.5788655 -2.8871477 0.7505036 0 0 0 0 70.562393
2.9542398 -1.8922284 0.41198409 0 0 0 0 70.567337
2.8707056 -1.8771635 0.30600822 0 0 0 0 70.572281
3.6220064 -2.4415045 0.23277564 0 0 0 0 70.577225
2.747762 -1.6295937 0.47668764 0 0 0 0 70.582184
2.7831547 -1.6912091 0.38603187 0 0 0 0 70.587128
2.8276861 -1.7553705 0.29551089 0 0 0 0 70.592072
2.840503 -1.8054327 0.19532932 0 0 0 0 70.597015
2.8199813 -1.590771 0.47871494 0 0 0 0 70.601974
2.8448546 -1.6420145 0.38463566 0 0 0 0 70.606918
2.9243405 -1.7244415 0.29493654 0 0 0 0 70.611862
3.7779951 -2.2926736 0.22134462 0 0 0 0 70.616806
2.8890033 -1.5481018 0.48058763 0 0 0 0 70.62175
2.9085946 -1.593679 0.38427907 0 0 0 0 70.626709
2.9970262 -1.6746937 0.29357156 0 0 0 0 70.631653
3.8584986 -2.2185724 0.21714954 0 0 0 0 70.636597
2.946593 -1.4970312 0.48110232 0 0 0 0 70.641541
2.9835675 -1.5497812 0.38413331 0 0 0 0 70.646484
3.0810442 -1.6313792 0.29248995 0 0 0 0 70.651443
3.9018021 -2.1213493 0.210944 0 0 0 0 70.656387
3.0134182 -1.4504983 0.48182213 0 0 0 0 70.661331
3.0542936 -1.5010889 0.38379359 0 0 0 0 70.666275
3.165859 -1.5840182 0.29126474 0 0 0 0 70.671219
3.9667723 -2.0370479 0.2053024 0 0 0 0 70.676178
3.6099334 -1.6485031 0.55187607 0 0 0 0 70.681122
5.091754 -2.3883543 0.56950963 0 0 0 0 70.686066
4.6141577 -2.1968548 0.37427184 0 0 0 0 70.69101
4.0685854 -1.9688723 0.20141277 0 0 0 0 70.695953
3.5018241 -1.5063373 0.52931654 0 0 0 0 70.700912
3.5333397 -1.5489709 0.41494891 0 0 0 0 70.705856
3.5522678 -1.5801924 0.30111131 0 0 0 0 70.7108
3.5747197 -1.6214622 0.18164957 0 0 0 0 70.715744
5.5314937 -2.2605121 0.77326953 0 0 0 0 70.720688
5.5310378 -2.3003125 0.58760917 0 0 0 0 70.725647
4.5817642 -1.9254149 0.35451013 0 0 0 0 70.730591
4.2338557 -1.8064477 0.19150522 0 0 0 0 70.735535
5.7010665 -2.186444 0.78149819 0 0 0 0 70.740479
5.638082 -2.1966898 0.58547133 0 0 0 0 70.745422
4.6041737 -1.8112012 0.34758088 0 0 0 0 70.750381
4.2994523 -1.7150586 0.18660012 0 0 0 0 70.755325
6.781816 -2.4385345 0.89784336 0 0 0 0 70.760269
4.7322073 -1.7161336 0.49591231 0 0 0 0 70.765213
4.6439056 -1.7031215 0.34095034 0 0 0 0 70.770172
4.3864684 -1.6315964 0.18207896 0 0 0 0 70.775116
5.8589458 -1.9850842 0.58105969 0 0 0 0 70.785004
4.4620485 -1.5397348 0.1761968 0 0 0 0 70.794907
5.6775675 -1.7795514 0.55485845 0 0 0 0 70.804794
4.5629377 -1.4535657 0.17163686 0 0 0 0 70.814682
5.252883 -1.4954687 0.68259257 0 0 0 0 71.211304
6.119122 -1.7678744 0.58161849 0 0 0 0 71.216248
5.3111911 -1.5397189 0.35130933 0 0 0 0 71.221207
4.6334071 -1.353339 0.16817462 0 0 0 0 71.226151
5.3258319 -1.3925099 0.68026078 0 0 0 0 71.231094
5.7938232 -1.5300621 0.54444528 0 0 0 0 71.236038
5.4262934 -1.4386618 0.34824637 0 0 0 0 71.240982
4.7603607 -1.268784 0.16376527 0 0 0 0 71.245941
5.4027157 -1.2883098 0.67889935 0 0 0 0 71.250885
5.4134469 -1.3022243 0.33927315 0 0 0 0 71.260773
4.8576841 -1.1726841 0.15979007 0 0 0 0 71.265717
6.5383167 -1.4214969 0.58021438 0 0 0 0 71.27562
5.6274605 -1.2170297 0.34025648 0 0 0 0 71.280563
4.9528069 -1.0727252 0.15465915 0 0 0 0 71.285507
5.7632113 -1.1088634 0.33802149 0 0 0 0 71.300354
5.0588088 -0.97020626 0.14948274 0 0 0 0 71.305298
7.1617975 -1.2299987 0.82948899 0 0 0 0 71.310242
5.6552644 -0.95335561 0.32488057 0 0 0 0 71.320145
5.1899257 -0.86940479 0.14448555 0 0 0 0 71.325089
5.493032 -0.81333524 0.64723295 0 0 0 0 71.330032
5.3822155 -0.78956783 0.46572953 0 0 0 0 71.334976
5.3134575 -0.76696134 0.30348152 0 0 0 0 71.339935
5.2863145 -0.7553193 0.13983262 0 0 0 0 71.344879
5.380085 -0.67743164 0.62577134 0 0 0 0 71.349823
5.3638549 -0.66345394 0.45608386 0 0 0 0 71.354767
6.1969237 -0.75399089 0.32930544 0 0 0 0 71.359711
5.1055732 -0.60636139 0.13157362 0 0 0 0 71.36467
5.4757009 -0.56822294 0.62529171 0 0 0 0 71.369614
5.0980453 -0.51445305 0.43040344 0 0 0 0 71.374557
5.1015911 -0.49673322 0.28068477 0 0 0 0 71.379501
5.1748323 -0.49065465 0.12672269 0 0 0 0 71.384445
5.0966158 -0.4156957 0.57992458 0 0 0 0 71.389404
5.1414409 -0.4020972 0.42454937 0 0 0 0 71.394348
6.4536486 -0.48434812 0.32177192 0 0 0 0 71.399292
5.6640353 -0.40258363 0.12388629 0 0 0 0 71.404236
5.1693602 -0.30973223 0.57744443 0 0 0 0 71.40918
5.1415858 -0.28597975 0.41734582 0 0 0 0 71.414139
5.7806664 -0.27346998 0.11776086 0 0 0 0 71.424026
5.0622859 -0.19148792 0.55864018 0 0 0 0 71.42897
5.1137195 -0.17036623 0.40802133 0 0 0 0 71.433914
5.1939344 -0.14455111 0.26337096 0 0 0 0 71.438873
5.3214359 -0.12265837 0.11008438 0 0 0 0 71.443817
6.081152 0.0012565079 0.10621098 0 0 0 0 71.463608
6.2037807 0.14974622 0.10038759 0 0 0 0 71.483398
17.414137 2.3484211 1.4731523 0 0 0 0 71.58728
8.167428 1.7754831 0.039128359 0 0 0 0 71.641693
20.869127 4.2208323 1.647736 0 0 0 0 71.646637
9.4224825 2.032491 0.52800202 0 0 0 0 71.651596
8.0143499 1.8388778 0.25222465 0 0 0 0 71.65654
6.9394927 1.6837978 0.041666463 0 0 0 0 71.661484
11.640867 2.6237557 0.94108212 0 0 0 0 71.666428
9.1025171 2.1806753 0.50099695 0 0 0 0 71.671371
13.034733 3.2328837 1.0219611 0 0 0 0 71.431854
13.624697 3.5812309 0.68572825 0 0 0 0 71.436798
13.669089 3.7103479 1.0454502 0 0 0 0 71.45163
13.999829 4.0184846 0.68343633 0 0 0 0 71.456589
13.981104 4.1284184 1.0445571 0 0 0 0 71.47142
14.211009 4.4310708 0.6732505 0 0 0 0 71.476364
18.266022 5.8291821 1.3075331 0 0 0 0 71.491211
14.459785 4.8716455 0.66319823 0 0 0 0 71.496155
10.400191 3.8782568 -0.032056049 0 0 0 0 71.506058
18.898911 6.4907007 1.3191642 0 0 0 0 71.511002
14.726435 5.3342357 0.654405 0 0 0 0 71.515945
10.402029 3.9634883 0.2309953 0 0 0 0 71.520889
9.0681248 3.6284664 -0.023199126 0 0 0 0 71.525848
18.804722 6.9219456 1.2827592 0 0 0 0 71.530792
14.931207 5.7925606 0.64245492 0 0 0 0 71.535736
11.714892 4.7805119 0.23513082 0 0 0 0 71.54068
12.310544 5.2694292 -0.075282171 0 0 0 0 71.545624
18.719986 7.3636756 1.2459953 0 0 0 0 71.550583
15.211541 6.2999082 0.63204145 0 0 0 0 71.555527
12.327618 5.3670583 0.22939475 0 0 0 0 71.560471
12.675351 5.7897706 -0.092778653 0 0 0 0 71.565414
18.825279 7.8867407 1.2221289 0 0 0 0 71.570358
18.815588 8.2980566 0.73353821 0 0 0 0 71.575317
12.674269 5.8697329 0.21946102 0 0 0 0 71.580261
12.931383 6.2826529 -0.10679697 0 0 0 0 71.585205
18.727009 8.3377419 1.1839207 0 0 0 0 71.590149
18.69957 8.7624807 0.70374441 0 0 0 0 71.595093
15.399119 7.5800066 0.22828612 0 0 0 0 71.600052
13.017221 6.7157879 -0.11943875 0 0 0 0 71.604996
18.632391 8.7950029 1.147482 0 0 0 0 71.60994
18.400999 9.1351843 0.66844457 0 0 0 0 71.614883
15.402964 8.0299101 0.21160501 0 0 0 0 71.619827
13.107167 7.1661124 -0.13371374 0 0 0 0 71.624786
18.398108 9.1836796 1.1028868 0 0 0 0 71.62973
17.677402 9.2832203 0.62039214 0 0 0 0 71.634674
17.656416 9.7338448 0.20831198 0 0 0 0 71.639618
13.231499 7.6483011 -0.14701872 0 0 0 0 71.644562
17.677431 9.314992 1.0324475 0 0 0 0 71.649521
17.568762 9.7390528 0.59290361 0 0 0 0 71.654465
17.523392 10.195756 0.18947612 0 0 0 0 71.659409
15.167599 9.2551432 -0.19530419 0 0 0 0 71.664352
17.531271 9.7414389 0.99385208 0 0 0 0 71.669312
17.493767 10.221662 0.5655672 0 0 0 0 71.674255
15.302741 9.3888197 0.15857925 0 0 0 0 71.679199
18.197617 11.709849 -0.26880795 0 0 0 0 71.684143
17.43083 10.193391 0.95851666 0 0 0 0 71.689087
15.204256 9.3550606 0.48151913 0 0 0 0 71.694046
18.127043 11.711217 0.15000466 0 0 0 0 71.69899
17.972679 12.185308 -0.28164062 0 0 0 0 71.703934
18.135454 11.148973 0.96039307 0 0 0 0 71.708878
14.902127 9.6395016 0.45241696 0 0 0 0 71.713821
17.992962 12.231077 0.1279491 0 0 0 0 71.718781
17.751347 12.66798 -0.29374242 0 0 0 0 71.723724
14.849556 9.5890589 0.77519315 0 0 0 0 71.728668
17.950914 12.206043 0.49783662 0 0 0 0 71.733612
17.698362 12.639529 0.10723411 0 0 0 0 71.738556
17.638048 13.23025 -0.30829865 0 0 0 0 71.743515
17.922379 12.15118 0.88190681 0 0 0 0 71.748459
17.630007 12.581561 0.4632014 0 0 0 0 71.753403
17.585552 13.192525 0.085011542 0 0 0 0 71.758347
17.500946 13.787362 -0.32079852 0 0 0 0 71.76329
17.629431 12.52869 0.8353191 0 0 0 0 71.76825
17.525829 13.122698 0.43344852 0 0 0 0 71.773193
17.452145 13.736486 0.064004302 0 0 0 0 71.778137
17.321693 14.326285 -0.33284792 0 0 0 0 71.783081
17.493504 13.025721 0.79503757 0 0 0 0 71.788025
17.404161 13.652923 0.40399563 0 0 0 0 71.792984
17.332409 14.306162 0.042085506 0 0 0 0 71.797928
16.183029 14.050217 -0.32024586 0 0 0 0 71.802872
17.390846 13.556592 0.75664026 0 0 0 0 71.807816
17.287968 14.21244 0.37345883 0 0 0 0 71.812759
16.540869 14.310287 0.022927074 0 0 0 0 71.817719
15.323466 13.954588 -0.313005 0 0 0 0 71.822662
17.275522 14.0997 0.71470344 0 0 0 0 71.827606
16.77914 14.443901 0.33719957 0 0 0 0 71.83255
15.543379 14.094459 0.0069518089 0 0 0 0 71.837509
14.911932 14.239302 -0.3167567 0 0 0 0 71.842453
17.102261 14.600749 0.67303014 0 0 0 0 71.847397
15.783624 14.230158 0.29413643 0 0 0 0 71.852341
14.887383 14.149631 -0.010456011 0 0 0 0 71.857285
14.79037 14.823146 -0.33025944 0 0 0 0 71.862244
16.114445 14.39443 0.60370851 0 0 0 0 71.867188
14.924653 14.086753 0.2571215 0 0 0 0 71.872131
14.760859 14.693973 -0.028522033 0 0 0 0 71.877075
14.649362 15.395048 -0.34143272 0 0 0 0 71.882019
15.191332 14.19555 0.53842747 0 0 0 0 71.886978
14.734929 14.556263 0.22752212 0 0 0 0 71.891922
14.64045 15.274571 -0.049932864 0 0 0 0 71.896866
14.498816 15.976495 -0.35203004 0 0 0 0 71.90181
14.739078 14.405489 0.48817113 0 0 0 0 72.239258
14.609553 15.118283 0.19549364 0 0 0 0 72.244217
14.497833 15.852961 -0.072908796 0 0 0 0 72.249161
14.375004 16.629135 -0.36795193 0 0 0 0 72.254105
14.640391 14.968488 0.4493129 0 0 0 0 72.259048
14.496723 15.701926 0.16577974 0 0 0 0 72.263992
14.369083 16.47213 -0.095048636 0 0 0 0 72.268951
14.226215 17.26668 -0.37989202 0 0 0 0 72.273895
14.524911 15.526564 0.4095349 0 0 0 0 72.278839
14.366261 16.296652 0.13553916 0 0 0 0 72.283783
14.233728 17.10203 -0.11564764 0 0 0 0 72.288727
14.090511 17.959936 -0.39389104 0 0 0 0 72.293686
14.394899 16.093882 0.36931565 0 0 0 0 72.29863
14.228209 16.901943 0.10383929 0 0 0 0 72.303574
14.087106 17.755352 -0.13720916 0 0 0 0 72.308517
13.933889 18.650206 -0.4049052 0 0 0 0 72.313477
14.26142 16.688915 0.32501051 0 0 0 0 72.31842
14.094036 17.547457 0.070618689 0 0 0 0 72.323364
13.938252 18.431566 -0.15967023 0 0 0 0 72.328308
13.476374 18.965357 -0.40728563 0 0 0 0 72.333252
14.136476 17.31152 0.28268647 0 0 0 0 72.338211
13.945579 18.197296 0.039140977 0 0 0 0 72.343155
13.711555 19.044588 -0.18215865 0 0 0 0 72.348099
13.987971 17.943779 0.23685606 0 0 0 0 72.357986
13.80284 18.890419 0.0050321426 0 0 0 0 72.362946
13.127657 19.153296 -0.19540522 0 0 0 0 72.367889
13.842911 18.605265 0.19091518 0 0 0 0 72.377777
13.291809 19.100388 -0.027689163 0 0 0 0 72.382721
11.905903 19.557087 -0.40213516 0 0 0 0 72.392624
13.601933 19.166473 0.14325917 0 0 0 0 72.397568
13.019196 19.254786 0.093749881 0 0 0 0 72.417358
11.761438 19.657379 -0.11914761 0 0 0 0 72.442093
9.9357262 19.269796 -0.37281856 0 0 0 0 72.451981
11.007002 19.389868 -0.14305928 0 0 0 0 72.461884
10.092308 19.172718 -0.24850406 0 0 0 0 72.466827
8.8359051 18.176643 -0.33917612 0 0 0 0 72.471771
11.318904 19.464197 -0.047478512 0 0 0 0 72.476715
10.349683 19.256607 -0.1685641 0 0 0 0 72.481674
9.0638161 18.229664 -0.23918833 0 0 0 0 72.486618
8.235671 18.003613 -0.32785201 0 0 0 0 72.491562
10.652414 19.315798 -0.089467928 0 0 0 0 72.496506
8.4679756 18.06926 -0.24433139 0 0 0 0 72.506409
7.7019567 17.937147 -0.3192313 0 0 0 0 72.511353
10.06619 19.259823 -0.12955622 0 0 0 0 72.516296
7.9208198 17.973497 -0.24967863 0 0 0 0 72.526184
7.1751781 17.853006 -0.30990729 0 0 0 0 72.531143
9.0180197 18.256105 -0.15803272 0 0 0 0 72.536087
8.1463308 18.018803 -0.21745972 0 0 0 0 72.541031
7.4122043 17.944809 -0.25637674 0 0 0 0 72.545975
6.7809496 18.086199 -0.30695292 0 0 0 0 72.550919
8.4217005 18.068474 -0.19216533 0 0 0 0 72.555878
7.6285825 17.974087 -0.23760645 0 0 0 0 72.560822
6.9230337 17.927164 -0.26239872 0 0 0 0 72.565765
7.8848858 17.968145 -0.22530833 0 0 0 0 72.575653
7.1027431 17.873808 -0.25768825 0 0 0 0 72.580612
