# .PCD v0.7 - Point Cloud Data file format
VERSION 0.7
FIELDS x y z normal_x normal_y normal_z intensity curvature
SIZE 4 4 4 4 4 4 4 4
TYPE F F F F F F F F
COUNT 1 1 1 1 1 1 1 1
WIDTH 972
HEIGHT 1
VIEWPOINT 0 0 0 1 0 0 0
POINTS 972
DATA ascii
-4.0711722 5.6498175 5.0588942 0 0 0 0 20.247656
-4.2138619 5.2815137 5.0281386 0 0 0 0 20.252602
-4.527122 5.0969448 5.2042637 0 0 0 0 20.257549
-4.0194573 5.9032211 5.06494 0 0 0 0 20.262497
-4.1901822 5.5461531 5.0468984 0 0 0 0 20.267445
-4.3129587 5.1626606 5.0103135 0 0 0 0 20.27239
-4.6284137 4.9780245 5.2024179 0 0 0 0 20.277338
-4.1503606 5.8106818 5.0538554 0 0 0 0 20.282284
-4.3062015 5.441453 5.0349388 0 0 0 0 20.287231
-4.4691854 5.1100545 5.0611424 0 0 0 0 20.292179
-4.7216935 4.8530464 5.1946421 0 0 0 0 20.297125
-4.2792706 5.7161231 5.0417891 0 0 0 0 20.302073
-4.4162679 5.3287005 5.0200138 0 0 0 0 20.30702
-4.6565151 5.0885897 5.147759 0 0 0 0 20.311966
-4.8100004 4.723022 5.1849046 0 0 0 0 20.316914
-4.4062381 5.6195221 5.0327396 0 0 0 0 20.321861
-4.5263367 5.2189283 5.0081081 0 0 0 0 20.326807
-4.8018422 5.0149107 5.1886172 0 0 0 0 20.331755
-4.8902993 4.5889287 5.1712484 0 0 0 0 20.3367
-4.5312319 5.5169125 5.0206866 0 0 0 0 20.341648
-4.6364417 5.1101313 5.0002117 0 0 0 0 20.346596
-4.9020739 4.8940029 5.1807837 0 0 0 0 20.351543
-4.9736266 4.4598289 5.1645851 0 0 0 0 20.356489
-4.6492925 5.4071469 5.0066915 0 0 0 0 21.068733
-4.790513 5.0453944 5.0421576 0 0 0 0 21.073679
-4.9950047 4.7668076 5.1722975 0 0 0 0 21.078627
-5.0514274 4.3274279 5.1583872 0 0 0 0 21.083572
-4.7733188 5.3034263 5.0007243 0 0 0 0 21.08852
-4.9837961 5.0179372 5.1237588 0 0 0 0 21.093468
-5.0852118 4.6377611 5.1606169 0 0 0 0 21.098415
-5.1357317 4.2022557 5.1588025 0 0 0 0 21.103361
-4.8803391 5.1816087 4.9788723 0 0 0 0 21.108309
-5.1330571 4.9392552 5.1596284 0 0 0 0 21.113255
-5.1734409 4.5096755 5.1519685 0 0 0 0 21.118202
-5.2009873 4.0629663 5.1433764 0 0 0 0 21.12315
-4.9953961 5.069809 4.9689798 0 0 0 0 21.128098
-5.2412558 4.8213449 5.1567926 0 0 0 0 21.133043
-5.2586765 4.3795614 5.1423488 0 0 0 0 21.137991
-5.275291 3.9337018 5.1408963 0 0 0 0 21.142937
-5.1405501 4.9841585 4.9898653 0 0 0 0 21.147884
-5.342454 4.6973848 5.149013 0 0 0 0 21.152832
-5.3288813 4.2393465 5.1218605 0 0 0 0 21.157778
-5.3456116 3.8013988 5.1374526 0 0 0 0 21.162725
-5.3538685 4.9608598 5.0782604 0 0 0 0 21.167673
-5.4316645 4.5603495 5.1313138 0 0 0 0 21.172619
-5.4221959 4.1182337 5.1271982 0 0 0 0 21.177567
-5.4079118 3.6660316 5.1300917 0 0 0 0 21.182514
-5.5241714 4.8903275 5.1249328 0 0 0 0 21.18746
-5.5289016 4.4343324 5.1255789 0 0 0 0 21.192408
-5.5125251 3.9930983 5.1305552 0 0 0 0 21.197353
-5.4722381 3.5336578 5.1277256 0 0 0 0 21.202301
-5.6363873 4.7654686 5.1180248 0 0 0 0 21.207249
-5.6181808 4.2992506 5.1158972 0 0 0 0 21.212196
-5.5737538 3.8507781 5.1111741 0 0 0 0 21.217142
-5.5305538 3.3972404 5.1214137 0 0 0 0 21.22209
-5.743628 4.6355648 5.1091547 0 0 0 0 21.227036
-5.7084513 4.1681614 5.1092272 0 0 0 0 21.231983
-5.6440597 3.7144878 5.1037202 0 0 0 0 21.236931
-5.5737991 3.2547226 5.1042533 0 0 0 0 21.241879
-5.8458934 4.5006175 5.0983224 0 0 0 0 21.246824
-5.7957516 4.0350337 5.1035867 0 0 0 0 21.251772
-5.7113504 3.5781696 5.0953045 0 0 0 0 21.256718
-5.6231198 3.1172097 5.0980492 0 0 0 0 21.261665
-5.9501967 4.3686571 5.0934849 0 0 0 0 21.266613
-5.8760729 3.8948522 5.0939965 0 0 0 0 21.271561
-5.7736588 3.4397981 5.0869412 0 0 0 0 21.276506
-5.6784563 2.9847262 5.0978022 0 0 0 0 21.281454
-6.0435162 4.2266169 5.0817313 0 0 0 0 21.2864
-5.9493761 3.7526116 5.0814834 0 0 0 0 21.291348
-5.8379893 3.3024304 5.0815625 0 0 0 0 21.296295
-5.7298007 2.8512003 5.0976 0 0 0 0 21.301241
-6.1348443 4.084548 5.0710049 0 0 0 0 21.306189
-6.0347576 3.6174259 5.0818663 0 0 0 0 21.311134
-5.8933105 3.1609888 5.0722733 0 0 0 0 21.316082
-5.7610564 2.7085438 5.082593 0 0 0 0 21.32103
-6.2262049 3.9424615 5.0632825 0 0 0 0 21.325977
-6.0970812 3.4690835 5.0664597 0 0 0 0 21.330923
-5.95367 3.0235612 5.0699477 0 0 0 0 21.335871
-5.8104315 2.5759745 5.0864253 0 0 0 0 21.340816
-6.3095641 3.7943158 5.0506282 0 0 0 0 21.345764
-6.1654439 3.3257604 5.0590105 0 0 0 0 21.350712
-6.0150628 2.8871222 5.0716186 0 0 0 0 21.355659
-5.8497624 2.4403322 5.0843639 0 0 0 0 21.360605
-6.3979855 3.6501737 5.0469379 0 0 0 0 21.365553
-6.2318239 3.1804147 5.051578 0 0 0 0 21.370499
-6.0633979 2.745594 5.0644212 0 0 0 0 21.375446
-5.8800507 2.3016267 5.0763965 0 0 0 0 21.380394
-6.4824324 3.5019934 5.0422788 0 0 0 0 21.385342
-6.3062787 3.0400937 5.055079 0 0 0 0 21.390287
-6.1067386 2.6020184 5.0562758 0 0 0 0 21.395235
-5.9184022 2.1679516 5.078362 0 0 0 0 21.400181
-6.5588698 3.3497493 5.0336976 0 0 0 0 21.405128
-6.3576541 2.8886166 5.0427999 0 0 0 0 21.410076
-6.1470757 2.458411 5.0481687 0 0 0 0 21.415022
-5.9507456 2.0312295 5.0773859 0 0 0 0 21.41997
-6.6303334 3.1944525 5.0251637 0 0 0 0 21.424915
-6.4221063 2.7432098 5.0424004 0 0 0 0 21.429863
-6.1934824 2.3168235 5.0480032 0 0 0 0 21.434811
-5.972014 1.8934295 5.0695372 0 0 0 0 21.439758
-6.7007961 3.0401382 5.0176501 0 0 0 0 21.444704
-6.4685087 2.5906687 5.0321817 0 0 0 0 21.449652
-6.2338629 2.1751833 5.0459113 0 0 0 0 21.454597
-5.9953279 1.7566242 5.0666723 0 0 0 0 21.459545
-6.7562437 2.8787048 5.0032816 0 0 0 0 21.464493
-6.5289989 2.4442034 5.0348306 0 0 0 0 21.46944
-6.2742848 2.0325274 5.0468168 0 0 0 0 21.474386
-6.0206642 1.6218185 5.0677958 0 0 0 0 21.479334
-6.8217745 2.7203209 4.9988132 0 0 0 0 21.48428
-6.5673909 2.2895882 5.0227022 0 0 0 0 21.489227
-6.302619 1.8877935 5.038857 0 0 0 0 21.494175
-6.0349584 1.4839305 5.0630364 0 0 0 0 21.499123
-6.885303 2.5629103 4.9953766 0 0 0 0 21.504068
-6.6088405 2.1359723 5.0165453 0 0 0 0 21.509016
-6.3299723 1.7430384 5.0329108 0 0 0 0 21.513962
-6.9388537 2.3994117 4.9890313 0 0 0 0 21.523857
-6.6442738 1.9822994 5.0094624 0 0 0 0 21.528803
-6.3614063 1.5992836 5.0349255 0 0 0 0 21.533751
-0.50115985 0.098864011 0.37422606 0 0 0 0 21.538698
-6.9899254 2.2377231 4.9803581 0 0 0 0 21.277775
-6.6874108 1.8304361 5.0089402 0 0 0 0 21.282722
-6.3834591 1.4551845 5.0286999 0 0 0 0 21.287668
-0.48639449 0.085853294 0.36074668 0 0 0 0 21.292616
-7.0385408 2.0721703 4.9760461 0 0 0 0 21.297562
-6.7209096 1.6757325 5.0048628 0 0 0 0 21.302509
-6.417984 1.312429 5.0376711 0 0 0 0 21.307457
-0.4975718 0.076915525 0.36961654 0 0 0 0 21.312405
-7.078105 1.9065439 4.967844 0 0 0 0 21.31735
-6.7474017 1.5189662 4.9988604 0 0 0 0 21.322298
-6.4777012 1.1748233 5.0673718 0 0 0 0 21.327244
-7.1277752 1.7429634 4.9705353 0 0 0 0 21.337139
-6.7668667 1.3621374 4.9909439 0 0 0 0 21.342085
-0.49067214 0.054867983 0.36268216 0 0 0 0 21.351978
-7.1513228 1.5712011 4.9564986 0 0 0 0 21.356926
-6.8024611 1.2084013 4.9968548 0 0 0 0 21.361874
-0.51443964 0.069138356 0.35650641 0 0 0 0 21.366821
-7.1648321 1.3993508 4.9395833 0 0 0 0 21.376715
-6.8310618 1.052598 5.0018415 0 0 0 0 21.38166
-0.49084365 0.033857055 0.36266991 0 0 0 0 21.391556
-6.8939109 0.90201086 5.0324521 0 0 0 0 21.401449
-0.51359802 0.047126565 0.35450143 0 0 0 0 21.406397
-0.43221357 0.06282077 0.25256041 0 0 0 0 21.41629
-0.49001417 0.012835919 0.36267003 0 0 0 0 21.431131
-0.51130593 0.043219868 0.32959068 0 0 0 0 21.441025
-0.50674248 0.024063684 0.35056281 0 0 0 0 21.445972
-0.42329314 0.041758198 0.24465398 0 0 0 0 21.455866
-0.48816347 -0.0061954772 0.36269268 0 0 0 0 21.470707
-0.51349658 0.020228382 0.32954594 0 0 0 0 21.480602
-0.50691211 0.0030521424 0.35055199 0 0 0 0 21.485548
-0.48792702 0.026178092 0.28791022 0 0 0 0 21.495441
-0.49543712 -0.027180091 0.37159899 0 0 0 0 21.510284
-0.50358468 -0.00085023162 0.32265365 0 0 0 0 21.520178
-0.50206769 -0.019000087 0.34859559 0 0 0 0 21.525124
-0.50827008 0.0042993347 0.30165827 0 0 0 0 21.535019
-0.5077759 -0.050133973 0.38443708 0 0 0 0 21.54986
-0.50278515 -0.023877017 0.32364517 0 0 0 0 21.559753
-0.50124699 -0.040026609 0.34959748 0 0 0 0 21.564701
-0.49836782 -0.017779218 0.29476112 0 0 0 0 21.574594
-0.50703084 -0.046873085 0.32857841 0 0 0 0 21.599329
-0.57691646 -0.093790576 0.44955939 0 0 0 0 21.609222
-0.50766867 -0.042739894 0.30262548 0 0 0 0 21.61417
-2.279191 -0.35047138 1.7754443 0 0 0 0 21.624065
-2.2838862 -0.43623012 1.9329964 0 0 0 0 21.629011
-2.2744362 -0.32888275 1.6466479 0 0 0 0 21.638905
-2.2716856 -0.4005841 1.7783549 0 0 0 0 21.643852
-2.2693114 -0.48439258 1.9319998 0 0 0 0 21.6488
-0.51799124 -0.067700654 0.31247905 0 0 0 0 21.653748
-2.2679517 -0.38098601 1.6495366 0 0 0 0 21.658693
-2.261167 -0.45072177 1.780301 0 0 0 0 21.663641
-2.268918 -0.5344829 1.944829 0 0 0 0 21.668587
-2.2584326 -0.43210939 1.6504661 0 0 0 0 21.678482
-2.2617717 -0.50279295 1.7911085 0 0 0 0 21.683428
-2.2543426 -0.58164966 1.9448382 0 0 0 0 21.688375
-0.44549322 -0.078199454 0.26536977 0 0 0 0 21.693323
-2.2522738 -0.55292988 1.7950438 0 0 0 0 21.703217
-2.2478783 -0.63077509 1.9527436 0 0 0 0 21.708164
-2.2412884 -0.47069129 1.5255889 0 0 0 0 21.71311
-2.2313797 -0.53443044 1.6514199 0 0 0 0 21.718058
-2.2407629 -0.60308158 1.798003 0 0 0 0 21.723003
-2.2363682 -0.67893559 1.9577132 0 0 0 0 21.727951
-2.2277763 -0.52384973 1.525556 0 0 0 0 21.732899
-2.2249246 -0.58654732 1.6573104 0 0 0 0 21.737846
-2.2353401 -0.65520239 1.8068824 0 0 0 0 21.742792
-2.2350121 -0.73104459 1.972546 0 0 0 0 21.74774
-2.2158258 -0.57572502 1.5265913 0 0 0 0 21.492065
-2.2302268 -0.64333546 1.6731144 0 0 0 0 21.497013
-2.2275074 -0.7060886 1.8138635 0 0 0 0 21.501961
-2.2261927 -0.77995461 1.9795433 0 0 0 0 21.506908
-2.2235906 -0.63476121 1.5442775 0 0 0 0 21.511854
-2.2137003 -0.69353026 1.6741306 0 0 0 0 21.516802
-2.2150369 -0.75626665 1.8198329 0 0 0 0 21.521748
-2.2167561 -0.82912099 1.9894826 0 0 0 0 21.526695
-2.2081072 -0.68795121 1.5462667 0 0 0 0 21.531643
-2.2032731 -0.74669349 1.681061 0 0 0 0 21.536591
-2.2086434 -0.80840826 1.8307216 0 0 0 0 21.541536
-2.2063065 -0.8782922 1.9984341 0 0 0 0 21.546484
-2.1987021 -0.74210984 1.5541803 0 0 0 0 21.55143
-2.1979122 -0.80083042 1.6929277 0 0 0 0 21.556377
-2.1982255 -0.86058003 1.8396578 0 0 0 0 21.561325
-2.2009556 -0.93044198 2.0133119 0 0 0 0 21.566271
-2.1903274 -0.79826283 1.5630726 0 0 0 0 21.571218
-2.1875153 -0.85500276 1.7018539 0 0 0 0 21.576166
-2.1888406 -0.91275615 1.8515828 0 0 0 0 21.581112
-2.1986694 -0.98458081 2.0321445 0 0 0 0 21.58606
-2.1809628 -0.8544305 1.5729768 0 0 0 0 21.591007
-2.1750965 -0.90719497 1.7108142 0 0 0 0 21.595953
-2.1804645 -0.96592182 1.8634913 0 0 0 0 21.600901
-2.1913369 -1.0377549 2.0480418 0 0 0 0 21.605846
-2.1705966 -0.91060781 1.5828935 0 0 0 0 21.610794
-2.1687963 -0.96435553 1.7256789 0 0 0 0 21.615742
-2.1731532 -1.0210965 1.8793783 0 0 0 0 21.620689
-2.1789145 -1.0879545 2.0590136 0 0 0 0 21.625635
-2.1643069 -0.96876907 1.5977534 0 0 0 0 21.630583
-2.1614842 -1.0205259 1.740561 0 0 0 0 21.635529
-2.164829 -1.0762761 1.8942776 0 0 0 0 21.640476
-2.1695788 -1.141148 2.0749352 0 0 0 0 21.645424
-2.1509712 -1.0259855 1.6097009 0 0 0 0 21.650372
-2.1491256 -1.0757315 1.7525073 0 0 0 0 21.655317
-2.1626356 -1.1354339 1.9170866 0 0 0 0 21.660265
-2.1592417 -1.194351 2.0908689 0 0 0 0 21.665211
-2.1426878 -1.085166 1.6245805 0 0 0 0 21.670158
-2.1439199 -1.1359102 1.7733467 0 0 0 0 21.675106
-2.1523309 -1.1906425 1.9340103 0 0 0 0 21.680052
-2.150969 -1.2495528 2.1107695 0 0 0 0 21.684999
-2.1385024 -1.1473351 1.6453981 0 0 0 0 21.689947
-2.1356678 -1.1951039 1.7912269 0 0 0 0 21.694893
-2.1450992 -1.2498349 1.9538792 0 0 0 0 21.699841
-2.1447375 -1.306744 2.132637 0 0 0 0 21.704788
-2.1252375 -1.2075696 1.6613321 0 0 0 0 21.709734
-2.1223705 -1.2523375 1.8071761 0 0 0 0 21.714682
-2.1399217 -1.3100264 1.9777201 0 0 0 0 21.719627
-2.137526 -1.3649495 2.1555119 0 0 0 0 21.724575
-2.1079063 -1.264829 1.6743283 0 0 0 0 21.729523
-2.1202884 -1.3185139 1.8339518 0 0 0 0 21.73447
-2.1235771 -1.3652788 1.9917158 0 0 0 0 21.739416
-2.127291 -1.4221797 2.1774273 0 0 0 0 21.744364
-2.1048343 -1.3320159 1.701111 0 0 0 0 21.74931
-2.1131608 -1.3827301 1.8587968 0 0 0 0 21.754257
-2.1205366 -1.4314833 2.0225041 0 0 0 0 21.759205
-2.1211517 -1.4833935 2.2042763 0 0 0 0 21.764153
-2.0967257 -1.3992375 1.7249528 0 0 0 0 21.769098
-2.1050432 -1.4469607 1.8846539 0 0 0 0 21.774046
-2.1093419 -1.4917282 2.0454168 0 0 0 0 21.778992
-2.1109674 -1.5426371 2.2291827 0 0 0 0 21.783939
-2.0876381 -1.4664782 1.7508068 0 0 0 0 21.788887
-2.0888128 -1.5082363 1.9036202 0 0 0 0 21.793833
-2.0981982 -1.5549822 2.0703151 0 0 0 0 21.79878
-2.1028554 -1.6058744 2.2570462 0 0 0 0 21.803728
-2.0836768 -1.5396975 1.782573 0 0 0 0 21.808674
-2.0838525 -1.5794743 1.9374083 0 0 0 0 21.813622
-2.0870855 -1.6192452 2.0972085 0 0 0 0 21.818569
-2.095819 -1.6711257 2.2898886 0 0 0 0 21.823515
-2.0726159 -1.6089618 1.8094417 0 0 0 0 21.828463
-2.0717697 -1.6467476 1.9642987 0 0 0 0 21.833408
-2.0821316 -1.6904864 2.1319978 0 0 0 0 21.838356
-2.0836909 -1.7343967 2.3168001 0 0 0 0 21.843304
-2.0585861 -1.6792649 1.8383406 0 0 0 0 21.848251
-2.0637932 -1.7180092 1.9971232 0 0 0 0 21.853197
-2.0680473 -1.7557874 2.1609223 0 0 0 0 21.858145
-2.073648 -1.8006712 2.3486733 0 0 0 0 21.863091
-2.0506918 -1.7565364 1.8731356 0 0 0 0 21.868038
-2.0528455 -1.7913047 2.0309734 0 0 0 0 21.872986
-2.0580659 -1.8270673 2.1937711 0 0 0 0 21.877934
-2.068764 -1.873934 2.3884544 0 0 0 0 21.882879
-2.0418375 -1.8358266 1.9099329 0 0 0 0 21.887827
-2.0409169 -1.8656142 2.0658305 0 0 0 0 21.892773
-2.0512233 -1.9033551 2.2345607 0 0 0 0 21.89772
-2.059866 -1.9472309 2.4272826 0 0 0 0 21.902668
-2.0279498 -1.9131608 1.9457988 0 0 0 0 21.907616
-2.0270071 -1.9409474 2.1017065 0 0 0 0 21.912561
-2.0413764 -1.9806669 2.2743809 0 0 0 0 21.917509
-2.048934 -2.0185421 2.4651446 0 0 0 0 21.922455
-2.0151446 -1.9945034 1.9856336 0 0 0 0 21.927402
-2.0182436 -2.0232637 2.1444905 0 0 0 0 21.93235
-2.0264533 -2.0540128 2.3112795 0 0 0 0 21.937296
-2.0411372 -2.0968513 2.5089376 0 0 0 0 21.942244
-2.0085378 -2.0858288 2.0343502 0 0 0 0 21.947189
-2.0044677 -2.1046286 2.1873381 0 0 0 0 21.952137
-2.0197825 -2.1393363 2.3600264 0 0 0 0 21.957085
-2.0293164 -2.1741946 2.5517826 0 0 0 0 21.962032
-1.9946221 -2.1730385 2.0772789 0 0 0 0 21.74015
-2.0028112 -2.2007926 2.2430801 0 0 0 0 21.745096
-1.9986665 -2.2125938 2.3941026 0 0 0 0 21.750044
-1.9773409 -2.2085552 2.5434027 0 0 0 0 21.75499
-1.9277418 -2.2036707 2.0679867 0 0 0 0 21.759937
-1.9142917 -2.2034836 2.2031748 0 0 0 0 21.764885
-1.8956374 -2.1933019 2.3294718 0 0 0 0 21.769833
-1.8802848 -2.1901875 2.4756968 0 0 0 0 21.774778
-1.8167264 -2.1794841 2.0084722 0 0 0 0 21.779726
-1.8082612 -2.1802359 2.1415968 0 0 0 0 21.784672
-1.799709 -2.1769679 2.2707417 0 0 0 0 21.789619
-1.7872649 -2.1717927 2.4109421 0 0 0 0 21.794567
-1.7220693 -2.170223 1.9666929 0 0 0 0 21.799513
-1.7144716 -2.1659298 2.0928311 0 0 0 0 21.804461
-1.7098712 -2.1626012 2.2179296 0 0 0 0 21.809408
-1.7044764 -2.16136 2.3590283 0 0 0 0 21.814354
-1.6272975 -2.1539409 1.9209466 0 0 0 0 21.819302
-1.6236849 -2.1505969 2.0450332 0 0 0 0 21.824249
-1.6189507 -2.1432288 2.1621521 0 0 0 0 21.829195
-1.6236905 -2.1499107 2.3080943 0 0 0 0 21.834143
-1.5365732 -2.1376367 1.8791515 0 0 0 0 21.839088
-1.536934 -2.1352372 2.0001867 0 0 0 0 21.844036
-1.5423561 -2.1367972 2.1231441 0 0 0 0 21.848984
-1.5448979 -2.136445 2.2581453 0 0 0 0 21.853931
-1.4529781 -2.12729 1.8432429 0 0 0 0 21.858877
-1.4511217 -2.1158564 1.9533467 0 0 0 0 21.863825
-1.4636689 -2.1243703 2.0811875 0 0 0 0 21.868771
-1.4680982 -2.1209633 2.2091808 0 0 0 0 21.873718
-1.3682494 -2.1079326 1.803389 0 0 0 0 21.878666
-1.3776758 -2.1124415 1.9242851 0 0 0 0 21.883614
-1.3848757 -2.1069174 2.0342548 0 0 0 0 21.888559
-1.3984824 -2.1134541 2.1690936 0 0 0 0 21.893507
-1.2876303 -2.0925627 1.7694665 0 0 0 0 21.898453
-1.2989233 -2.0930126 1.8823599 0 0 0 0 21.9034
-1.3143319 -2.0994468 2.0001767 0 0 0 0 21.908348
-1.326774 -2.0999491 2.1260579 0 0 0 0 21.913294
-1.2099595 -2.074152 1.7335225 0 0 0 0 21.918242
-1.2274084 -2.0835705 1.8523015 0 0 0 0 21.923189
-1.2426741 -2.0849652 1.9621438 0 0 0 0 21.928135
-1.2570356 -2.0844183 2.0820069 0 0 0 0 21.933083
-1.1385145 -2.065733 1.7084572 0 0 0 0 21.93803
-1.1547681 -2.0671129 1.817288 0 0 0 0 21.942976
-1.1730077 -2.0694628 1.9240911 0 0 0 0 21.947924
-1.1924181 -2.0728705 2.0448766 0 0 0 0 21.952869
-1.0700406 -2.0542834 1.6833705 0 0 0 0 21.957817
-1.0872468 -2.0556333 1.7881901 0 0 0 0 21.962765
-1.108493 -2.0599482 1.8939488 0 0 0 0 21.967712
-1.1298345 -2.0623114 2.0097167 0 0 0 0 21.972658
-1.0015152 -2.0398226 1.6562971 0 0 0 0 21.977606
-1.0227492 -2.0441322 1.7610559 0 0 0 0 21.982552
-1.0470232 -2.0514171 1.8667654 0 0 0 0 21.987499
-1.0671993 -2.0487418 1.9725704 0 0 0 0 21.992447
-0.93919313 -2.034349 1.6391081 0 0 0 0 21.997395
-0.96032763 -2.0356297 1.7378821 0 0 0 0 22.00234
-0.98448068 -2.0388803 1.836612 0 0 0 0 22.007288
-1.0076848 -2.0391746 1.9423678 0 0 0 0 22.012234
-0.8726089 -2.0148611 1.6110332 0 0 0 0 22.017181
-0.90092945 -2.0271056 1.7166723 0 0 0 0 22.022129
-0.92603528 -2.0303271 1.8113912 0 0 0 0 22.027075
-0.95429808 -2.0355761 1.9180651 0 0 0 0 22.032022
-0.81329149 -2.0073652 1.5958165 0 0 0 0 22.03697
-0.84045869 -2.014576 1.6924925 0 0 0 0 22.041916
-0.86857116 -2.0197625 1.7861673 0 0 0 0 22.046864
-0.89462858 -2.0169787 1.8819042 0 0 0 0 22.051811
-0.75393224 -1.9978583 1.5786083 0 0 0 0 22.056757
-0.78201151 -2.0020351 1.6702882 0 0 0 0 22.061705
-0.81211925 -2.0091922 1.7619306 0 0 0 0 22.06665
-0.84332007 -2.0153825 1.8625659 0 0 0 0 22.071598
-0.69657505 -1.9873354 1.5623806 0 0 0 0 22.076546
-0.72349185 -1.9854789 1.6451021 0 0 0 0 22.081493
-0.75456399 -1.9926115 1.7337335 0 0 0 0 22.086439
-0.79087532 -2.0067666 1.8372724 0 0 0 0 22.091387
-0.64236653 -1.983815 1.5530825 0 0 0 0 22.096333
-0.67229003 -1.983924 1.6347601 0 0 0 0 22.10128
-0.703242 -1.9870231 1.7164118 0 0 0 0 22.106228
-0.73841202 -1.9961497 1.8119875 0 0 0 0 22.111176
-0.58700234 -1.9712747 1.5378392 0 0 0 0 22.116121
-0.61893272 -1.9733593 1.6184844 0 0 0 0 22.121069
-0.65183777 -1.9764194 1.6961136 0 0 0 0 22.126015
-0.68902403 -1.9885213 1.7906523 0 0 0 0 22.130962
-0.53477496 -1.9657325 1.5285254 0 0 0 0 22.13591
-0.56555498 -1.9617885 1.6012121 0 0 0 0 22.140856
-0.60148793 -1.9678193 1.6787927 0 0 0 0 22.145803
-0.63857526 -1.9768925 1.7673467 0 0 0 0 22.150751
-0.4814347 -1.95318 1.5152564 0 0 0 0 22.155697
-0.51634622 -1.9582155 1.5918535 0 0 0 0 22.160645
-0.55217099 -1.9602177 1.6634544 0 0 0 0 22.165592
-0.58803338 -1.9602438 1.7400647 0 0 0 0 22.170538
-0.43114835 -1.9426111 1.5049418 0 0 0 0 22.175486
-0.46707639 -1.9506319 1.5805134 0 0 0 0 22.180431
-0.50387561 -1.9536101 1.6490984 0 0 0 0 22.185379
-0.54275429 -1.9566021 1.7246605 0 0 0 0 22.190327
-0.3809467 -1.93606 1.4986064 0 0 0 0 22.195274
-0.41667295 -1.9350336 1.5642227 0 0 0 0 22.20022
-0.45660344 -1.9470011 1.6367298 0 0 0 0 22.205168
-0.49539354 -1.9479645 1.7063023 0 0 0 0 22.210114
-0.33310977 -1.9295137 1.4928945 0 0 0 0 22.097607
-0.37087792 -1.9324673 1.5584663 0 0 0 0 22.102554
-0.41069391 -1.9404012 1.6239911 0 0 0 0 22.107502
-0.4504109 -1.9393309 1.68856 0 0 0 0 22.11245
-0.28493056 -1.9229537 1.4885372 0 0 0 0 22.117395
-0.32357889 -1.9218645 1.5471179 0 0 0 0 22.122343
-0.3643173 -1.9277649 1.6076417 0 0 0 0 22.127289
-0.40613556 -1.933689 1.6751537 0 0 0 0 22.132236
-0.23658438 -1.9073598 1.4772233 0 0 0 0 22.137184
-0.27699488 -1.9142852 1.5387774 0 0 0 0 22.14213
-0.31973955 -1.9231625 1.5992796 0 0 0 0 22.147078
-0.36248773 -1.9290545 1.6627969 0 0 0 0 22.152023
-0.18905951 -1.8988174 1.4728647 0 0 0 0 22.156971
-0.23178296 -1.90669 1.5323722 0 0 0 0 22.161919
-0.27335885 -1.9085346 1.583921 0 0 0 0 22.166866
-0.3191548 -1.9193969 1.6473809 0 0 0 0 22.171812
-0.14396529 -1.8952545 1.473438 0 0 0 0 22.17676
-0.18764354 -1.9030982 1.5289352 0 0 0 0 22.181705
-0.23017445 -1.9049139 1.5764736 0 0 0 0 22.186653
-0.27590576 -1.9137571 1.6359442 0 0 0 0 22.191601
-0.097675465 -1.8806627 1.4660755 0 0 0 0 22.196548
-0.14231975 -1.8884821 1.5185623 0 0 0 0 22.201494
-0.18804416 -1.9023013 1.573009 0 0 0 0 22.206442
-0.23361546 -1.9060972 1.6225052 0 0 0 0 22.211388
-0.052510835 -1.8720881 1.4646711 0 0 0 0 22.216335
-0.099244468 -1.8868972 1.519102 0 0 0 0 22.221283
-0.14472847 -1.8896599 1.5616037 0 0 0 0 22.226231
-0.19237946 -1.8994455 1.6130489 0 0 0 0 22.231176
-0.0094597917 -1.8695163 1.4682139 0 0 0 0 22.236124
-0.056004457 -1.8762785 1.5126849 0 0 0 0 22.24107
-0.10253646 -1.8840311 1.5551517 0 0 0 0 22.246017
-0.15109132 -1.8907789 1.6006014 0 0 0 0 22.250965
0.034765482 -1.8569204 1.4648156 0 0 0 0 22.255911
-0.013786796 -1.8656583 1.5082556 0 0 0 0 22.260859
-0.060253449 -1.8723875 1.5457281 0 0 0 0 22.265806
-0.10982574 -1.8821207 1.5901527 0 0 0 0 22.270752
0.078154877 -1.8352809 1.4544495 0 0 0 0 22.2757
0.028389063 -1.8570465 1.5058153 0 0 0 0 22.280647
-0.020104669 -1.8677515 1.5422469 0 0 0 0 22.285593
-0.069643311 -1.8774706 1.5836724 0 0 0 0 22.290541
0.12022351 -1.8297009 1.4589924 0 0 0 0 22.295486
0.070564635 -1.8484337 1.5033739 0 0 0 0 22.300434
0.021093542 -1.8591198 1.5377952 0 0 0 0 22.305382
-0.030440385 -1.8718053 1.576185 0 0 0 0 22.310329
0.16332236 -1.822125 1.4625549 0 0 0 0 22.315275
0.11175938 -1.8378102 1.5009301 0 0 0 0 22.320223
0.061353479 -1.8474631 1.5303462 0 0 0 0 22.325169
0.0098640304 -1.8601301 1.5647367 0 0 0 0 22.330116
0.20633855 -1.8185664 1.4700966 0 0 0 0 22.335064
0.1530157 -1.8241717 1.4954998 0 0 0 0 22.340012
0.10252066 -1.840834 1.5268824 0 0 0 0 22.344957
0.050074417 -1.8524774 1.5582678 0 0 0 0 22.349905
0.24945655 -1.8089882 1.4736665 0 0 0 0 22.354851
0.19324006 -1.8115319 1.4920524 0 0 0 0 22.359798
0.14262459 -1.8362129 1.5273968 0 0 0 0 22.364746
0.089254312 -1.8468187 1.5527771 0 0 0 0 22.369692
0.29332852 -1.8124697 1.4881827 0 0 0 0 22.37464
0.23434043 -1.8049287 1.4945856 0 0 0 0 22.379587
0.18283127 -1.8265675 1.5229346 0 0 0 0 22.384533
0.12841205 -1.8411685 1.5492853 0 0 0 0 22.389481
0.33177352 -1.7847759 1.4777837 0 0 0 0 22.394428
0.27540916 -1.7993337 1.4991127 0 0 0 0 22.399374
0.22202548 -1.8159208 1.5204651 0 0 0 0 22.404322
0.16770247 -1.8284894 1.5398265 0 0 0 0 22.409267
0.37660316 -1.7892785 1.4953035 0 0 0 0 22.414215
0.31557932 -1.7877096 1.499657 0 0 0 0 22.419163
0.26125076 -1.8042639 1.5159994 0 0 0 0 22.42411
0.20589942 -1.8198231 1.5353363 0 0 0 0 22.429056
0.41869771 -1.7787002 1.5018628 0 0 0 0 22.434004
0.35848355 -1.7901689 1.5121647 0 0 0 0 22.43895
0.30134165 -1.7986482 1.5185144 0 0 0 0 22.443897
0.24601382 -1.8151938 1.534847 0 0 0 0 22.448845
0.45981282 -1.7671063 1.5074147 0 0 0 0 22.453793
0.39769325 -1.7755283 1.5117105 0 0 0 0 22.458738
0.34051445 -1.7890033 1.5170368 0 0 0 0 22.463686
0.28423065 -1.805521 1.5293596 0 0 0 0 22.468632
0.50281423 -1.7605584 1.5189627 0 0 0 0 22.473579
0.4387086 -1.7709477 1.5202283 0 0 0 0 22.478527
0.38060373 -1.7823902 1.5205543 0 0 0 0 22.483473
0.32151684 -1.7908285 1.5218842 0 0 0 0 22.48842
0.54483634 -1.752995 1.5295039 0 0 0 0 22.493368
0.47981536 -1.7613474 1.5247692 0 0 0 0 22.498314
0.41977474 -1.7717479 1.5200794 0 0 0 0 22.503262
0.36061975 -1.7861911 1.5223812 0 0 0 0 22.508209
0.5859077 -1.7414163 1.5390522 0 0 0 0 22.513155
0.52087027 -1.7537599 1.5322992 0 0 0 0 22.518103
0.46079159 -1.7681609 1.527591 0 0 0 0 22.523048
0.39881247 -1.7755297 1.5198952 0 0 0 0 22.527996
0.6346423 -1.7469869 1.5646037 0 0 0 0 22.532944
0.5628531 -1.7491993 1.5438244 0 0 0 0 22.537891
0.49993095 -1.758526 1.529109 0 0 0 0 22.542837
0.43792459 -1.7698904 1.5203948 0 0 0 0 22.547785
0.67861181 -1.7404574 1.5791581 0 0 0 0 22.552731
0.60486591 -1.7426327 1.5543581 0 0 0 0 22.557678
0.53998733 -1.7519226 1.535622 0 0 0 0 22.562626
0.47708544 -1.7602458 1.5199126 0 0 0 0 22.567574
0.7213136 -1.7263947 1.5909636 0 0 0 0 23.114607
0.65229899 -1.7456915 1.5761628 0 0 0 0 23.119555
0.58264595 -1.7449046 1.5444447 0 0 0 0 23.124502
0.5178141 -1.7522087 1.5227422 0 0 0 0 23.129448
0.76723439 -1.7208806 1.6095161 0 0 0 0 23.134396
0.69434208 -1.7371016 1.5856887 0 0 0 0 23.139343
0.62370193 -1.7382929 1.5509518 0 0 0 0 23.144289
0.55791056 -1.7445751 1.5262442 0 0 0 0 23.149237
0.81120402 -1.7123381 1.6260602 0 0 0 0 23.154182
0.73445195 -1.7234832 1.5932155 0 0 0 0 23.15913
0.66667795 -1.7347205 1.5624648 0 0 0 0 23.164078
0.59991014 -1.7429765 1.5337386 0 0 0 0 23.169025
0.85518301 -1.7027942 1.642608 0 0 0 0 23.173971
0.77939546 -1.7189448 1.6087517 0 0 0 0 23.178919
0.70867383 -1.7301333 1.5729709 0 0 0 0 23.183865
0.63807458 -1.7313094 1.5342362 0 0 0 0 23.188812
0.89823908 -1.6882267 1.656167 0 0 0 0 23.19376
0.82237715 -1.7113824 1.6232798 0 0 0 0 23.198708
0.75265783 -1.7245719 1.5855011 0 0 0 0 23.203653
0.68010151 -1.7267085 1.5417421 0 0 0 0 23.208601
0.93353027 -1.6615319 1.657697 0 0 0 0 23.213547
0.866368 -1.7028279 1.6378216 0 0 0 0 23.218494
0.79468131 -1.7169824 1.5960186 0 0 0 0 23.223442
0.7211467 -1.7200974 1.5492456 0 0 0 0 23.228388
0.97075176 -1.6378723 1.6632326 0 0 0 0 23.233335
0.90844625 -1.6892364 1.6483643 0 0 0 0 23.238283
0.83677238 -1.7053785 1.6035533 0 0 0 0 23.243229
0.76030004 -1.7084407 1.5507504 0 0 0 0 23.248177
1.0186195 -1.6313952 1.6878028 0 0 0 0 23.253124
0.95052308 -1.674648 1.6599104 0 0 0 0 23.25807
0.87881398 -1.6957866 1.6140777 0 0 0 0 23.263018
0.80432403 -1.7018636 1.5602827 0 0 0 0 23.267963
1.0703783 -1.6289837 1.7193949 0 0 0 0 23.272911
0.9867754 -1.6509646 1.6624343 0 0 0 0 23.277859
0.92474753 -1.6912562 1.6306193 0 0 0 0 23.282806
0.84634835 -1.6952671 1.5697932 0 0 0 0 23.287752
1.1357658 -1.6447852 1.7710481 0 0 0 0 23.2927
1.0278609 -1.635365 1.6739722 0 0 0 0 23.297646
0.97169024 -1.6857333 1.6471747 0 0 0 0 23.302593
0.88842958 -1.6846607 1.5773208 0 0 0 0 23.307541
1.1856313 -1.6353345 1.7986487 0 0 0 0 23.312489
1.0767412 -1.6298847 1.6965458 0 0 0 0 23.317434
1.0166904 -1.6761824 1.6617264 0 0 0 0 23.322382
0.93730712 -1.6851602 1.5948694 0 0 0 0 23.327328
1.241379 -1.630967 1.8332869 0 0 0 0 23.332275
1.1402106 -1.6436391 1.7421862 0 0 0 0 23.337223
1.0568459 -1.65855 1.6682616 0 0 0 0 23.342169
0.98228991 -1.6786046 1.6084073 0 0 0 0 23.347116
1.2922635 -1.6195219 1.8609042 0 0 0 0 23.352064
1.19107 -1.6371868 1.7677822 0 0 0 0 23.35701
1.1047863 -1.6510412 1.6868325 0 0 0 0 23.361958
1.0283115 -1.670048 1.6199634 0 0 0 0 23.366905
1.3431469 -1.6070797 1.8895245 0 0 0 0 23.371851
1.2360939 -1.6216438 1.7853559 0 0 0 0 23.376799
1.1527553 -1.6415265 1.7044113 0 0 0 0 23.381744
1.07239 -1.6574636 1.6295158 0 0 0 0 23.386692
1.3979505 -1.596698 1.9241751 0 0 0 0 23.39164
1.2908825 -1.6162506 1.8169856 0 0 0 0 23.396587
1.2026546 -1.6340503 1.7270001 0 0 0 0 23.401533
1.1193805 -1.6489266 1.6440796 0 0 0 0 23.406481
1.454744 -1.586337 1.9598451 0 0 0 0 23.411427
1.3486329 -1.6128913 1.8506358 0 0 0 0 23.416374
1.2516226 -1.6235459 1.745591 0 0 0 0 23.421322
1.162505 -1.6323264 1.6526372 0 0 0 0 23.42627
1.5115368 -1.5749784 1.9965178 0 0 0 0 23.431215
1.3995566 -1.5994326 1.8762577 0 0 0 0 23.436163
1.3005981 -1.6110448 1.7651894 0 0 0 0 23.441109
1.216359 -1.6298842 1.675243 0 0 0 0 23.446056
1.5693095 -1.5636356 2.0351989 0 0 0 0 23.451004
1.4504998 -1.5849679 1.9008828 0 0 0 0 23.45595
1.3603218 -1.6107012 1.7988448 0 0 0 0 23.460897
1.2663366 -1.619383 1.6928426 0 0 0 0 23.465845
1.6300708 -1.5513265 2.0759137 0 0 0 0 23.470791
1.5132076 -1.5796741 1.9405885 0 0 0 0 23.475739
1.412286 -1.5972323 1.8204756 0 0 0 0 23.480686
1.3163335 -1.6078761 1.7094452 0 0 0 0 23.485632
1.6996464 -1.5461477 2.1286874 0 0 0 0 23.49058
1.570051 -1.5672944 1.9732627 0 0 0 0 23.495525
1.4681429 -1.5878279 1.8491277 0 0 0 0 23.500473
1.3682907 -1.5973984 1.7290624 0 0 0 0 23.505421
1.7614256 -1.5308477 2.1704226 0 0 0 0 23.510368
1.6269126 -1.5529128 2.0059443 0 0 0 0 23.515314
1.5230664 -1.5743999 1.8747859 0 0 0 0 23.520262
1.4281018 -1.5930296 1.7577327 0 0 0 0 23.525208
1.8222324 -1.5125366 2.2121589 0 0 0 0 23.530155
1.6906477 -1.5436263 2.0466728 0 0 0 0 23.535103
1.5838633 -1.5660582 1.9084812 0 0 0 0 23.540051
1.4820566 -1.5805752 1.7793763 0 0 0 0 23.544996
1.8938241 -1.5023819 2.2679696 0 0 0 0 23.549944
1.7563804 -1.5323642 2.0894294 0 0 0 0 23.55489
1.639814 -1.5496355 1.9341601 0 0 0 0 23.559837
1.5399425 -1.5701764 1.8060498 0 0 0 0 23.564785
1.9654731 -1.4882162 2.3217962 0 0 0 0 23.569733
1.822142 -1.5190958 2.1311929 0 0 0 0 23.574678
1.7045987 -1.5393386 1.9709017 0 0 0 0 23.579626
1.6008182 -1.5598068 1.8337525 0 0 0 0 23.584572
2.0292504 -1.4665748 2.368144 0 0 0 0 23.281107
1.8947871 -1.5105076 2.1815467 0 0 0 0 23.286055
1.7684221 -1.5285735 2.0081499 0 0 0 0 23.291
1.6607648 -1.5479326 1.8619438 0 0 0 0 23.295948
2.0341327 -1.402473 2.345504 0 0 0 0 23.300896
1.9664718 -1.4973372 2.2303817 0 0 0 0 23.305843
1.8342197 -1.5153027 2.0459249 0 0 0 0 23.310789
1.7246054 -1.5366192 1.8936909 0 0 0 0 23.315737
2.0271924 -1.3322099 2.3107667 0 0 0 0 23.320683
2.0313132 -1.4760662 2.2711794 0 0 0 0 23.32563
1.9069371 -1.5041194 2.0897613 0 0 0 0 23.330578
1.7904644 -1.5233217 1.9254661 0 0 0 0 23.335526
2.0133109 -1.2608622 2.2709613 0 0 0 0 23.340471
2.0440836 -1.4170638 2.2545979 0 0 0 0 23.345419
1.9816328 -1.4919651 2.1366208 0 0 0 0 23.350365
1.8612328 -1.5120983 1.9642814 0 0 0 0 23.355312
2.0043178 -1.1935912 2.2381883 0 0 0 0 23.36026
2.0332289 -1.3437397 2.2138324 0 0 0 0 23.365208
2.0494654 -1.4727144 2.1764379 0 0 0 0 23.370153
1.9349911 -1.5009038 2.0041258 0 0 0 0 23.375101
1.9982338 -1.1303695 2.2104275 0 0 0 0 23.380047
2.0184026 -1.2703669 2.1700253 0 0 0 0 23.384995
2.0484996 -1.403512 2.1427567 0 0 0 0 23.389942
2.0107474 -1.4877341 2.0459979 0 0 0 0 23.394888
1.9891405 -1.0691171 2.1816261 0 0 0 0 23.399836
2.0133576 -1.2061418 2.1392791 0 0 0 0 23.404781
2.0386503 -1.330194 2.1010008 0 0 0 0 23.409729
2.0658648 -1.4572858 2.0677292 0 0 0 0 23.414677
1.9810154 -1.0088828 2.1548297 0 0 0 0 23.419624
2.0033505 -1.1408594 2.1054857 0 0 0 0 23.42457
2.0297108 -1.2609075 2.0642357 0 0 0 0 23.429518
2.0599926 -1.3840133 2.0280137 0 0 0 0 23.434464
1.97679 -0.95271111 2.1340556 0 0 0 0 23.439411
1.9933126 -1.0775818 2.0726824 0 0 0 0 23.444359
2.0217209 -1.1946392 2.0294671 0 0 0 0 23.449306
2.0442071 -1.3076255 1.9822087 0 0 0 0 23.454252
1.9656529 -0.89444655 2.1062186 0 0 0 0 23.4592
1.9901345 -1.0194067 2.0489275 0 0 0 0 23.464146
2.0117288 -1.1283537 1.9946773 0 0 0 0 23.469093
2.0343115 -1.2363186 1.9424417 0 0 0 0 23.474041
1.9613661 -0.84128863 2.0884297 0 0 0 0 23.478989
1.9820048 -0.96016973 2.0211256 0 0 0 0 23.483934
2.0066273 -1.0671396 1.9659153 0 0 0 0 23.488882
2.0263259 -1.169052 1.9076765 0 0 0 0 23.493828
2.0240808 -0.81605649 2.1442113 0 0 0 0 23.498775
1.9708747 -0.90190214 1.9922879 0 0 0 0 23.503723
1.9995236 -1.0059081 1.9371322 0 0 0 0 23.508669
2.0202699 -1.1048211 1.8769174 0 0 0 0 23.513617
2.1193657 -0.80125993 2.2332819 0 0 0 0 23.518562
1.9725249 -0.85081631 1.9785507 0 0 0 0 23.52351
1.9894197 -0.94564605 1.9073136 0 0 0 0 23.528458
2.0082531 -1.0405197 1.8420967 0 0 0 0 23.533405
2.2127175 -0.78143352 2.3203518 0 0 0 0 23.538351
2.0264392 -0.82143253 2.0182571 0 0 0 0 23.543299
1.9822456 -0.88842857 1.8815113 0 0 0 0 23.548244
2.0041053 -0.98032939 1.8163387 0 0 0 0 23.553192
2.3228588 -0.76483291 2.4255781 0 0 0 0 23.55814
2.1198452 -0.80457163 2.0973136 0 0 0 0 23.563087
1.9839115 -0.83633912 1.8667775 0 0 0 0 23.568033
1.9940159 -0.91906446 1.7855235 0 0 0 0 23.572981
2.4280949 -0.74117088 2.5277817 0 0 0 0 23.577927
2.2261107 -0.78987485 2.1884909 0 0 0 0 23.582874
2.0605972 -0.81422716 1.9226838 0 0 0 0 23.587822
1.9888067 -0.86187905 1.7627406 0 0 0 0 23.59277
2.4800789 -0.69877946 2.5725164 0 0 0 0 23.597715
2.3264813 -0.76810384 2.2756355 0 0 0 0 23.602663
2.1639643 -0.79945999 2.0038302 0 0 0 0 23.607609
2.0290065 -0.82527417 1.780334 0 0 0 0 23.612556
2.4046915 -0.62168181 2.4860919 0 0 0 0 23.617504
2.4397492 -0.74549186 2.3739128 0 0 0 0 23.62245
2.2604668 -0.77759713 2.077934 0 0 0 0 23.627398
2.119602 -0.80531335 1.8433702 0 0 0 0 23.632343
2.3914738 -0.56342471 2.4652247 0 0 0 0 23.637291
2.5639145 -0.72202063 2.4833026 0 0 0 0 23.642239
2.3757679 -0.75797641 2.170218 0 0 0 0 23.647186
2.222095 -0.78549874 1.916525 0 0 0 0 23.652132
2.4621928 -0.52429819 2.5331337 0 0 0 0 23.65708
2.7029369 -0.69774193 2.6078448 0 0 0 0 23.662025
2.4930854 -0.73437804 2.2645366 0 0 0 0 23.666973
2.3404286 -0.76788193 2.0038295 0 0 0 0 23.671921
4.8835526 -0.93152785 5.0341539 0 0 0 0 23.676868
2.8351035 -0.66536653 2.7253478 0 0 0 0 23.681814
2.6262884 -0.70897257 2.3720219 0 0 0 0 23.686762
2.4548845 -0.74220455 2.0861259 0 0 0 0 23.691708
5.2107849 -0.87875521 5.3657107 0 0 0 0 23.696655
2.9544566 -0.6258204 2.8307471 0 0 0 0 23.701603
2.7674282 -0.68067151 2.4885972 0 0 0 0 23.706551
2.5950804 -0.71985066 2.1916671 0 0 0 0 23.711496
5.592504 -0.82069439 5.7538366 0 0 0 0 23.716444
4.9813242 -0.94102657 4.7720642 0 0 0 0 23.72139
2.9145725 -0.64743543 2.6092508 0 0 0 0 23.726337
2.7323802 -0.69044864 2.2932055 0 0 0 0 23.731285
5.7469382 -0.71861356 5.9098268 0 0 0 0 23.736231
5.275279 -0.87767631 5.0413146 0 0 0 0 23.741179
4.8733492 -0.96816295 4.3588161 0 0 0 0 23.746126
2.8974364 -0.66139024 2.4190209 0 0 0 0 23.751072
5.746563 -0.59499216 5.9072256 0 0 0 0 23.842649
5.6270967 -0.81060416 5.368072 0 0 0 0 23.847597
5.1777792 -0.90842128 4.6140904 0 0 0 0 23.852543
4.788414 -0.97632784 3.9908488 0 0 0 0 23.857491
5.7496667 -0.47292548 5.9127507 0 0 0 0 23.862438
6.1370015 -0.7479775 5.8454666 0 0 0 0 23.867384
5.5274963 -0.84163898 4.9118881 0 0 0 0 23.872332
5.1184249 -0.92120922 4.2484012 0 0 0 0 23.877277
5.7270398 -0.34952253 5.8920202 0 0 0 0 23.882225
6.2323556 -0.62104928 5.9309382 0 0 0 0 23.887173
5.8852496 -0.76194775 5.2178121 0 0 0 0 23.89212
5.4911633 -0.85760063 4.5414109 0 0 0 0 23.897066
5.7231588 -0.22838254 5.8944683 0 0 0 0 23.902014
6.2415872 -0.4850246 5.9355764 0 0 0 0 23.90696
6.357039 -0.67766815 5.6258936 0 0 0 0 23.911907
5.9006977 -0.78342682 4.8648257 0 0 0 0 23.916855
5.7252145 -0.10731997 5.9029741 0 0 0 0 23.921803
6.243866 -0.34891778 5.935142 0 0 0 0 23.926748
6.762619 -0.56855112 5.9764023 0 0 0 0 23.931696
6.326251 -0.69044083 5.2034698 0 0 0 0 23.936642
5.7084117 0.011974794 5.8952818 0 0 0 0 23.941589
6.2372007 -0.21171203 5.9296217 0 0 0 0 23.946537
6.779942 -0.41560996 5.9861832 0 0 0 0 23.951485
6.9056067 -0.5913108 5.6696725 0 0 0 0 23.95643
5.6985054 0.13116643 5.8976574 0 0 0 0 23.961376
6.235424 -0.076587468 5.9331403 0 0 0 0 23.966324
6.7774229 -0.26242822 5.9797645 0 0 0 0 23.971272
6.8843651 -0.42987755 5.6420994 0 0 0 0 23.976219
5.6846161 0.25040084 5.8979917 0 0 0 0 23.981167
6.2296743 0.058584236 5.9336176 0 0 0 0 23.986113
6.7659221 -0.11015631 5.9702501 0 0 0 0 23.991058
6.85812 -0.2684021 5.6144753 0 0 0 0 23.996006
5.6687269 0.36766055 5.8962965 0 0 0 0 24.000954
6.2189517 0.19381145 5.9310436 0 0 0 0 24.005901
6.7514 0.040141135 5.9606953 0 0 0 0 24.010847
6.8377724 -0.10901275 5.5948997 0 0 0 0 24.015795
5.6448932 0.48600963 5.8895259 0 0 0 0 24.020741
6.2012367 0.328107 5.9263949 0 0 0 0 24.025688
6.7329016 0.19247657 5.9501081 0 0 0 0 24.030636
6.8005042 0.04856392 5.5651464 0 0 0 0 24.035583
5.6259694 0.60228586 5.8897943 0 0 0 0 24.040529
6.1844988 0.46238509 5.9237542 0 0 0 0 24.045477
6.7064219 0.34289691 5.9354315 0 0 0 0 24.050423
6.7780805 0.20594783 5.5505395 0 0 0 0 24.05537
5.6020646 0.71761698 5.8870082 0 0 0 0 24.060318
6.1617694 0.59572262 5.9190493 0 0 0 0 24.065266
6.6848679 0.49324432 5.927803 0 0 0 0 24.070211
6.7526531 0.36335665 5.5359015 0 0 0 0 24.075157
5.5791268 0.83292651 5.8872309 0 0 0 0 24.080105
6.1519055 0.72889394 5.9274702 0 0 0 0 24.085052
6.6533437 0.64169759 5.9150662 0 0 0 0 24.09
6.7192163 0.51784164 5.5191703 0 0 0 0 24.094948
5.5541773 0.94725257 5.8874288 0 0 0 0 24.099894
6.1241608 0.86127323 5.922709 0 0 0 0 24.104839
6.6317053 0.79001868 5.9134264 0 0 0 0 24.109787
6.6956921 0.67419839 5.5125446 0 0 0 0 24.114735
5.5262365 1.0606121 5.885592 0 0 0 0 24.119682
6.0914254 0.99170703 5.9148889 0 0 0 0 24.124628
6.6090336 0.9383353 5.9147744 0 0 0 0 24.129576
6.6681371 0.82858455 5.5068693 0 0 0 0 24.134521
5.4913244 1.1730471 5.8796816 0 0 0 0 24.139469
6.0656056 1.1230427 5.9161406 0 0 0 0 24.144417
6.5724492 1.0858121 5.9059801 0 0 0 0 24.149364
6.6425381 0.98293626 5.5052123 0 0 0 0 24.15431
5.4633298 1.2853882 5.8818393 0 0 0 0 24.159258
6.0417428 1.2543442 5.9214106 0 0 0 0 24.164204
6.5417833 1.2322079 5.9042387 0 0 0 0 24.169151
6.612926 1.1373173 5.5045142 0 0 0 0 24.174099
5.4243979 1.393864 5.8738708 0 0 0 0 24.179047
5.9999728 1.3818521 5.913486 0 0 0 0 24.183992
6.5100737 1.3785949 5.906487 0 0 0 0 24.188938
6.5803113 1.2907271 5.5027809 0 0 0 0 24.193886
5.3953681 1.5061997 5.8790169 0 0 0 0 24.198833
5.9601693 1.5093296 5.9085813 0 0 0 0 24.203781
6.4793396 1.5259602 5.9117465 0 0 0 0 24.208729
6.5446634 1.4441493 5.5040174 0 0 0 0 24.213675
5.3544106 1.6146821 5.8730283 0 0 0 0 24.21862
5.9173541 1.6358314 5.9036412 0 0 0 0 24.223568
6.4376464 1.670447 5.9098859 0 0 0 0 24.228516
6.517931 1.5984571 5.5143447 0 0 0 0 24.233463
5.3193703 1.7240756 5.8761015 0 0 0 0 24.238409
5.8755059 1.7623112 5.901711 0 0 0 0 24.243357
6.4455905 1.8293074 5.9575734 0 0 0 0 24.248302
6.4663129 1.7470459 5.5074015 0 0 0 0 24.25325
5.2763805 1.8305686 5.8710837 0 0 0 0 24.258198
5.8296494 1.885832 5.897728 0 0 0 0 24.263145
6.3998623 1.9728185 5.9576669 0 0 0 0 24.268091
6.9982572 2.0676215 6.0059099 0 0 0 0 24.273039
5.2363377 1.9380107 5.8720989 0 0 0 0 24.277985
5.7807899 2.009377 5.8937154 0 0 0 0 24.282932
6.3322296 2.10958 5.9415164 0 0 0 0 24.28788
6.9426761 2.229223 6.0059719 0 0 0 0 24.292828
5.1893358 2.0425394 5.8660331 0 0 0 0 24.297773
5.7338777 2.1328831 5.894722 0 0 0 0 24.302719
6.2824483 2.2511096 5.944561 0 0 0 0 24.307667
6.8801036 2.3888941 6.0029569 0 0 0 0 24.312614
5.1355534 2.1427813 5.8563251 0 0 0 0 24.057068
5.6762495 2.2510662 5.8861365 0 0 0 0 24.062014
6.2199535 2.3882277 5.9400964 0 0 0 0 24.066959
6.8028207 2.5410702 5.9915066 0 0 0 0 24.071907
5.0905046 2.2472734 5.8562799 0 0 0 0 24.076855
5.6223464 2.3716464 5.8850636 0 0 0 0 24.081802
6.1552277 2.5239294 5.9339714 0 0 0 0 24.086748
6.7362041 2.6967711 5.9914379 0 0 0 0 24.091696
5.0384879 2.3488498 5.850153 0 0 0 0 24.096642
5.5604854 2.4893227 5.8768988 0 0 0 0 24.101589
6.0814962 2.6547232 5.9237361 0 0 0 0 24.106537
6.6387119 2.8408308 5.9680142 0 0 0 0 24.111485
4.9814749 2.4464843 5.8399601 0 0 0 0 24.11643
5.5025511 2.6069341 5.8757734 0 0 0 0 24.121378
6.0186939 2.790375 5.9246297 0 0 0 0 24.126324
6.8008718 3.1006753 6.1836505 0 0 0 0 24.131271
4.9353585 2.5509565 5.8459039 0 0 0 0 24.136219
5.4356694 2.7206581 5.8655419 0 0 0 0 24.141167
5.93893 2.9182162 5.9143229 0 0 0 0 24.146112
6.7192369 3.2555025 6.1834264 0 0 0 0 24.151058
4.8782992 2.6495671 5.8407149 0 0 0 0 24.156006
5.3667469 2.8333852 5.8582873 0 0 0 0 24.160954
5.8681054 3.0509369 5.9141254 0 0 0 0 24.165901
6.6047316 3.3947206 6.1558113 0 0 0 0 24.170849
4.8212199 2.7461765 5.8355179 0 0 0 0 24.175795
5.3027701 2.9470429 5.8570857 0 0 0 0 24.18074
5.7833014 3.1748166 5.9037523 0 0 0 0 24.185688
6.3896379 3.4761765 6.0349631 0 0 0 0 24.190636
4.7641153 2.8447676 5.8343287 0 0 0 0 24.195583
5.2308159 3.0567918 5.8497891 0 0 0 0 24.200529
5.7014537 3.2986517 5.8974094 0 0 0 0 24.205477
6.2073226 3.5692127 5.9464912 0 0 0 0 24.210423
4.7020435 2.9394286 5.8260741 0 0 0 0 24.21537
5.1568422 3.1645558 5.8424649 0 0 0 0 24.220318
5.6135979 3.4195442 5.8889956 0 0 0 0 24.225266
6.0816841 3.6895285 5.9146948 0 0 0 0 24.230211
4.6389413 3.0330882 5.8198061 0 0 0 0 24.235159
5.0888009 3.2762258 5.8452153 0 0 0 0 24.240105
5.5247121 3.5384388 5.8815641 0 0 0 0 24.245052
5.9809012 3.8245173 5.9102049 0 0 0 0 24.25
4.5777941 3.1287045 5.8195658 0 0 0 0 24.254948
5.009798 3.3800323 5.8368263 0 0 0 0 24.259893
5.4318161 3.6553688 5.8730855 0 0 0 0 24.264839
5.8910379 3.9643612 5.9178443 0 0 0 0 24.269787
4.5096736 3.2184112 5.8112326 0 0 0 0 24.274734
4.925797 3.4808917 5.8253765 0 0 0 0 24.279682
5.3428669 3.7732379 5.8706503 0 0 0 0 24.28463
5.7772231 4.0894794 5.9071879 0 0 0 0 24.289576
4.4445176 3.3100703 5.8079371 0 0 0 0 24.294521
4.8497362 3.5866399 5.8240256 0 0 0 0 24.299469
5.245923 3.8851969 5.8621135 0 0 0 0 24.304417
5.6583948 4.2086535 5.8924589 0 0 0 0 24.309364
4.3783498 3.401732 5.8056321 0 0 0 0 24.31431
4.7686496 3.6884325 5.82161 0 0 0 0 24.319258
5.1429629 3.9932122 5.8515029 0 0 0 0 24.324203
5.5474968 4.3327117 5.8888297 0 0 0 0 24.329151
4.3071952 3.4894547 5.7982626 0 0 0 0 24.334099
4.6756124 3.7813773 5.8060412 0 0 0 0 24.339046
5.0449491 4.1021581 5.8469448 0 0 0 0 24.343992
5.4196081 4.441968 5.8709741 0 0 0 0 24.34894
4.2330308 3.5752046 5.7898564 0 0 0 0 24.353886
4.5785718 3.8683734 5.7854104 0 0 0 0 24.358833
4.9379416 4.2052016 5.8362765 0 0 0 0 24.363781
5.2996492 4.5561085 5.8642178 0 0 0 0 24.368729
4.1618228 3.6629031 5.787488 0 0 0 0 24.373674
4.4924359 3.9652014 5.7829275 0 0 0 0 24.37862
4.8239326 4.3003292 5.8185081 0 0 0 0 24.383568
5.171699 4.663341 5.8503571 0 0 0 0 24.388515
4.083642 3.7436948 5.7760239 0 0 0 0 24.393463
4.41324 4.0679231 5.7915378 0 0 0 0 24.398411
4.7248259 4.4072471 5.8209352 0 0 0 0 24.403357
5.0486722 4.7734876 5.8465586 0 0 0 0 24.408302
3.9984777 3.8185718 5.7574677 0 0 0 0 24.41325
4.3230753 4.1607842 5.7880011 0 0 0 0 24.418198
4.6117353 4.5013323 5.8101754 0 0 0 0 24.423145
4.9166403 4.8717475 5.8326254 0 0 0 0 24.428091
3.9262238 3.906256 5.7590919 0 0 0 0 24.433039
4.2259092 4.246726 5.7783694 0 0 0 0 24.437984
4.4966283 4.5914397 5.7973804 0 0 0 0 24.442932
4.7905474 4.9769049 5.83078 0 0 0 0 24.44788
3.8469684 3.9870214 5.7546196 0 0 0 0 24.452827
4.1177864 4.3218136 5.7545881 0 0 0 0 24.457773
4.3764906 4.6745973 5.7815108 0 0 0 0 24.462721
4.6574388 5.0711498 5.8208237 0 0 0 0 24.467667
3.7846246 4.0865417 5.7753892 0 0 0 0 24.472614
4.0265412 4.4116554 5.7560329 0 0 0 0 24.477562
4.2702861 4.7745504 5.7868466 0 0 0 0 24.48251
4.5133352 5.1535277 5.7997146 0 0 0 0 24.487455
3.7530601 4.2225842 5.8506069 0 0 0 0 24.492401
3.9203453 4.4866924 5.7392731 0 0 0 0 24.497349
4.1481104 4.8537188 5.7709441 0 0 0 0 24.502296
4.3771591 5.2437782 5.7927175 0 0 0 0 24.507244
3.7314513 4.3744707 5.943984 0 0 0 0 24.512192
3.8171039 4.5646734 5.7295561 0 0 0 0 24.517138
4.0348673 4.9437451 5.7711749 0 0 0 0 24.522083
4.2359481 5.3230915 5.7796292 0 0 0 0 24.527031
3.6429863 4.4534798 5.9356356 0 0 0 0 25.039692
3.7234707 4.6546631 5.7341433 0 0 0 0 25.04464
3.910187 5.0191402 5.7552805 0 0 0 0 25.049585
4.0951524 5.4036722 5.7664752 0 0 0 0 25.054531
3.5546694 4.5312815 5.9310808 0 0 0 0 25.059479
3.6679456 4.7939157 5.8041315 0 0 0 0 25.064426
3.7679505 5.0694995 5.7171097 0 0 0 0 25.069374
3.9478562 5.4729881 5.7503266 0 0 0 0 25.074322
3.4633467 4.6051168 5.9234838 0 0 0 0 25.079268
3.635299 4.9698162 5.9184761 0 0 0 0 25.084213
3.654573 5.1564474 5.7253528 0 0 0 0 25.089161
3.8045251 5.5452452 5.7402301 0 0 0 0 25.094109
3.3720021 4.6799383 5.9188919 0 0 0 0 25.099056
3.5349128 5.0576525 5.9288464 0 0 0 0 25.104004
3.5730667 5.2909317 5.7880788 0 0 0 0 25.10895
3.6511736 5.5986314 5.7159696 0 0 0 0 25.113895
3.273658 4.746839 5.9072061 0 0 0 0 25.118843
3.4215698 5.127666 5.9190288 0 0 0 0 25.123791
3.5314133 5.4918208 5.9234319 0 0 0 0 25.128738
3.5197418 5.6856976 5.7290459 0 0 0 0 25.133684
3.174324 4.8117566 5.8925042 0 0 0 0 25.138632
3.3042059 5.1917195 5.9061522 0 0 0 0 25.143578
3.4000149 5.5579667 5.9154305 0 0 0 0 25.148525
3.487042 5.9393263 5.9136829 0 0 0 0 25.153473
3.0779359 4.8806138 5.8868465 0 0 0 0 25.158421
3.1908112 5.2627039 5.9023418 0 0 0 0 25.163366
3.2685933 5.6260934 5.9114389 0 0 0 0 25.168312
3.3326063 5.9956698 5.9004297 0 0 0 0 25.17326
2.9805305 4.9474759 5.8811736 0 0 0 0 25.178207
3.0704138 5.3217788 5.888423 0 0 0 0 25.183155
3.1281776 5.6763492 5.8912978 0 0 0 0 25.188103
3.1811178 6.0549541 5.8952184 0 0 0 0 25.193048
2.8791382 5.010386 5.87045 0 0 0 0 25.197994
2.9449949 5.3689203 5.8664136 0 0 0 0 25.202942
2.9917068 5.7315311 5.8812156 0 0 0 0 25.20789
3.0246024 6.1003084 5.8809104 0 0 0 0 25.212837
2.7767088 5.0722899 5.8627143 0 0 0 0 25.217785
2.8295312 5.4329071 5.8635631 0 0 0 0 25.222731
2.8532088 5.7787409 5.8670859 0 0 0 0 25.227676
2.8650692 6.137702 5.8615479 0 0 0 0 25.232624
2.6762667 5.1351681 5.8570032 0 0 0 0 25.237572
2.708071 5.4869723 5.8516221 0 0 0 0 25.242519
2.7146881 5.8279309 5.8569665 0 0 0 0 25.247465
2.7104826 6.1790171 5.8512487 0 0 0 0 25.252413
2.5678315 5.1861482 5.8401742 0 0 0 0 25.257359
2.5875616 5.5420041 5.8456955 0 0 0 0 25.262306
2.5751405 5.8691411 5.8428106 0 0 0 0 25.267254
2.3123426 5.6303201 5.2884588 0 0 0 0 25.272202
2.4643431 5.2470326 5.837431 0 0 0 0 25.277147
2.4640398 5.5920672 5.8367248 0 0 0 0 25.282095
2.202275 5.3482633 5.2743678 0 0 0 0 25.287041
2.1646798 5.6466165 5.265142 0 0 0 0 25.291988
2.3538723 5.2950182 5.8215761 0 0 0 0 25.296936
2.1223845 5.1168785 5.2847495 0 0 0 0 25.301884
2.0746322 5.3833475 5.2653098 0 0 0 0 25.306829
2.065891 5.7910638 5.3647647 0 0 0 0 25.311775
2.246362 5.3499393 5.8157763 0 0 0 0 25.316723
2.000813 5.1359935 5.2546902 0 0 0 0 25.321671
2.1483457 5.965838 5.7931824 0 0 0 0 25.326618
2.0778332 6.2854156 5.7917318 0 0 0 0 25.331566
1.9478337 4.9252901 5.2934046 0 0 0 0 25.336512
1.885192 5.1689939 5.2417402 0 0 0 0 25.341457
2.010674 6.006969 5.7920556 0 0 0 0 25.346405
1.9230865 6.3067107 5.781373 0 0 0 0 25.351353
1.8363205 4.9423518 5.255435 0 0 0 0 25.3563
1.9577733 5.7484527 5.7815876 0 0 0 0 25.361246
1.8689892 6.0311756 5.7778301 0 0 0 0 25.366194
1.7663143 6.3200326 5.7669692 0 0 0 0 25.37114
1.7327338 4.977262 5.2406068 0 0 0 0 25.376087
1.8311418 5.7875152 5.774559 0 0 0 0 25.381035
1.7272866 6.0543752 5.7646046 0 0 0 0 25.385983
1.6115046 6.3333197 5.7565866 0 0 0 0 25.390928
1.8001887 5.5377736 5.7783313 0 0 0 0 25.395876
1.701493 5.8126354 5.7574534 0 0 0 0 25.400822
1.5855511 6.0745673 5.7523704 0 0 0 0 25.405769
1.4546795 6.3316593 5.7351327 0 0 0 0 25.410717
1.6855991 5.5797462 5.7694292 0 0 0 0 25.415665
1.5718192 5.8417292 5.7463651 0 0 0 0 25.42061
1.4437765 6.089756 5.7401204 0 0 0 0 25.425556
1.2998166 6.3369422 5.7237272 0 0 0 0 25.430504
1.5700035 5.6187305 5.7585082 0 0 0 0 25.435452
1.4431245 5.8718004 5.7382927 0 0 0 0 25.440399
1.3029891 6.1069217 5.7308903 0 0 0 0 25.445347
1.1459135 6.3382096 5.7133188 0 0 0 0 25.450293
1.4523821 5.6497431 5.7435417 0 0 0 0 25.455238
1.3134043 5.8938913 5.7261834 0 0 0 0 25.460186
1.1601764 6.1161141 5.7176147 0 0 0 0 25.465134
0.99199891 6.3285031 5.6948738 0 0 0 0 25.470081
1.336727 5.6966729 5.7456551 0 0 0 0 25.475027
1.1816797 5.9060245 5.7060213 0 0 0 0 25.479975
1.0183338 6.1143179 5.6983104 0 0 0 0 25.484921
0.84203011 6.3307018 5.6925125 0 0 0 0 25.489868
1.2160952 5.7147384 5.7206182 0 0 0 0 25.494816
1.0529169 5.9250932 5.6959157 0 0 0 0 25.499763
0.87948215 6.1244535 5.6900811 0 0 0 0 25.504709
0.69105446 6.3189454 5.6790934 0 0 0 0 25.509657
1.0962431 5.7450447 5.712749 0 0 0 0 25.240856
0.92201382 5.9415221 5.685885 0 0 0 0 25.245804
0.73849028 6.1180124 5.6738605 0 0 0 0 25.250751
0.53999656 6.2866569 5.6516695 0 0 0 0 25.255699
0.97754163 5.7830167 5.7127924 0 0 0 0 25.260647
0.79021829 5.9476581 5.6686878 0 0 0 0 25.265593
0.59758431 6.1102166 5.6565289 0 0 0 0 25.270538
0.39195076 6.2788558 5.6492743 0 0 0 0 25.275486
0.85484636 5.7970972 5.6917105 0 0 0 0 25.280434
0.65938163 5.9627376 5.6635375 0 0 0 0 25.285381
0.45864043 6.1093631 5.6492453 0 0 0 0 25.290327
0.24288465 6.2471271 5.6287827 0 0 0 0 25.295275
0.73211837 5.8141518 5.6766424 0 0 0 0 25.30022
0.52954531 5.9708281 5.6523719 0 0 0 0 25.305168
0.31867358 6.0925555 5.6308951 0 0 0 0 25.310116
0.087118067 5.6274643 5.0759954 0 0 0 0 25.315063
0.60935688 5.8411574 5.6736145 0 0 0 0 25.320009
0.39866564 5.9769125 5.6441927 0 0 0 0 25.324957
0.16410306 5.51682 5.0942893 0 0 0 0 25.329903
-0.041987084 5.5975461 5.0617056 0 0 0 0 25.33485
0.48560089 5.8512239 5.6555166 0 0 0 0 25.339798
