# .PCD v0.7 - Point Cloud Data file format
VERSION 0.7
FIELDS x y z normal_x normal_y normal_z intensity curvature
SIZE 4 4 4 4 4 4 4 4
TYPE F F F F F F F F
COUNT 1 1 1 1 1 1 1 1
WIDTH 964
HEIGHT 1
VIEWPOINT 0 0 0 1 0 0 0
POINTS 964
DATA ascii
6.1775222 -3.0570226 2.0204196 0 0 0 0 28.214123
6.0541687 -2.9983833 2.5728521 0 0 0 0 28.21907
6.1137409 -2.9682782 2.3767569 0 0 0 0 28.224018
6.1943569 -2.9432662 2.2025993 0 0 0 0 28.228966
6.4278736 -2.9917789 2.0739372 0 0 0 0 28.23391
6.157537 -2.8876359 2.5838194 0 0 0 0 28.238857
6.309094 -2.892854 2.4214339 0 0 0 0 28.243805
6.4487081 -2.8830409 2.2631011 0 0 0 0 28.248753
7.4316397 -3.2960715 3.0830009 0 0 0 0 28.258644
7.4222059 -3.2056577 2.8151736 0 0 0 0 28.263592
17.566425 -7.3775554 6.1008863 0 0 0 0 28.268539
7.4161177 -3.1008775 3.04141 0 0 0 0 28.278435
7.4416995 -3.0205925 2.7904766 0 0 0 0 28.283382
7.9022417 -3.1048405 2.710182 0 0 0 0 28.288326
7.4355741 -2.9258101 3.0156984 0 0 0 0 28.298222
17.553631 -6.6747017 6.5152559 0 0 0 0 28.303169
17.79884 -6.5277462 6.0438676 0 0 0 0 28.308117
12.407826 -4.5801649 4.9836335 0 0 0 0 28.318008
11.6193 -4.1268201 4.2673316 0 0 0 0 28.322956
17.890047 -6.0947571 6.0104318 0 0 0 0 28.327904
11.473553 -3.9626777 4.5630426 0 0 0 0 28.337799
17.746885 -5.8647671 6.4562764 0 0 0 0 28.342747
11.571242 -3.7218165 4.5562587 0 0 0 0 28.357586
17.868006 -5.4698868 6.4397073 0 0 0 0 28.362534
18.108431 -5.2549191 5.9724264 0 0 0 0 28.367481
17.694757 -5.2808342 6.9065685 0 0 0 0 28.377373
17.964127 -5.0639195 6.415216 0 0 0 0 28.38232
18.237621 -4.8410716 5.9648619 0 0 0 0 28.387268
17.774799 -4.8968153 6.879086 0 0 0 0 28.397163
18.058245 -4.6609502 6.3947244 0 0 0 0 28.402107
17.87985 -4.5128779 6.8585382 0 0 0 0 28.41695
17.343185 -4.0662436 6.0925493 0 0 0 0 28.421898
18.760128 -4.313592 7.1387725 0 0 0 0 28.436737
18.225479 -3.8459454 6.3538013 0 0 0 0 28.441685
18.50119 -3.5621178 5.9175267 0 0 0 0 28.446632
21.490177 -4.4625707 8.1178761 0 0 0 0 28.456528
11.978421 -2.2537165 4.1469235 0 0 0 0 28.461472
18.588373 -3.1381378 5.9090762 0 0 0 0 28.466419
11.013961 -2.0437958 4.1287427 0 0 0 0 28.476315
9.8032551 -1.6182718 3.3693867 0 0 0 0 28.481262
9.0286274 -1.4749409 3.3606129 0 0 0 0 28.496101
8.5522547 -1.217971 2.9221725 0 0 0 0 28.501049
8.1186323 -1.1497529 3.0014277 0 0 0 0 28.515888
7.920424 -0.94875681 2.69121 0 0 0 0 28.520836
7.6107783 -0.91093659 2.7961063 0 0 0 0 28.535679
7.4976387 -0.7282505 2.5336487 0 0 0 0 28.540627
7.211935 -0.70750129 2.6354563 0 0 0 0 28.555466
7.0988188 -0.52983814 2.387989 0 0 0 0 28.560413
6.8780928 -0.52529228 2.4996085 0 0 0 0 28.575253
6.7790036 -0.35469657 2.2710946 0 0 0 0 28.5802
6.6232648 -0.36535573 2.395529 0 0 0 0 28.595043
6.4621515 -0.19457501 2.1571658 0 0 0 0 28.599987
6.2410202 -0.037636735 1.9269314 0 0 0 0 28.604935
6.3696923 -0.21540539 2.2933972 0 0 0 0 28.359795
6.2276001 -0.049670342 2.0710049 0 0 0 0 28.364738
6.0464997 0.10216101 1.8616933 0 0 0 0 28.369686
6.1808786 -0.075669535 2.2151494 0 0 0 0 28.379581
6.132884 0.086730383 2.034508 0 0 0 0 28.384529
5.9327765 0.23661572 1.8242399 0 0 0 0 28.389473
6.0140615 0.053982627 2.1478267 0 0 0 0 28.399368
5.84097 0.21379308 1.9325004 0 0 0 0 28.404316
2.6679866 0.23766299 0.75367415 0 0 0 0 28.414211
5.8552418 0.17960204 2.0844738 0 0 0 0 28.419155
5.8403201 0.34486899 1.9287486 0 0 0 0 28.424103
5.7925 0.30189216 2.0558684 0 0 0 0 28.438946
5.5313373 0.45097327 1.8247461 0 0 0 0 28.443893
5.365284 0.58870292 1.649366 0 0 0 0 28.448837
5.48248 0.40501109 1.9408613 0 0 0 0 28.458733
5.4816127 0.57020575 1.8070978 0 0 0 0 28.46368
5.2484851 0.69714886 1.6148705 0 0 0 0 28.468628
5.3796678 0.51342505 1.9013318 0 0 0 0 28.478519
5.3347635 0.67475879 1.757673 0 0 0 0 28.483467
5.1446943 0.80354679 1.5863366 0 0 0 0 28.488415
5.2558193 0.61690742 1.8538457 0 0 0 0 28.49831
5.2259502 0.78018093 1.7221501 0 0 0 0 28.503258
5.0018435 0.90107131 1.544886 0 0 0 0 28.508202
5.1429706 0.71634871 1.8113234 0 0 0 0 28.518097
5.0860877 0.87670094 1.6776904 0 0 0 0 28.523045
4.8840075 0.9955079 1.5133654 0 0 0 0 28.527992
5.0331197 0.81277478 1.7717868 0 0 0 0 28.537884
4.9982796 0.97704577 1.6511023 0 0 0 0 28.542831
4.7711701 1.0889262 1.4828278 0 0 0 0 28.547779
4.633162 1.2075087 1.3473392 0 0 0 0 28.552727
4.9122405 0.90323478 1.7282668 0 0 0 0 28.557674
4.8764119 1.0675008 1.6125833 0 0 0 0 28.562618
4.6583166 1.1763406 1.4532795 0 0 0 0 28.567566
4.538342 1.2978567 1.3277478 0 0 0 0 28.572514
4.804369 0.99264848 1.6897103 0 0 0 0 28.577461
4.7435188 1.1509868 1.5720794 0 0 0 0 28.582409
4.5404453 1.2587677 1.4227343 0 0 0 0 28.587357
4.4455194 1.3861942 1.3101462 0 0 0 0 28.5923
4.6974883 1.0770541 1.6531417 0 0 0 0 28.597248
4.6376514 1.2353805 1.5415069 0 0 0 0 28.602196
4.4656296 1.349053 1.40609 0 0 0 0 28.607143
4.3346548 1.464587 1.2875737 0 0 0 0 28.612091
4.5986128 1.1604297 1.6205496 0 0 0 0 28.617039
4.5277696 1.3157843 1.5099363 0 0 0 0 28.621983
4.3827987 1.4353602 1.3884583 0 0 0 0 28.62693
4.2458196 1.5479064 1.2719507 0 0 0 0 28.631878
4.5007248 1.2398 1.5879472 0 0 0 0 28.636826
4.4218831 1.3931717 1.4803493 0 0 0 0 28.641773
4.3029656 1.520656 1.3718156 0 0 0 0 28.646717
4.1629858 1.6302044 1.2583094 0 0 0 0 28.651665
4.405838 1.3181572 1.5573337 0 0 0 0 28.656612
4.3300128 1.4725112 1.4557279 0 0 0 0 28.66156
4.2471642 1.6108726 1.3631183 0 0 0 0 28.666508
4.3219633 1.3974763 1.5306921 0 0 0 0 28.676399
4.2311225 1.5458694 1.4301136 0 0 0 0 28.681347
4.1753383 1.6961378 1.3504518 0 0 0 0 28.686295
4.2410879 1.4747814 1.5070384 0 0 0 0 28.69619
4.1342258 1.6182209 1.4034905 0 0 0 0 28.701138
4.0964861 1.774423 1.3357912 0 0 0 0 28.706081
4.1571965 1.5480953 1.4813846 0 0 0 0 28.715977
4.0503454 1.6905254 1.3838336 0 0 0 0 28.720924
3.9895728 1.8387952 1.3121783 0 0 0 0 28.725872
4.0743027 1.6194021 1.4577239 0 0 0 0 28.735764
3.9614475 1.757843 1.3631802 0 0 0 0 28.740711
3.8976781 1.9051162 1.2945293 0 0 0 0 28.745659
3.8369088 2.0523803 1.2258706 0 0 0 0 28.750607
3.9994206 1.6926812 1.4370441 0 0 0 0 28.755554
3.8925872 1.8340963 1.3484879 0 0 0 0 28.760498
3.8117929 1.9734161 1.2788661 0 0 0 0 28.765446
3.7610576 2.1266418 1.2181894 0 0 0 0 28.770393
3.9195244 1.7619734 1.4153693 0 0 0 0 28.775341
3.8116968 1.9023846 1.3308121 0 0 0 0 28.780289
3.722893 2.0377235 1.2622027 0 0 0 0 28.785236
3.6681607 2.1889541 1.2055317 0 0 0 0 28.79018
3.8586595 1.8372034 1.4006544 0 0 0 0 28.795128
3.7428305 1.9756322 1.318112 0 0 0 0 28.800076
3.6410043 2.1030049 1.2495219 0 0 0 0 28.805023
3.569242 2.2462842 1.1898798 0 0 0 0 28.809971
3.7887781 1.9084587 1.3839543 0 0 0 0 28.814919
3.6749599 2.0468743 1.3064051 0 0 0 0 28.819862
3.5751505 2.1772349 1.2418121 0 0 0 0 28.82481
3.4863553 2.3095603 1.1811949 0 0 0 0 28.829758
3.7187896 1.9778361 1.3673769 0 0 0 0 28.890877
3.6069829 2.117234 1.2948173 0 0 0 0 28.895824
3.509187 2.249578 1.235216 0 0 0 0 28.900768
3.4013524 2.3709531 1.1716238 0 0 0 0 28.905716
3.6599209 2.0510507 1.3556468 0 0 0 0 28.910664
3.54813 2.192441 1.2880878 0 0 0 0 28.915611
3.4393098 2.3168137 1.2275006 0 0 0 0 28.920559
3.339509 2.4451573 1.1708964 0 0 0 0 28.925507
3.6000509 2.1242666 1.3439173 0 0 0 0 28.93045
3.4802482 2.260675 1.2773688 0 0 0 0 28.935398
3.3754513 2.3890285 1.2227752 0 0 0 0 28.940346
3.272649 2.5153763 1.1681739 0 0 0 0 28.945293
3.5421841 2.1974733 1.3341814 0 0 0 0 28.950241
3.4193826 2.3328855 1.2696366 0 0 0 0 28.955189
3.3125939 2.4612381 1.2190459 0 0 0 0 28.960133
3.2027824 2.5836012 1.1654539 0 0 0 0 28.96508
3.4823086 2.2686853 1.3234459 0 0 0 0 28.970028
3.3575151 2.4040964 1.2629037 0 0 0 0 28.974976
3.2356949 2.5224891 1.2103333 0 0 0 0 28.979923
3.1389287 2.6548059 1.1657219 0 0 0 0 28.984867
3.4204316 2.3399012 1.3127133 0 0 0 0 28.989815
3.3046737 2.4822774 1.2601569 0 0 0 0 28.994762
3.1848693 2.6036582 1.2115836 0 0 0 0 28.99971
3.0690589 2.7220268 1.1639968 0 0 0 0 29.004658
3.3806102 2.4250476 1.3109455 0 0 0 0 29.009605
3.2518306 2.560457 1.2574083 0 0 0 0 29.014549
3.1380565 2.6878126 1.2158266 0 0 0 0 29.019497
3.0222647 2.8101749 1.1722426 0 0 0 0 29.024445
3.1979854 2.6376371 1.2556591 0 0 0 0 29.03434
3.0832224 2.7669902 1.2170801 0 0 0 0 29.039288
13.998149 12.085685 5.6026969 0 0 0 0 29.054127
12.838098 12.06021 5.1872892 0 0 0 0 29.059074
14.187268 11.693184 5.7218857 0 0 0 0 29.06897
12.743577 11.521569 5.1869302 0 0 0 0 29.073914
12.644954 12.437829 5.2172551 0 0 0 0 29.078861
13.009192 13.909673 5.4442015 0 0 0 0 29.083809
13.029037 11.238788 5.3270302 0 0 0 0 29.088757
14.397532 13.62358 5.9678211 0 0 0 0 29.093704
12.93959 13.330951 5.4577374 0 0 0 0 29.098648
12.507088 14.010197 5.3745155 0 0 0 0 29.103596
12.688275 11.455893 5.2631345 0 0 0 0 29.108543
12.580899 12.459149 5.3135715 0 0 0 0 29.113491
12.931247 13.948986 5.5835648 0 0 0 0 29.118439
12.158562 14.279242 5.3716779 0 0 0 0 29.123386
14.385305 13.59381 6.0609837 0 0 0 0 29.12833
12.86345 13.337324 5.5420604 0 0 0 0 29.133278
12.570642 14.206088 5.5607405 0 0 0 0 29.138226
9.6762238 11.916802 4.4014502 0 0 0 0 29.143173
12.589714 12.444304 5.393683 0 0 0 0 29.148121
12.978527 14.089997 5.7107687 0 0 0 0 29.153069
12.914357 13.36037 5.6301222 0 0 0 0 29.167908
9.0051851 12.813721 4.5081177 0 0 0 0 29.202538
9.6803789 12.071017 4.5698252 0 0 0 0 29.212429
9.9013186 14.803891 5.1335192 0 0 0 0 29.222324
8.9650688 12.841949 4.5683217 0 0 0 0 29.237167
9.0189686 14.187527 4.8507586 0 0 0 0 29.242111
8.5756807 14.202803 4.792767 0 0 0 0 29.261902
8.9187651 12.843254 4.5735059 0 0 0 0 29.271793
8.9556713 14.179845 4.8829594 0 0 0 0 29.276741
8.1595125 14.251984 4.7507482 0 0 0 0 29.281689
8.5143681 14.19812 4.8139596 0 0 0 0 29.296532
7.7633896 14.313098 4.716692 0 0 0 0 29.301476
8.9493999 12.833386 4.5625134 0 0 0 0 29.306423
8.9153042 14.183158 4.8701224 0 0 0 0 29.311371
8.1041679 14.24429 4.7609162 0 0 0 0 29.316319
7.3742986 14.383181 4.6876221 0 0 0 0 29.321266
8.466939 14.187456 4.7871137 0 0 0 0 29.331158
7.7160592 14.316383 4.7208471 0 0 0 0 29.336105
6.980114 14.420274 4.6525183 0 0 0 0 29.341053
8.0728025 14.259579 4.7340574 0 0 0 0 29.350948
7.3390045 14.404432 4.688765 0 0 0 0 29.355892
6.6281767 14.535225 4.6454048 0 0 0 0 29.36084
8.4923573 14.177439 4.7420921 0 0 0 0 29.879333
7.6765199 14.329272 4.6827507 0 0 0 0 29.884281
6.9386358 14.441915 4.6432238 0 0 0 0 29.889229
6.3203406 14.767223 4.6776867 0 0 0 0 29.894176
8.1062422 14.267429 4.6829252 0 0 0 0 29.89912
7.3074737 14.434196 4.6445584 0 0 0 0 29.904068
6.5886559 14.559766 4.6270008 0 0 0 0 29.909016
7.7160983 14.345422 4.622746 0 0 0 0 29.918911
6.9072223 14.460196 4.5863361 0 0 0 0 29.923859
6.2829661 14.785482 4.6457968 0 0 0 0 29.928802
7.3148451 14.378435 4.554534 0 0 0 0 29.938698
6.5622425 14.583035 4.5651021 0 0 0 0 29.943645
5.4367032 15.580194 4.8251238 0 0 0 0 29.953537
6.9397216 14.458369 4.5033131 0 0 0 0 29.958485
6.5887389 14.591227 4.4690928 0 0 0 0 29.978275
5.7056551 15.470984 4.6615438 0 0 0 0 30.00301
4.2982492 15.707822 4.7822719 0 0 0 0 30.012901
5.7260509 15.468206 4.5305138 0 0 0 0 30.03764
4.2507238 15.716125 4.6863465 0 0 0 0 30.047531
3.8836343 15.785948 4.6760445 0 0 0 0 30.067318
3.5337317 15.928705 4.6887746 0 0 0 0 30.087109
3.829052 15.808301 4.5291357 0 0 0 0 30.101948
2.4839923 16.086777 4.8127127 0 0 0 0 30.111843
3.4458284 15.83016 4.4978004 0 0 0 0 30.121738
2.1097801 16.096581 4.8053346 0 0 0 0 30.13163
3.833451 15.842558 4.3551345 0 0 0 0 30.136578
3.0959747 15.998904 4.51054 0 0 0 0 30.141525
1.7139378 15.851485 4.7267456 0 0 0 0 30.151421
1.3496332 15.818258 4.7132964 0 0 0 0 30.171207
1.6801076 16.186682 4.6570544 0 0 0 0 30.186047
0.99058199 15.886985 4.7299271 0 0 0 0 30.190994
2.6909435 15.987072 4.2621479 0 0 0 0 30.195942
1.9725903 16.167307 4.4685168 0 0 0 0 30.20089
1.2822151 15.920584 4.5674372 0 0 0 0 30.205837
0.62497294 15.725775 4.6843467 0 0 0 0 30.210781
1.6087179 16.326042 4.4882379 0 0 0 0 30.220676
0.91391259 15.892354 4.5479856 0 0 0 0 30.225624
0.26571235 15.706508 4.6788826 0 0 0 0 30.230572
1.2213999 16.300858 4.4578195 0 0 0 0 30.240463
0.54318649 15.686164 4.4813666 0 0 0 0 30.245411
-0.087340474 15.768192 4.703475 0 0 0 0 30.250359
0.81183892 15.751837 4.2889485 0 0 0 0 30.260254
0.1810336 15.715888 4.481945 0 0 0 0 30.265202
-0.4435187 15.777889 4.7140183 0 0 0 0 30.270145
0.44341213 15.670606 4.2524352 0 0 0 0 30.280041
-0.17901859 15.784586 4.4985485 0 0 0 0 30.284988
-0.80653799 15.852571 4.7456245 0 0 0 0 30.289936
0.75586021 15.666237 4.0148854 0 0 0 0 30.294884
0.075396642 15.763325 4.2620735 0 0 0 0 30.299828
-0.53925294 15.775293 4.4960737 0 0 0 0 30.304775
-1.182124 16.10622 4.8344069 0 0 0 0 30.309723
0.38168591 15.697991 3.9974782 0 0 0 0 30.314671
-0.29076806 15.790044 4.2586412 0 0 0 0 30.319618
-0.9092384 15.870986 4.5237031 0 0 0 0 30.324562
-1.5551184 16.189901 4.8750215 0 0 0 0 30.32951
0.010581918 15.756721 3.9920828 0 0 0 0 30.334457
-0.66485608 15.849762 4.2642436 0 0 0 0 30.339405
-1.2977707 16.158655 4.6085267 0 0 0 0 30.344353
-1.9292506 16.216589 4.8985782 0 0 0 0 30.3493
-0.36387405 15.821301 3.9893947 0 0 0 0 30.102249
-1.0497286 16.121365 4.3328514 0 0 0 0 30.107197
-1.6770551 16.224346 4.635016 0 0 0 0 30.112144
-2.3054669 16.283325 4.9401369 0 0 0 0 30.117092
-0.74982309 15.940079 4.0011158 0 0 0 0 30.12204
-1.4357429 16.205128 4.3515306 0 0 0 0 30.126987
-2.0620844 16.294092 4.663672 0 0 0 0 30.131931
-2.5762413 15.65402 4.769928 0 0 0 0 30.136879
-1.1474842 16.17584 4.045959 0 0 0 0 30.141827
-1.8287886 16.2759 4.3682013 0 0 0 0 30.146774
-2.4344025 16.246836 4.6611886 0 0 0 0 30.151722
-2.7085121 14.421604 4.4169145 0 0 0 0 30.15667
-1.544498 16.265625 4.0576539 0 0 0 0 30.161613
-2.223835 16.344666 4.3878651 0 0 0 0 30.166561
-2.5652204 14.783466 4.2519574 0 0 0 0 30.171509
-2.8232939 13.373097 4.118053 0 0 0 0 30.176456
-1.9475908 16.32342 4.0613208 0 0 0 0 30.181404
-2.4318128 15.20635 4.0860739 0 0 0 0 30.186348
-2.6852489 13.622988 3.933002 0 0 0 0 30.191296
-2.9138298 12.413515 3.8442402 0 0 0 0 30.196243
-2.2356284 15.564161 3.8660231 0 0 0 0 30.201191
-2.5660961 13.928916 3.7470357 0 0 0 0 30.206139
-2.7898469 12.627431 3.6591821 0 0 0 0 30.211086
-2.9940147 11.584869 3.6115384 0 0 0 0 30.21603
-2.4019165 14.267776 3.5400243 0 0 0 0 30.220978
-2.6847987 12.877388 3.4711897 0 0 0 0 30.225925
-2.8821275 11.750814 3.4204586 0 0 0 0 30.230873
-3.0679207 10.862182 3.4089301 0 0 0 0 30.235821
-2.5298593 13.101279 3.2490902 0 0 0 0 30.240768
-2.7841704 11.951786 3.2304349 0 0 0 0 30.245712
-2.9660788 11.001144 3.2178442 0 0 0 0 30.25066
-3.1346219 10.215454 3.2293847 0 0 0 0 30.255608
-2.6453187 12.126708 3.0073197 0 0 0 0 30.260555
-2.8702834 11.12513 3.0157552 0 0 0 0 30.265503
-3.0378382 10.322429 3.0362799 0 0 0 0 30.270451
-3.1951289 9.6416922 3.0719006 0 0 0 0 30.275394
-2.7444818 11.267074 2.795634 0 0 0 0 30.280342
-2.9490912 10.417425 2.834178 0 0 0 0 30.28529
-3.1044016 9.717679 2.8767791 0 0 0 0 30.290237
-3.2494946 9.1199026 2.9304574 0 0 0 0 30.295185
-2.8353348 10.529389 2.6170514 0 0 0 0 30.300133
-3.0197177 9.7786865 2.6716549 0 0 0 0 30.305077
-3.1608212 9.1678953 2.7313159 0 0 0 0 30.310024
-3.3017266 8.6480923 2.8040597 0 0 0 0 30.314972
-2.9060435 9.8446503 2.4534891 0 0 0 0 30.31992
-3.083158 9.2119122 2.5291896 0 0 0 0 30.324867
-3.2280025 8.7111034 2.6149578 0 0 0 0 30.329811
-3.3637609 8.2542772 2.7007515 0 0 0 0 30.334759
-2.9775281 9.2508907 2.3110147 0 0 0 0 30.339706
-3.1503897 8.7271214 2.4108081 0 0 0 0 30.344654
-3.2801549 8.2622805 2.4995856 0 0 0 0 30.349602
-3.4008307 7.8414187 2.5913885 0 0 0 0 30.354549
-3.044817 8.7341003 2.1906064 0 0 0 0 30.359493
-3.2085462 8.2703056 2.29844 0 0 0 0 30.364441
-3.3202379 7.8384261 2.3912194 0 0 0 0 30.369389
-3.4447699 7.4785571 2.4980841 0 0 0 0 30.374336
-3.1119595 8.2762966 2.0842538 0 0 0 0 30.379284
-3.2506535 7.8294535 2.1910634 0 0 0 0 30.384232
-3.3691833 7.4685721 2.2989182 0 0 0 0 30.389175
-3.4756761 7.126668 2.4067709 0 0 0 0 30.394123
-3.1670396 7.8404613 1.9839044 0 0 0 0 30.399071
-3.3006067 7.4505992 2.1007576 0 0 0 0 30.404018
-3.4040956 7.1086879 2.2096062 0 0 0 0 30.408966
-3.5164726 6.8177838 2.3285139 0 0 0 0 30.413914
-3.2100608 7.4245958 1.8905563 0 0 0 0 30.418858
-3.3415146 7.0867214 2.0154531 0 0 0 0 30.423805
-3.4419129 6.7857976 2.1313336 0 0 0 0 30.428753
-3.5502222 6.5248799 2.2562621 0 0 0 0 30.433701
-3.2639263 7.0737343 1.8132855 0 0 0 0 30.438648
-3.3813417 6.7548337 1.9381772 0 0 0 0 30.443592
-3.483649 6.4949055 2.0620973 0 0 0 0 30.44854
-3.5869021 6.2589736 2.1920404 0 0 0 0 30.453487
-3.3067653 6.7308497 1.7380065 0 0 0 0 30.458435
-3.4290595 6.4669471 1.8739545 0 0 0 0 30.463383
-3.5133746 6.204989 1.9938453 0 0 0 0 30.46833
-3.6165719 5.9950528 2.127811 0 0 0 0 30.473274
-3.3525112 6.4249592 1.6737663 0 0 0 0 30.478222
-3.4607961 6.1680341 1.805699 0 0 0 0 30.48317
-3.5450342 5.9410686 1.9326208 0 0 0 0 30.488117
-3.646184 5.7531252 2.0706024 0 0 0 0 30.493065
-3.3862472 6.1210465 1.6085112 0 0 0 0 30.498013
-3.4904697 5.8931084 1.7454633 0 0 0 0 30.502956
-3.5776522 5.6931462 1.8754133 0 0 0 0 30.507904
-3.6757581 5.5251923 2.0174077 0 0 0 0 30.512852
-3.4229076 5.8471293 1.5522885 0 0 0 0 30.517799
-3.5171082 5.6311741 1.6882358 0 0 0 0 30.522747
-3.6062329 5.45821 1.8232121 0 0 0 0 30.527695
-3.6963284 5.2972431 1.9632004 0 0 0 0 30.532639
-3.4535384 5.584199 1.4980679 0 0 0 0 30.537586
-3.5546694 5.4012504 1.6400541 0 0 0 0 30.542534
-3.6337767 5.237268 1.7750231 0 0 0 0 30.547482
-3.7248328 5.0942993 1.9190282 0 0 0 0 30.552429
-3.4891129 5.3432703 1.450875 0 0 0 0 30.557373
-3.5792265 5.1703024 1.5918533 0 0 0 0 30.562321
-3.6652822 5.0313287 1.7308542 0 0 0 0 30.567268
-3.7483251 4.8953452 1.8748531 0 0 0 0 30.572216
-3.5177979 5.1137347 1.4071704 0 0 0 0 30.330128
-3.6098692 4.9627714 1.5511732 0 0 0 0 30.335072
-3.6859233 4.8267846 1.6881635 0 0 0 0 30.340019
-3.769938 4.7048044 1.8331792 0 0 0 0 30.344967
-3.553323 4.9058042 1.3680012 0 0 0 0 30.349915
-3.6393836 4.7608299 1.5109997 0 0 0 0 30.354862
-3.7134054 4.6398363 1.6500003 0 0 0 0 30.359806
-3.7993865 4.5328574 1.7980324 0 0 0 0 30.364754
-3.5808446 4.696857 1.3288196 0 0 0 0 30.369701
-3.6668639 4.5708799 1.4748349 0 0 0 0 30.374649
-3.7398684 4.4588842 1.6138418 0 0 0 0 30.379597
-3.8188379 4.357892 1.761868 0 0 0 0 30.384544
-3.6123159 4.5069113 1.2956624 0 0 0 0 30.389488
-3.6923306 4.3849244 1.4396715 0 0 0 0 30.394436
-3.760323 4.2799201 1.5776767 0 0 0 0 30.399384
-3.8402672 4.190927 1.7277148 0 0 0 0 30.404331
-3.6347899 4.3139486 1.2614894 0 0 0 0 30.409279
-3.7177694 4.2089648 1.4075183 0 0 0 0 30.414227
-3.7867362 4.1159606 1.5475354 0 0 0 0 30.41917
-3.869653 4.0399709 1.6995894 0 0 0 0 30.424118
-3.6592321 4.1329861 1.2303313 0 0 0 0 30.429066
-3.7371967 4.0359931 1.3763591 0 0 0 0 30.434013
-3.8101363 3.9559937 1.5183938 0 0 0 0 30.438961
-3.8850579 3.879992 1.6674351 0 0 0 0 30.443909
-3.6856418 3.9640229 1.2031879 0 0 0 0 30.448853
-3.7606001 3.8720255 1.3472152 0 0 0 0 30.4538
-3.8275321 3.7970161 1.4882448 0 0 0 0 30.458748
-3.8984447 3.726007 1.6372838 0 0 0 0 30.463696
-3.7150226 3.806062 1.1790597 0 0 0 0 30.468643
-3.7829804 3.7160532 1.3210777 0 0 0 0 30.473587
-3.8518946 3.6500466 1.463118 0 0 0 0 30.478535
-3.7394047 3.6460919 1.1539229 0 0 0 0 30.48843
-0.19138092 0.16756904 0.073446564 0 0 0 0 30.503269
-0.18939903 0.16957498 0.060452688 0 0 0 0 30.513165
-0.19239467 0.16657348 0.067458399 0 0 0 0 30.518112
-0.1774434 0.15656123 0.048434455 0 0 0 0 30.528008
-0.19940118 0.15957575 0.074481584 0 0 0 0 30.542847
-0.18344955 0.14956178 0.055456351 0 0 0 0 30.552742
-0.19442818 0.15357195 0.065480076 0 0 0 0 30.55769
-0.18446437 0.14856699 0.048468284 0 0 0 0 30.567581
-0.20043598 0.14657317 0.071501747 0 0 0 0 30.582424
-0.19446535 0.14357357 0.05649773 0 0 0 0 30.592316
-0.20644426 0.14758533 0.066522673 0 0 0 0 30.597263
-0.19148849 0.13857244 0.048500303 0 0 0 0 30.607159
-0.20945372 0.13958108 0.07253892 0 0 0 0 30.621998
-0.20348445 0.13558143 0.057534184 0 0 0 0 30.631893
-0.21546362 0.13959302 0.067558847 0 0 0 0 30.636841
-0.20350377 0.13258544 0.049542878 0 0 0 0 30.646732
-0.22146802 0.13359298 0.074581064 0 0 0 0 30.661575
-0.21450152 0.12859239 0.058574166 0 0 0 0 30.671471
-0.22747922 0.13360548 0.068600819 0 0 0 0 30.676414
-0.21651742 0.12659882 0.051586535 0 0 0 0 30.68631
-0.22549354 0.12259243 0.074607261 0 0 0 0 30.701149
-0.22452003 0.12060117 0.059611589 0 0 0 0 30.711044
-0.23649971 0.12461236 0.069635682 0 0 0 0 30.715992
-0.229534 0.1196125 0.052628987 0 0 0 0 30.725887
-0.24449944 0.11961367 0.078661248 0 0 0 0 30.740726
-0.25351605 0.12163734 0.065682888 0 0 0 0 30.750622
-0.26449937 0.12364664 0.075703621 0 0 0 0 30.755569
-0.26752374 0.1226617 0.06071423 0 0 0 0 30.765461
-4.1400676 1.8291746 1.2235148 0 0 0 0 30.775356
-0.28548086 0.12466426 0.090751715 0 0 0 0 30.780304
-4.066607 1.7452531 0.94832927 0 0 0 0 30.785252
-0.49229613 0.2069758 0.12711267 0 0 0 0 30.790195
-0.48932323 0.18994014 0.13913511 0 0 0 0 30.857063
-0.48631158 0.18692352 0.15213163 0 0 0 0 30.862007
-0.48038664 0.17894767 0.10712028 0 0 0 0 30.866955
-0.48636764 0.17794321 0.1231306 0 0 0 0 30.871902
-0.48338234 0.16292201 0.13412991 0 0 0 0 30.896637
-0.49135908 0.16392002 0.15114437 0 0 0 0 30.901585
-0.48343912 0.15294147 0.10512823 0 0 0 0 30.906532
-0.49141586 0.15393941 0.12214267 0 0 0 0 30.91148
-0.48642853 0.13991515 0.13314037 0 0 0 0 30.936214
-0.48441401 0.13890044 0.14613998 0 0 0 0 30.941162
-0.48948309 0.12993827 0.10514276 0 0 0 0 30.946106
-0.49246588 0.1289299 0.12014896 0 0 0 0 30.951054
-0.49647084 0.11791828 0.13316099 0 0 0 0 30.975788
-0.49944919 0.11990995 0.14816943 0 0 0 0 30.980736
-0.51251775 0.10895818 0.10918102 0 0 0 0 30.985683
-0.50950205 0.10794126 0.12317938 0 0 0 0 30.990631
-0.51650399 0.09793333 0.13719593 0 0 0 0 31.015366
-0.51948261 0.099925011 0.15220426 0 0 0 0 31.020313
-0.53355604 0.085974872 0.11221471 0 0 0 0 31.025261
-0.5425306 0.088974163 0.12923139 0 0 0 0 31.030209
-0.54753262 0.077962026 0.14424433 0 0 0 0 31.054943
-0.55150878 0.08095447 0.16025454 0 0 0 0 31.059891
-0.56558967 0.063005097 0.11826181 0 0 0 0 31.064835
-0.56456864 0.064990692 0.13326496 0 0 0 0 31.069782
-0.57056773 0.054979064 0.14927973 0 0 0 0 31.094517
-0.5745427 0.058971502 0.16529055 0 0 0 0 31.099464
-0.62561536 0.039070617 0.13134202 0 0 0 0 31.104412
-0.61459559 0.042042822 0.14433342 0 0 0 0 31.10936
-0.62159342 0.032031354 0.16134892 0 0 0 0 31.134094
-0.59957767 0.034989871 0.17132704 0 0 0 0 31.139042
-4.4156055 0.064034678 0.93999916 0 0 0 0 31.14399
-0.68062323 0.014112857 0.1604162 0 0 0 0 31.148933
-4.4337664 -0.041986007 0.94391912 0 0 0 0 31.163776
-0.72763467 -0.00083486678 0.17147298 0 0 0 0 31.168724
-0.68462104 0.0040962519 0.1774274 0 0 0 0 31.173672
-0.64260858 0.0090297777 0.18238319 0 0 0 0 31.178616
-4.4569273 -0.15100124 0.94984353 0 0 0 0 31.183563
-4.5017328 -0.11703542 1.0729153 0 0 0 0 31.188511
-0.71263874 -0.011876518 0.18446028 0 0 0 0 31.193459
-4.4780869 -0.26101977 0.95576531 0 0 0 0 31.20335
-4.5138931 -0.22406472 1.0758278 0 0 0 0 31.208298
-4.5626965 -0.18108815 1.19191 0 0 0 0 31.213245
-0.69663966 -0.019918356 0.19644901 0 0 0 0 31.218193
-4.5132413 -0.37302232 0.9667027 0 0 0 0 31.223141
-4.5510468 -0.33306292 1.0847694 0 0 0 0 31.228088
-4.5758557 -0.2871156 1.1938246 0 0 0 0 31.233032
-0.70866174 -0.035911627 0.19946268 0 0 0 0 31.23798
-4.5423989 -0.48703256 0.97563195 0 0 0 0 31.242928
-4.5672021 -0.44208941 1.0906866 0 0 0 0 31.247875
-4.5990081 -0.39413273 1.2007509 0 0 0 0 31.252823
-4.5695553 -0.60204613 0.9845587 0 0 0 0 31.262714
-4.6003561 -0.55509508 1.1006212 0 0 0 0 31.267662
-4.6251597 -0.50214607 1.2076806 0 0 0 0 31.27261
-4.6599507 -0.44518787 1.3217541 0 0 0 0 31.277557
-4.5977101 -0.7190603 0.9954856 0 0 0 0 31.282505
-4.6265106 -0.66911048 1.1095474 0 0 0 0 31.287453
-4.6473131 -0.61216474 1.2136046 0 0 0 0 31.292397
-4.6821017 -0.55120575 1.3266804 0 0 0 0 31.297344
-4.6318669 -0.84006721 1.0074171 0 0 0 0 31.302292
-4.6456647 -0.78313458 1.1164662 0 0 0 0 31.30724
-4.6774654 -0.7251749 1.2225362 0 0 0 0 31.312187
-4.707253 -0.66022068 1.3326086 0 0 0 0 31.317131
-4.6600561 -0.96364254 1.0185516 0 0 0 0 31.986919
-4.6819086 -0.90469098 1.128595 0 0 0 0 31.991863
-4.7137623 -0.84272653 1.2336478 0 0 0 0 31.996811
-4.7236085 -0.77078313 1.3366882 0 0 0 0 32.001759
-4.6961737 -1.0906607 1.0334889 0 0 0 0 32.006706
-4.7080231 -1.0247169 1.1395278 0 0 0 0 32.011654
-4.723877 -0.95676517 1.2385706 0 0 0 0 32.016602
-4.7557197 -0.88380218 1.3466284 0 0 0 0 32.021545
-4.7182894 -1.2166916 1.0454162 0 0 0 0 32.026493
-4.7351375 -1.1477426 1.1514602 0 0 0 0 32.031441
-4.7619891 -1.077781 1.2525123 0 0 0 0 32.036388
-4.7798333 -0.99882805 1.3535619 0 0 0 0 32.041336
-4.7434034 -1.3447212 1.0593454 0 0 0 0 32.046284
-4.7722511 -1.2757611 1.1673983 0 0 0 0 32.051228
-4.7881017 -1.1988075 1.263445 0 0 0 0 32.056175
-4.7999434 -1.1138588 1.3614928 0 0 0 0 32.061123
-4.7815208 -1.4817405 1.0772805 0 0 0 0 32.066071
-4.8083658 -1.4067814 1.1833346 0 0 0 0 32.071018
-4.8162146 -1.3238332 1.275378 0 0 0 0 32.075962
-4.8320546 -1.2348799 1.3724302 0 0 0 0 32.08091
-4.8166375 -1.6207634 1.0952128 0 0 0 0 32.085857
-4.8274798 -1.5368165 1.1952589 0 0 0 0 32.090805
-4.8533273 -1.4528524 1.290316 0 0 0 0 32.095753
-4.8571653 -1.3569076 1.3823624 0 0 0 0 32.1007
-4.8607559 -1.7667799 1.1161488 0 0 0 0 32.105644
-4.870595 -1.6768332 1.2151967 0 0 0 0 32.110592
-4.8894405 -1.5868735 1.306251 0 0 0 0 32.11554
-4.883275 -1.4809356 1.3932947 0 0 0 0 32.120487
-4.9028749 -1.9167994 1.1380816 0 0 0 0 32.125435
-4.9077091 -1.8178556 1.23413 0 0 0 0 32.130383
-4.9165525 -1.7199028 1.3201807 0 0 0 0 32.135326
-4.9313889 -1.6169468 1.4112377 0 0 0 0 32.140274
-4.9429936 -2.0698214 1.160012 0 0 0 0 32.145222
-4.9388251 -1.9628838 1.2520576 0 0 0 0 32.150169
-4.9496651 -1.8589284 1.3371121 0 0 0 0 32.155117
-4.9604988 -1.7479739 1.4241699 0 0 0 0 32.160065
-4.9849429 -2.1169019 1.2759918 0 0 0 0 32.169956
-4.9987831 -2.0099423 1.3590496 0 0 0 0 32.174904
-4.9906087 -1.8840016 1.4391007 0 0 0 0 32.179852
-0.31298745 -0.14860794 0.073645465 0 0 0 0 32.184799
-0.31098464 -0.14961854 0.079662599 0 0 0 0 32.209534
-0.46000665 -0.20950852 0.12574039 0 0 0 0 32.214481
-0.49599761 -0.21248612 0.1427673 0 0 0 0 32.219425
-0.262988 -0.14065704 0.063645355 0 0 0 0 32.224373
-0.2529836 -0.13667203 0.065660104 0 0 0 0 32.249107
-0.27998242 -0.14365469 0.076678872 0 0 0 0 32.254055
-0.32498243 -0.15662463 0.093706734 0 0 0 0 32.259003
-0.24899705 -0.14867668 0.061663508 0 0 0 0 32.26395
-0.24699475 -0.14868537 0.065681994 0 0 0 0 32.288685
-0.25998938 -0.14767855 0.072694935 0 0 0 0 32.293633
-0.26198176 -0.14167978 0.07670299 0 0 0 0 32.29858
-0.23000292 -0.15269953 0.05868097 0 0 0 0 32.303524
-0.22699894 -0.15070873 0.062700048 0 0 0 0 32.328262
-0.24999996 -0.15869468 0.07171496 0 0 0 0 32.333206
-0.25299147 -0.15069459 0.074724518 0 0 0 0 32.338154
-0.21700974 -0.15971759 0.057701655 0 0 0 0 32.343102
-0.21800822 -0.16072328 0.061722074 0 0 0 0 32.367836
-0.23300618 -0.16271476 0.06773445 0 0 0 0 32.372784
-0.23099691 -0.15271825 0.069741763 0 0 0 0 32.377731
-0.22502548 -0.18272088 0.062728576 0 0 0 0 32.382679
-0.21301743 -0.17273517 0.062746145 0 0 0 0 32.407413
-0.22601464 -0.17372848 0.068757519 0 0 0 0 32.412361
-0.22300521 -0.16173181 0.068765104 0 0 0 0 32.417305
-0.2230375 -0.19973096 0.064752325 0 0 0 0 32.422253
-0.21503042 -0.19174232 0.065771602 0 0 0 0 32.446987
-0.22502652 -0.18973728 0.069782332 0 0 0 0 32.451935
-0.21901557 -0.1747424 0.068789482 0 0 0 0 32.456882
-0.78642863 -0.77427757 0.24569507 0 0 0 0 32.221294
-0.771442 -0.79530025 0.24668807 0 0 0 0 32.241081
-0.78641093 -0.76829356 0.25571463 0 0 0 0 32.246029
-0.22504124 -0.20770033 0.072608575 0 0 0 0 32.250977
-0.21802765 -0.19070643 0.070616089 0 0 0 0 32.25592
-0.75745618 -0.81932265 0.24968077 0 0 0 0 32.260868
-0.77342588 -0.79131424 0.25670826 0 0 0 0 32.265816
-0.73946691 -0.8383472 0.25067371 0 0 0 0 32.280659
-0.75943971 -0.81433594 0.25870171 0 0 0 0 32.285603
-0.78241611 -0.79432219 0.26672971 0 0 0 0 32.29055
-0.79038119 -0.75631857 0.26875618 0 0 0 0 32.295498
-0.73148549 -0.86936432 0.25466803 0 0 0 0 32.300446
-0.74545306 -0.83735734 0.26069567 0 0 0 0 32.305393
-0.76742935 -0.81534368 0.26672366 0 0 0 0 32.310337
-0.7833994 -0.78433424 0.27075186 0 0 0 0 32.315285
-2.6650894 -3.3230774 0.9627794 0 0 0 0 32.320232
-0.73046666 -0.8603788 0.26168942 0 0 0 0 32.32518
-0.74743938 -0.83236855 0.26571676 0 0 0 0 32.330128
-0.76941329 -0.80635464 0.27074623 0 0 0 0 32.335075
-2.5290654 -3.3092072 0.94370615 0 0 0 0 32.340019
-2.6950393 -3.3261006 0.99780464 0 0 0 0 32.344967
-0.73345196 -0.85438901 0.26671189 0 0 0 0 32.349915
-0.74942309 -0.82237887 0.26874009 0 0 0 0 32.354862
-2.4040451 -3.3023264 0.92763907 0 0 0 0 32.35981
-2.5660224 -3.3202226 0.97773337 0 0 0 0 32.364758
-0.70745599 -0.86341709 0.26370597 0 0 0 0 32.369701
-0.73743629 -0.84539747 0.2697362 0 0 0 0 32.374649
-2.3090477 -3.3324242 0.92257601 0 0 0 0 32.379597
-2.4289954 -3.2983468 0.95366693 0 0 0 0 32.384544
-2.6039877 -3.3312325 0.99976051 0 0 0 0 32.389492
-0.72244889 -0.86741775 0.26973137 0 0 0 0 32.39444
-2.2030373 -3.3435266 0.91351694 0 0 0 0 32.399384
-2.3380017 -3.3324399 0.94760549 0 0 0 0 32.404331
-2.4599562 -3.3003588 0.97069502 0 0 0 0 32.409279
-2.6379406 -3.3192422 1.0117946 0 0 0 0 32.414227
-2.1390657 -3.4176016 0.92145693 0 0 0 0 32.419174
-2.2309918 -3.3415401 0.93454778 0 0 0 0 32.424118
-2.3649597 -3.3274517 0.95963538 0 0 0 0 32.429066
-2.506922 -3.3053575 0.98473042 0 0 0 0 32.434013
-2.085103 -3.5096698 0.93539673 0 0 0 0 32.438961
-2.1610131 -3.4036169 0.93749046 0 0 0 0 32.443909
-2.2609544 -3.3415482 0.94557828 0 0 0 0 32.448856
-2.3959141 -3.3114581 0.96467161 0 0 0 0 32.4538
-2.0141225 -3.5747471 0.94234043 0 0 0 0 32.458748
-2.1020451 -3.4856863 0.94643271 0 0 0 0 32.463696
-2.1889749 -3.400624 0.94452196 0 0 0 0 32.468643
-2.3049207 -3.3435447 0.95261502 0 0 0 0 32.473591
-1.9691726 -3.6938093 0.96427751 0 0 0 0 32.478539
-2.0340667 -3.5527594 0.95137817 0 0 0 0 32.483482
-2.1189957 -3.4626977 0.94546753 0 0 0 0 32.48843
-2.2079201 -3.3646328 0.93756193 0 0 0 0 32.493378
-1.9821092 -3.6568229 0.96531862 0 0 0 0 32.503273
-2.0590253 -3.5427647 0.9514128 0 0 0 0 32.508221
-2.1379402 -3.4247046 0.93550909 0 0 0 0 32.513165
-1.9980568 -3.6278315 0.95835721 0 0 0 0 32.528008
-2.0789716 -3.5057688 0.93845528 0 0 0 0 32.532955
-1.9300816 -3.7039006 0.9623037 0 0 0 0 32.547794
-2.0129969 -3.578836 0.93940294 0 0 0 0 32.552742
-1.9590347 -3.6768963 0.94734854 0 0 0 0 32.572529
-1.158276 -4.3595581 1.0627878 0 0 0 0 32.676418
-1.1996793 -4.372416 1.0465229 0 0 0 0 32.455654
-1.0956565 -4.3845024 1.0414839 0 0 0 0 32.475445
-1.1186126 -4.3544788 1.0015419 0 0 0 0 32.500179
-1.1625996 -4.3684421 0.96359199 0 0 0 0 32.524914
-1.05557 -4.3685246 0.95256048 0 0 0 0 32.544701
0.59666932 -4.7896976 1.1710064 0 0 0 0 32.767319
0.68876266 -4.6807342 1.1490523 0 0 0 0 32.787106
0.67474782 -4.742691 1.0860916 0 0 0 0 32.81184
0.77182263 -4.6687312 1.0721248 0 0 0 0 32.831627
0.66774154 -4.7876482 1.0121347 0 0 0 0 32.836575
0.76183289 -4.6776824 0.98818231 0 0 0 0 32.856361
0.75382721 -4.7196355 0.90322763 0 0 0 0 32.8811
0.85988361 -4.6816783 0.89324826 0 0 0 0 32.900887
1.2234622 -4.7470212 0.90160835 0 0 0 0 32.708424
1.3025784 -4.6050453 0.87367702 0 0 0 0 32.72821
1.6075517 -4.8052788 1.0285079 0 0 0 0 32.74305
1.4286028 -4.6331086 0.87966269 0 0 0 0 32.747997
1.8755962 -4.8784776 1.1674074 0 0 0 0 32.757893
1.6846589 -4.6772971 1.0055766 0 0 0 0 32.76284
1.5586287 -4.6591721 0.88564998 0 0 0 0 32.767784
2.0046353 -4.8855357 1.1784083 0 0 0 0 32.777679
1.8266748 -4.7253666 1.0205548 0 0 0 0 32.782627
1.6906551 -4.6852336 0.89163923 0 0 0 0 32.787575
2.0877295 -4.7795539 1.1614709 0 0 0 0 32.797466
1.9607065 -4.7444263 1.0305496 0 0 0 0 32.802414
1.8256848 -4.7062941 0.89763194 0 0 0 0 32.807362
2.4627016 -5.0228267 1.3722783 0 0 0 0 32.812309
2.2307577 -4.8076167 1.1774629 0 0 0 0 32.817257
2.1027339 -4.7724881 1.0425409 0 0 0 0 32.822205
1.9677091 -4.7403574 0.90762001 0 0 0 0 32.827148
2.569772 -4.9658575 1.3713201 0 0 0 0 32.832096
2.3837817 -4.846683 1.1984501 0 0 0 0 32.837044
2.2487609 -4.8025503 1.0555331 0 0 0 0 32.841991
2.1137369 -4.7674189 0.9156121 0 0 0 0 32.846939
2.6718471 -4.8968816 1.3683696 0 0 0 0 32.851887
2.5388072 -4.8837481 1.2194406 0 0 0 0 32.856831
2.403785 -4.8406148 1.0715221 0 0 0 0 32.861778
2.261766 -4.7944794 0.92560649 0 0 0 0 32.866726
2.8378718 -4.9389496 1.3973585 0 0 0 0 32.871674
2.6928391 -4.9078078 1.2374393 0 0 0 0 32.876621
2.5588162 -4.8666749 1.0865186 0 0 0 0 32.881565
2.4207914 -4.8305426 0.93759692 0 0 0 0 32.886513
3.0009024 -4.9700122 1.4243559 0 0 0 0 32.89146
2.8518717 -4.9328675 1.257439 0 0 0 0 32.896408
2.7198451 -4.8967361 1.1025147 0 0 0 0 32.901356
2.5778232 -4.8536015 0.94759583 0 0 0 0 32.906303
3.1719322 -5.0030751 1.4523531 0 0 0 0 32.911247
3.0258987 -4.970932 1.2814323 0 0 0 0 32.916195
2.8898735 -4.930799 1.12051 0 0 0 0 32.921143
2.7408547 -4.8786592 0.95859534 0 0 0 0 32.92609
3.3589575 -5.0491447 1.4863443 0 0 0 0 32.931038
3.2059269 -5.007997 1.3064277 0 0 0 0 32.935986
3.0579085 -4.9508562 1.1365141 0 0 0 0 32.940929
2.9158835 -4.9117212 0.97259152 0 0 0 0 32.945877
3.4460444 -4.9451456 1.4774216 0 0 0 0 32.950825
3.3849595 -5.0370569 1.3314301 0 0 0 0 32.955772
3.2439358 -4.9909205 1.1585091 0 0 0 0 32.96072
3.0969121 -4.9467831 0.98758882 0 0 0 0 32.965668
3.5851011 -4.9121771 1.4894602 0 0 0 0 32.970612
3.5819867 -5.0801234 1.3604256 0 0 0 0 32.975559
3.4349651 -5.0269837 1.1805079 0 0 0 0 32.980507
3.2899394 -4.9868469 1.0045846 0 0 0 0 32.985455
3.3413532 -4.3739715 1.3477813 0 0 0 0 32.990402
3.7490351 -5.071167 1.3774514 0 0 0 0 32.995346
3.6329954 -5.0630455 1.2035086 0 0 0 0 33.000294
3.4899683 -5.0259109 1.0235826 0 0 0 0 33.005241
3.4474142 -4.313983 1.3508372 0 0 0 0 33.010189
3.3683596 -4.3498883 1.1988672 0 0 0 0 33.015137
3.842026 -5.1001096 1.2285098 0 0 0 0 33.020084
3.6310346 -4.9729366 1.0236307 0 0 0 0 33.025028
3.3015039 -4.0697999 1.1390423 0 0 0 0 33.034924
4.063055 -5.1431746 1.2565101 0 0 0 0 33.039871
3.4496195 -3.9538815 1.2810863 0 0 0 0 33.049767
4.3761392 -5.1553445 1.4674782 0 0 0 0 33.05471
4.3030815 -5.1942449 1.2875074 0 0 0 0 33.059658
3.178818 -3.4866824 1.1503692 0 0 0 0 33.069553
4.4132519 -4.9703016 1.4396062 0 0 0 0 33.074501
3.2116785 -3.6996131 0.93132865 0 0 0 0 33.079449
4.4404464 -4.6633134 1.5697516 0 0 0 0 33.08934
3.2268209 -3.4726195 1.0234405 0 0 0 0 33.094288
4.4992633 -4.9482241 1.2676932 0 0 0 0 33.099236
3.5168612 -3.5377696 1.2143959 0 0 0 0 33.109127
4.5154505 -4.6472292 1.3958389 0 0 0 0 33.114075
3.6219079 -3.4877744 1.2224518 0 0 0 0 33.128918
3.5898616 -3.5337107 1.0824635 0 0 0 0 33.133865
3.0519953 -3.0584059 0.8127448 0 0 0 0 33.138809
3.5648916 -3.2840381 1.1792862 0 0 0 0 33.949207
3.697917 -3.4760146 1.0903039 0 0 0 0 33.954155
6.3708539 -5.6199808 2.0635836 0 0 0 0 33.968998
3.6319408 -3.2629707 1.0463831 0 0 0 0 33.973946
3.4259329 -2.8929539 1.0874333 0 0 0 0 33.988785
2.2439885 -1.954947 0.55533987 0 0 0 0 33.99868
1.6600022 -1.4719546 0.35228986 0 0 0 0 34.003624
4.9809318 -4.0238662 1.5506818 0 0 0 0 34.008572
2.1359985 -1.7769259 0.51638347 0 0 0 0 34.018467
1.587009 -1.3399401 0.32832795 0 0 0 0 34.023415
2.0050058 -1.590909 0.47341961 0 0 0 0 34.038254
1.5390145 -1.2379259 0.31036597 0 0 0 0 34.043201
1.906011 -1.4418933 0.44045526 0 0 0 0 34.058044
1.4910185 -1.1419128 0.29340172 0 0 0 0 34.062988
1.8220146 -1.3128788 0.41248938 0 0 0 0 34.077831
1.4420209 -1.0499011 0.27743515 0 0 0 0 34.082779
1.7650172 -1.2108641 0.39152503 0 0 0 0 34.097618
1.3970222 -0.96689034 0.26346707 0 0 0 0 34.102566
2.2390106 -1.4528079 0.56065089 0 0 0 0 34.112461
1.6980178 -1.107852 0.37055632 0 0 0 0 34.117409
1.3690233 -0.8998788 0.25250044 0 0 0 0 34.122353
2.1120107 -1.3037968 0.5196752 0 0 0 0 34.132248
1.6460183 -1.0198395 0.35158819 0 0 0 0 34.137196
1.353024 -0.84386659 0.24453503 0 0 0 0 34.142143
2.0290101 -1.1907835 0.49170482 0 0 0 0 34.152035
1.5980176 -0.9398281 0.33561882 0 0 0 0 34.156982
1.3080224 -0.77285862 0.23256208 0 0 0 0 34.16193
1.9720091 -1.0987687 0.46973765 0 0 0 0 34.171825
1.5470159 -0.86281818 0.31964684 0 0 0 0 34.176769
1.2870212 -0.71984833 0.22459319 0 0 0 0 34.181717
1.9010063 -1.0037575 0.4467648 0 0 0 0 34.191612
1.5020132 -0.79180866 0.30567458 0 0 0 0 34.19656
1.259019 -0.66483957 0.21562156 0 0 0 0 34.201508
1.8650038 -0.9327426 0.43179858 0 0 0 0 34.211399
1.4720107 -0.73379785 0.2947045 0 0 0 0 34.216347
1.2450168 -0.61982924 0.20965251 0 0 0 0 34.221294
1.7939998 -0.84673434 0.40882137 0 0 0 0 34.23119
1.4510074 -0.68178618 0.2867358 0 0 0 0 34.236134
1.2320137 -0.57681912 0.20468301 0 0 0 0 34.241081
1.7349951 -0.77272582 0.39084521 0 0 0 0 34.250977
1.4210033 -0.62777674 0.27676353 0 0 0 0 34.255924
1.2010095 -0.5278126 0.19670752 0 0 0 0 34.260868
2.2039747 -0.92862642 0.56101495 0 0 0 0 34.265816
1.6969904 -0.71071464 0.37687346 0 0 0 0 34.270763
1.3949989 -0.57776719 0.26779133 0 0 0 0 34.275711
1.205006 -0.49479997 0.1947417 0 0 0 0 34.280659
2.1159685 -0.83861965 0.53203273 0 0 0 0 34.285606
1.6419846 -0.64470774 0.35989505 0 0 0 0 34.29055
1.3749939 -0.5327571 0.26082003 0 0 0 0 34.295498
2.0449619 -0.75961155 0.50805336 0 0 0 0 34.305393
1.6209785 -0.59469509 0.35192594 0 0 0 0 34.310341
1.3469881 -0.48574921 0.25284529 0 0 0 0 34.315289
1.1579956 -0.41178665 0.18279111 0 0 0 0 34.320232
2.0159547 -0.7005958 0.49508581 0 0 0 0 34.32518
1.5789722 -0.53968751 0.33794886 0 0 0 0 34.330128
1.3309822 -0.44573927 0.24687362 0 0 0 0 34.335075
1.9569471 -0.63258785 0.47510684 0 0 0 0 34.344971
1.5559649 -0.49267653 0.32997707 0 0 0 0 34.349915
1.2919759 -0.39973521 0.23689318 0 0 0 0 34.354862
1.1439843 -0.34576744 0.17684886 0 0 0 0 34.35981
1.8999387 -0.56958079 0.45712674 0 0 0 0 34.364758
1.5319576 -0.44766635 0.32100403 0 0 0 0 34.369705
1.2999692 -0.36972025 0.2359286 0 0 0 0 34.374649
1.1339781 -0.31375891 0.17287599 0 0 0 0 34.379597
1.8359303 -0.50757688 0.43714234 0 0 0 0 34.384544
1.5169495 -0.40665442 0.3150335 0 0 0 0 34.389492
1.2869619 -0.33371064 0.23095608 0 0 0 0 34.39444
1.114971 -0.27975297 0.16889924 0 0 0 0 34.399387
1.796921 -0.45456782 0.4241657 0 0 0 0 34.404331
1.4919412 -0.36464557 0.30705842 0 0 0 0 34.409279
1.2599542 -0.29570523 0.22397758 0 0 0 0 34.414227
1.1059639 -0.24974471 0.16592571 0 0 0 0 34.419174
1.7529267 -0.40386078 0.40859419 0 0 0 0 34.103958
1.4719434 -0.32487994 0.29954255 0 0 0 0 34.108906
1.2569549 -0.26489544 0.22150378 0 0 0 0 34.113853
1.0989636 -0.22090694 0.1634765 0 0 0 0 34.118801
1.7359223 -0.36084381 0.40162957 0 0 0 0 34.123745
1.4539396 -0.28686669 0.29357418 0 0 0 0 34.128693
1.2399514 -0.23088481 0.21653296 0 0 0 0 34.13364
1.0949601 -0.19289677 0.16150673 0 0 0 0 34.138588
1.7069179 -0.31682867 0.39166126 0 0 0 0 34.143536
1.435935 -0.24985385 0.28760505 0 0 0 0 34.148483
1.227947 -0.19887397 0.21356267 0 0 0 0 34.153427
1.0879561 -0.16488712 0.15953587 0 0 0 0 34.158375
1.6809127 -0.27381378 0.38169277 0 0 0 0 34.163322
1.4159302 -0.21384174 0.28163466 0 0 0 0 34.16827
1.2199422 -0.16886283 0.21059284 0 0 0 0 34.173218
1.0849513 -0.13787706 0.15856567 0 0 0 0 34.178165
1.6499071 -0.2328003 0.37172186 0 0 0 0 34.183109
1.3959247 -0.17883009 0.27566355 0 0 0 0 34.188057
1.2099369 -0.13885221 0.20762204 0 0 0 0 34.193005
1.0789461 -0.11086754 0.15659432 0 0 0 0 34.197952
1.6249007 -0.1937867 0.36375162 0 0 0 0 34.2029
1.3909183 -0.14681658 0.27269587 0 0 0 0 34.207848
1.200931 -0.10984165 0.20465101 0 0 0 0 34.212791
1.0649409 -0.083859466 0.1536203 0 0 0 0 34.217739
1.6048936 -0.15577285 0.35678199 0 0 0 0 34.222687
1.3789113 -0.1138044 0.26872578 0 0 0 0 34.227634
1.1929245 -0.08183118 0.20267983 0 0 0 0 34.232582
1.0619347 -0.057849806 0.15264903 0 0 0 0 34.23753
1.5868859 -0.11975912 0.34981212 0 0 0 0 34.242474
1.3559045 -0.081794478 0.26275176 0 0 0 0 34.247421
1.1899177 -0.053819947 0.20070976 0 0 0 0 34.252369
1.0579278 -0.031840418 0.15167718 0 0 0 0 34.257317
1.5688775 -0.083745874 0.34384161 0 0 0 0 34.262264
1.3268976 -0.049786232 0.25577515 0 0 0 0 34.267208
1.1749103 -0.025811154 0.19773559 0 0 0 0 34.272156
1.0609205 -0.0068297354 0.1517072 0 0 0 0 34.277103
1.5568682 -0.049731907 0.33987227 0 0 0 0 34.282051
1.3478874 -0.020768601 0.2588138 0 0 0 0 34.286999
1.1689025 0.0011991567 0.19576381 0 0 0 0 34.291946
1.0539129 0.018178908 0.15073381 0 0 0 0 34.29689
1.5418589 -0.015718808 0.33390146 0 0 0 0 34.301838
1.3368787 0.0092427069 0.25484198 0 0 0 0 34.306786
1.1588942 0.028208438 0.19379035 0 0 0 0 34.311733
1.0559045 0.043189384 0.15076309 0 0 0 0 34.316681
1.5228491 0.016292995 0.32892865 0 0 0 0 34.321629
1.3248694 0.038253497 0.25186926 0 0 0 0 34.326572
1.1628847 0.054220684 0.19382125 0 0 0 0 34.33152
1.0578951 0.06819988 0.1517922 0 0 0 0 34.336468
1.5048388 0.049304605 0.32295552 0 0 0 0 34.341415
1.3128594 0.067264013 0.24889612 0 0 0 0 34.346363
1.1548748 0.081230126 0.19284777 0 0 0 0 34.351311
1.0438867 0.09220656 0.1498154 0 0 0 0 34.356255
1.4928275 0.081317231 0.31898391 0 0 0 0 34.361202
1.3108479 0.09727671 0.24792612 0 0 0 0 34.36615
1.156864 0.10824191 0.19287755 0 0 0 0 34.371098
1.0408764 0.11821571 0.14984217 0 0 0 0 34.376045
1.4888147 0.11333161 0.31701478 0 0 0 0 34.380989
1.3028365 0.1262878 0.24595357 0 0 0 0 34.385937
1.1488539 0.13425112 0.19090338 0 0 0 0 34.390884
1.0488652 0.1442277 0.15087283 0 0 0 0 34.395832
1.4718029 0.14434242 0.31204033 0 0 0 0 34.40078
1.2868255 0.15429656 0.24197756 0 0 0 0 34.405727
1.155841 0.16226421 0.1929346 0 0 0 0 34.410671
1.0408543 0.16823547 0.15089719 0 0 0 0 34.415619
1.4667894 0.17635618 0.30906996 0 0 0 0 34.420567
1.2868122 0.18330944 0.24200726 0 0 0 0 34.425514
1.1458296 0.18827266 0.19095902 0 0 0 0 34.430462
1.0418425 0.19424565 0.15092479 0 0 0 0 34.43541
1.4567755 0.20736834 0.30609724 0 0 0 0 34.440353
1.2947972 0.21432465 0.24303991 0 0 0 0 34.445301
1.1528156 0.21728589 0.19198988 0 0 0 0 34.450249
1.0508286 0.22225823 0.1529554 0 0 0 0 34.455196
1.4447612 0.23837969 0.30312321 0 0 0 0 34.460144
1.2847837 0.24233457 0.24106507 0 0 0 0 34.465092
1.140803 0.24229348 0.19101278 0 0 0 0 34.470036
1.0538149 0.24926916 0.15398346 0 0 0 0 34.474983
1.4407457 0.26939321 0.30115208 0 0 0 0 34.479931
1.2657713 0.26834145 0.23708603 0 0 0 0 34.484879
1.1457878 0.27130619 0.1920424 0 0 0 0 34.489826
1.0428019 0.2732757 0.15400544 0 0 0 0 34.49477
1.4267304 0.29940343 0.29817626 0 0 0 0 34.499718
1.2577564 0.29635146 0.2361111 0 0 0 0 34.504665
1.145772 0.30031738 0.1930697 0 0 0 0 34.509613
1.0467867 0.30128694 0.15503345 0 0 0 0 34.514561
1.4187142 0.33041534 0.29520258 0 0 0 0 34.519508
1.2757367 0.33137009 0.2391471 0 0 0 0 34.524452
1.1557544 0.33133194 0.19510113 0 0 0 0 34.5294
1.0427715 0.32729557 0.15605778 0 0 0 0 34.534348
1.4146961 0.36242843 0.29423022 0 0 0 0 34.539295
1.273719 0.36238211 0.23917423 0 0 0 0 34.544243
1.1457393 0.35733974 0.19412355 0 0 0 0 34.549191
1.050754 0.35730833 0.15808716 0 0 0 0 34.554134
1.4036791 0.39243892 0.29125434 0 0 0 0 34.559082
1.2747002 0.39339525 0.24020241 0 0 0 0 34.56403
1.1557193 0.39035457 0.1971546 0 0 0 0 34.568977
1.0547357 0.38731986 0.16011457 0 0 0 0 34.573925
1.3967906 0.42323115 0.2898249 0 0 0 0 34.27396
1.2528071 0.4172073 0.23578598 0 0 0 0 34.278904
1.1488178 0.41719031 0.19675946 0 0 0 0 34.283852
1.0638264 0.41917649 0.16273871 0 0 0 0 34.288799
1.3997748 0.45824605 0.28985649 0 0 0 0 34.293747
1.273789 0.45722413 0.24082226 0 0 0 0 34.298695
1.1608016 0.45220405 0.19979163 0 0 0 0 34.303642
1.0698113 0.45118791 0.16576792 0 0 0 0 34.308586
1.3937593 0.49025902 0.28888473 0 0 0 0 34.313534
1.273773 0.49023685 0.2418513 0 0 0 0 34.318481
1.1607862 0.48421538 0.20081952 0 0 0 0 34.323429
1.0707959 0.48219836 0.16779521 0 0 0 0 34.328377
1.3827438 0.52027071 0.28691083 0 0 0 0 34.333324
1.2707567 0.52224892 0.24187897 0 0 0 0 34.338268
1.1677685 0.51922834 0.20384966 0 0 0 0 34.343216
1.0897766 0.5222131 0.17282884 0 0 0 0 34.348164
1.3807261 0.55428433 0.28693968 0 0 0 0 34.353111
1.2677394 0.55426085 0.24290632 0 0 0 0 34.358059
1.1757495 0.55624175 0.20688003 0 0 0 0 34.363007
1.3707089 0.5862959 0.28496528 0 0 0 0 34.372898
1.2627218 0.58627224 0.24293259 0 0 0 0 34.377846
1.1837294 0.59325534 0.21091023 0 0 0 0 34.382793
1.0967399 0.59123588 0.17788441 0 0 0 0 34.387741
1.3676897 0.62030905 0.28499305 0 0 0 0 34.392689
1.2657014 0.62328565 0.24496156 0 0 0 0 34.397633
1.1797106 0.62626588 0.21193568 0 0 0 0 34.40258
1.3696684 0.65832347 0.28602239 0 0 0 0 34.412476
1.2696799 0.66129941 0.24699067 0 0 0 0 34.417423
1.1866888 0.66527951 0.21496508 0 0 0 0 34.422367
1.1176952 0.67226297 0.18694459 0 0 0 0 34.427315
1.3676468 0.69433683 0.28704989 0 0 0 0 34.432262
1.2706577 0.69931245 0.24901831 0 0 0 0 34.43721
1.1936649 0.70629317 0.21899426 0 0 0 0 34.442158
1.362625 0.73134929 0.2860758 0 0 0 0 34.452049
1.2796326 0.74232787 0.25204888 0 0 0 0 34.456997
1.1956412 0.74530566 0.22202119 0 0 0 0 34.461945
1.3646002 0.77136379 0.28810418 0 0 0 0 34.47184
1.2736096 0.77833885 0.2530731 0 0 0 0 34.476788
1.2086132 0.79232156 0.22705236 0 0 0 0 34.481731
1.3655742 0.81237799 0.29013181 0 0 0 0 34.491627
1.2895792 0.82835686 0.25910604 0 0 0 0 34.496574
1.2115856 0.83633459 0.23107913 0 0 0 0 34.501522
1.1525877 0.85231805 0.2070599 0 0 0 0 34.50647
1.3725454 0.85839427 0.29316163 0 0 0 0 34.511414
1.2985489 0.8773728 0.26313585 0 0 0 0 34.516361
1.2325513 0.8933537 0.23811324 0 0 0 0 34.521309
1.3745161 0.903409 0.29518899 0 0 0 0 34.531204
1.3085166 0.92738944 0.26816583 0 0 0 0 34.536148
1.2445174 0.94637024 0.24414329 0 0 0 0 34.541096
1.3834836 0.95342624 0.29821905 0 0 0 0 34.550991
1.3174825 0.97940594 0.27319509 0 0 0 0 34.555939
1.2584802 1.0043877 0.25117391 0 0 0 0 34.560886
1.2084755 1.0333726 0.23115647 0 0 0 0 34.56583
1.3894495 1.0044426 0.30224743 0 0 0 0 34.570778
1.3334438 1.0394253 0.27922702 0 0 0 0 34.575726
1.2794377 1.0704085 0.26020733 0 0 0 0 34.580673
1.2324301 1.1053938 0.24119046 0 0 0 0 34.585621
1.4024112 1.0614618 0.3072786 0 0 0 0 34.590569
1.3494022 1.102445 0.28625867 0 0 0 0 34.595512
1.3063898 1.1454316 0.27024311 0 0 0 0 34.60046
1.2653774 1.1894189 0.25322819 0 0 0 0 34.605408
1.4103724 1.1184795 0.3113071 0 0 0 0 34.610355
1.3733542 1.1754682 0.2952936 0 0 0 0 34.615303
1.3373362 1.2294573 0.28128037 0 0 0 0 34.620251
1.293322 1.275443 0.26526329 0 0 0 0 34.625195
1.4233284 1.1824993 0.31733745 0 0 0 0 34.630142
1.3893063 1.2454889 0.30332449 0 0 0 0 34.63509
1.3602821 1.3094804 0.29231369 0 0 0 0 34.640038
1.3282591 1.3724706 0.27930117 0 0 0 0 34.644985
1.4402804 1.251521 0.32436925 0 0 0 0 34.649929
1.4122525 1.3245128 0.3123582 0 0 0 0 34.654877
1.3912199 1.4025075 0.30535018 0 0 0 0 34.659824
1.3611913 1.4744983 0.29433763 0 0 0 0 34.664772
1.4562297 1.3235427 0.33140013 0 0 0 0 34.66972
1.4341948 1.4075369 0.32239097 0 0 0 0 34.674667
1.4151564 1.4945325 0.31738293 0 0 0 0 34.679611
1.404112 1.5945312 0.31237802 0 0 0 0 34.684559
1.4681773 1.3965633 0.33742854 0 0 0 0 34.689507
1.4611294 1.5015639 0.33442542 0 0 0 0 34.694454
1.4570773 1.6115658 0.33442333 0 0 0 0 34.699402
1.4570186 1.7355697 0.33442229 0 0 0 0 34.70435
1.490116 1.4815885 0.34746113 0 0 0 0 34.709293
1.4830618 1.5955893 0.34645692 0 0 0 0 34.714241
1.5009897 1.7396014 0.35346395 0 0 0 0 34.719189
1.5039212 1.8796067 0.35546294 0 0 0 0 34.724136
1.4970589 1.5576075 0.35348591 0 0 0 0 34.729084
1.5159829 1.7076204 0.36049283 0 0 0 0 34.734032
1.5458934 1.8786386 0.37350413 0 0 0 0 34.738976
1.5658034 2.0536523 0.38250944 0 0 0 0 34.743923
1.5158709 1.6507175 0.3636522 0 0 0 0 34.855419
1.5567614 1.8367438 0.37766606 0 0 0 0 34.860363
1.6026374 2.0417733 0.39768094 0 0 0 0 34.865311
1.6504977 2.2748044 0.41769415 0 0 0 0 34.870258
1.5457847 1.7597501 0.37568548 0 0 0 0 34.875206
1.6046467 1.9847872 0.39870614 0 0 0 0 34.880154
