# .PCD v0.7 - Point Cloud Data file format
VERSION 0.7
FIELDS x y z normal_x normal_y normal_z intensity curvature
SIZE 4 4 4 4 4 4 4 4
TYPE F F F F F F F F
COUNT 1 1 1 1 1 1 1 1
WIDTH 959
HEIGHT 1
VIEWPOINT 0 0 0 1 0 0 0
POINTS 959
DATA ascii
8.0897675 22.968502 3.1262968 0 0 0 0 27.608601
7.2816315 23.104406 2.5623765 0 0 0 0 27.613546
6.4933548 23.255453 2.0464728 0 0 0 0 27.618494
5.6591449 23.39934 1.5074865 0 0 0 0 27.62344
7.5427608 23.046001 3.1010969 0 0 0 0 27.628387
6.7295804 23.184931 2.5541637 0 0 0 0 27.633335
5.929348 23.308973 2.0502858 0 0 0 0 27.638283
5.0881333 23.442873 1.5253054 0 0 0 0 27.643229
6.9868016 23.104485 3.076915 0 0 0 0 27.648174
6.1775861 23.245457 2.5439897 0 0 0 0 27.653122
5.3712759 23.385519 2.0570736 0 0 0 0 27.65807
4.5290294 23.520451 1.5460925 0 0 0 0 27.663017
6.4457974 23.179016 3.0547395 0 0 0 0 27.667965
5.6215854 23.305983 2.5368106 0 0 0 0 27.672911
4.8122215 23.454071 2.065877 0 0 0 0 27.677856
3.9609177 23.599014 1.5698624 0 0 0 0 27.682804
5.9027948 23.251553 3.0345669 0 0 0 0 27.687752
5.0735273 23.385544 2.5346179 0 0 0 0 27.692699
4.2631478 23.529657 2.0756919 0 0 0 0 27.697645
3.4008617 23.657598 1.5916877 0 0 0 0 27.702593
5.3607864 23.3251 3.0163975 0 0 0 0 27.707539
4.5295382 23.442112 2.5274773 0 0 0 0 27.712486
3.7090683 23.606241 2.0874984 0 0 0 0 27.717434
2.8447595 23.732206 1.6164964 0 0 0 0 27.722382
4.8247886 23.394669 2.998251 0 0 0 0 27.727327
3.9884965 23.515701 2.5253165 0 0 0 0 27.732275
3.1590593 23.657835 2.0963604 0 0 0 0 27.737221
2.2836914 23.793806 1.6413209 0 0 0 0 27.742168
4.2888145 23.455242 2.9801238 0 0 0 0 27.747116
3.4424589 23.58629 2.5251536 0 0 0 0 27.752064
2.6100166 23.72044 2.1082084 0 0 0 0 27.75701
1.727562 23.877432 1.6691206 0 0 0 0 27.761955
3.7558208 23.522831 2.9629934 0 0 0 0 27.766903
2.9034064 23.663898 2.5239964 0 0 0 0 27.771851
2.0569336 23.796051 2.1240287 0 0 0 0 27.776798
1.1694942 23.937056 1.6969616 0 0 0 0 27.781746
3.2168195 23.590418 2.9498541 0 0 0 0 27.786692
2.3604057 23.720503 2.5238709 0 0 0 0 27.791637
1.5088657 23.867676 2.1378696 0 0 0 0 27.796585
0.60636252 24.020678 1.7267534 0 0 0 0 27.801533
2.6827893 23.669025 2.9377089 0 0 0 0 27.80648
1.8133569 23.793114 2.5277123 0 0 0 0 27.811426
0.95278072 23.942295 2.1566918 0 0 0 0 27.816374
0.0443024 24.076305 1.7565998 0 0 0 0 27.82132
2.1418362 23.719616 2.9226015 0 0 0 0 27.826267
1.2653362 23.855722 2.5305727 0 0 0 0 27.831215
0.39872119 24.007921 2.1745374 0 0 0 0 27.836163
-0.52379036 24.141932 1.7904196 0 0 0 0 27.841108
1.6078291 23.809113 2.9162066 0 0 0 0 27.989185
0.71937579 23.916258 2.5352259 0 0 0 0 27.994133
-0.15925901 24.064499 2.1931961 0 0 0 0 27.999079
-1.089865 24.222569 1.825044 0 0 0 0 28.004025
1.0628488 23.867735 2.9060953 0 0 0 0 28.008972
0.17130859 23.995907 2.5420749 0 0 0 0 28.01392
-0.71834451 24.139151 2.2150345 0 0 0 0 28.018867
-1.6659203 24.274208 1.8598906 0 0 0 0 28.023813
0.5218277 23.942373 2.8969674 0 0 0 0 28.028761
-0.38372815 24.063543 2.5489337 0 0 0 0 28.033707
-1.2864089 24.204792 2.2378733 0 0 0 0 28.038654
-2.2420375 24.34886 1.8977009 0 0 0 0 28.043602
-0.028164342 24.002996 2.8908486 0 0 0 0 28.04855
-0.93876082 24.128191 2.557801 0 0 0 0 28.053495
-1.8524849 24.27544 2.260711 0 0 0 0 28.058441
-2.8301749 24.429493 1.93848 0 0 0 0 28.063389
-0.57615137 24.062634 2.8837388 0 0 0 0 28.068336
-1.5048234 24.202822 2.5696321 0 0 0 0 28.073284
-2.4235277 24.332085 2.2845659 0 0 0 0 28.078232
-3.4152701 24.495136 1.9772944 0 0 0 0 28.083178
-1.1331973 24.143261 2.880578 0 0 0 0 28.088123
-2.0708754 24.273457 2.5814734 0 0 0 0 28.093071
-3.00966 24.42071 2.3143389 0 0 0 0 28.098019
-4.0164037 24.571754 2.0220611 0 0 0 0 28.102966
-1.6922131 24.211887 2.8774374 0 0 0 0 28.107914
-2.6459236 24.342079 2.5943031 0 0 0 0 28.11286
-3.594763 24.499338 2.3421347 0 0 0 0 28.117805
-4.6175094 24.63838 2.0658484 0 0 0 0 28.122753
-2.2551992 24.269508 2.8733103 0 0 0 0 28.127701
-3.2250161 24.426702 2.610101 0 0 0 0 28.132648
-4.1908226 24.557951 2.3729458 0 0 0 0 28.137594
-5.2296791 24.728989 2.112576 0 0 0 0 28.142542
-2.8343172 24.374111 2.8780744 0 0 0 0 28.147488
-3.8090398 24.484318 2.6249382 0 0 0 0 28.152435
-4.7909145 24.629562 2.4047301 0 0 0 0 28.157383
-5.8558211 24.805576 2.1633029 0 0 0 0 28.162331
-3.4103203 24.436718 2.8769193 0 0 0 0 28.167276
-4.4071202 24.562908 2.642715 0 0 0 0 28.172224
-5.4100575 24.718142 2.4414506 0 0 0 0 28.17717
-6.4819241 24.867167 2.2130589 0 0 0 0 28.182117
-4.0023589 24.5103 2.880717 0 0 0 0 28.187065
-5.0091963 24.6385 2.6624923 0 0 0 0 28.192013
-6.0301771 24.798725 2.4771869 0 0 0 0 28.196959
-7.1260638 24.941727 2.2657602 0 0 0 0 28.201904
-4.6004424 24.600878 2.8864772 0 0 0 0 28.206852
-5.6272845 24.717064 2.685236 0 0 0 0 28.2118
-6.6552405 24.8563 2.5129552 0 0 0 0 28.216747
-7.7600589 24.959312 2.3155816 0 0 0 0 28.221695
-5.2084699 24.669436 2.891258 0 0 0 0 28.226641
-6.2503815 24.799623 2.7079663 0 0 0 0 28.231586
-7.3013515 24.928843 2.5546596 0 0 0 0 28.236534
-7.7147284 22.928205 2.1732116 0 0 0 0 28.241482
-5.8265548 24.758982 2.899987 0 0 0 0 28.246429
-6.8844171 24.856163 2.7317221 0 0 0 0 28.251375
-7.4180546 23.318357 2.4192526 0 0 0 0 28.256323
-8.0306597 22.147432 2.1470087 0 0 0 0 28.261269
-6.451591 24.829517 2.9077375 0 0 0 0 28.266216
-7.5335317 24.94268 2.7594008 0 0 0 0 28.271164
-7.7560115 22.564497 2.3729594 0 0 0 0 28.276112
-8.6770515 22.312029 2.2115581 0 0 0 0 28.281057
-7.0936351 24.90202 2.9174542 0 0 0 0 28.286005
-7.6724606 23.431122 2.6107764 0 0 0 0 28.290951
-8.1696854 22.080513 2.3580606 0 0 0 0 28.295898
-8.8070993 21.188644 2.1482968 0 0 0 0 28.300846
-7.7416668 24.969517 2.927171 0 0 0 0 28.305794
-7.8854203 22.308462 2.5043468 0 0 0 0 28.31074
-8.8981857 20.076355 2.0850892 0 0 0 0 28.320633
-7.7596264 23.101139 2.7133756 0 0 0 0 28.325581
-8.3021269 21.848452 2.4744008 0 0 0 0 28.330528
-9.0197334 19.14102 2.0355198 0 0 0 0 28.340422
-8.0290642 22.172352 2.6085048 0 0 0 0 28.345367
-8.4572811 20.79195 2.3759677 0 0 0 0 28.350315
-8.7816687 19.452852 2.1775689 0 0 0 0 28.355263
-9.0731659 18.158834 1.9791592 0 0 0 0 28.36021
-8.3078632 21.376575 2.5213902 0 0 0 0 28.365156
-8.6187401 19.849453 2.2893274 0 0 0 0 28.370104
-8.5871496 16.232744 1.814433 0 0 0 0 28.379997
-8.5003233 20.447981 2.4186647 0 0 0 0 28.384945
-8.7573309 18.953026 2.2086515 0 0 0 0 28.389893
-8.6632538 15.507538 1.7765864 0 0 0 0 28.399786
-8.6145458 19.421556 2.3072515 0 0 0 0 28.404732
-8.8539114 18.049696 2.126066 0 0 0 0 28.409679
-8.6407337 16.065819 1.8947908 0 0 0 0 28.414627
-8.7816868 14.906255 1.7524472 0 0 0 0 28.419575
-8.7391119 18.525133 2.2085979 0 0 0 0 28.42452
-8.544651 16.435179 1.957455 0 0 0 0 28.429466
-8.6886892 15.290647 1.8380785 0 0 0 0 28.434414
-8.8650494 14.275054 1.7264237 0 0 0 0 28.439362
-8.8900032 17.747681 2.127691 0 0 0 0 28.444309
-8.6688442 15.75983 1.901426 0 0 0 0 28.449257
-8.8201876 14.723319 1.8038539 0 0 0 0 28.454203
-9.1774693 14.05139 1.745272 0 0 0 0 28.459148
-8.6155052 16.227516 1.9552655 0 0 0 0 28.175018
-8.7413845 15.049016 1.8380247 0 0 0 0 28.179966
-8.9732132 14.213358 1.7769899 0 0 0 0 28.184914
-8.6783829 15.462259 1.873535 0 0 0 0 28.194807
-8.8376932 14.432734 1.7869719 0 0 0 0 28.199753
-8.8087225 14.865881 1.8143797 0 0 0 0 28.214596
-9.0967731 14.103122 1.7721051 0 0 0 0 28.219542
-9.5771446 12.665881 1.7135987 0 0 0 0 28.229435
-8.8999958 14.241594 1.752347 0 0 0 0 28.234383
-9.7437239 13.29662 1.77528 0 0 0 0 28.244278
-9.606699 12.12181 1.68855 0 0 0 0 28.249224
-9.6276436 12.521832 1.7109118 0 0 0 0 28.264065
-9.6453505 11.611726 1.6684227 0 0 0 0 28.269012
-9.7093019 14.024743 1.7572848 0 0 0 0 28.273958
-9.9364481 13.266196 1.7511209 0 0 0 0 28.278906
-9.6391153 11.951783 1.6729395 0 0 0 0 28.283852
-9.6881008 11.137637 1.6512241 0 0 0 0 28.288799
-9.7234716 13.354641 1.691478 0 0 0 0 28.293747
-9.6807833 11.453677 1.6437831 0 0 0 0 28.30364
-9.7228785 10.673569 1.6340221 0 0 0 0 28.308588
-9.8110294 12.829393 1.6422786 0 0 0 0 28.313534
-9.7385674 10.997542 1.6195217 0 0 0 0 28.323429
-9.7737722 10.251471 1.6217153 0 0 0 0 28.328377
-9.8545008 12.268245 1.5902244 0 0 0 0 28.333323
-9.9707632 11.530012 1.6112423 0 0 0 0 28.338268
-9.7763462 10.538454 1.5943027 0 0 0 0 28.343216
-9.8076706 9.830411 1.6084383 0 0 0 0 28.348164
-9.9241552 11.774052 1.5470033 0 0 0 0 28.353111
-9.8262243 10.115344 1.572997 0 0 0 0 28.363005
-9.8466225 9.4283447 1.5971173 0 0 0 0 28.36795
-9.9838467 11.292883 1.5037776 0 0 0 0 28.372898
-9.8570995 9.6902781 1.5507302 0 0 0 0 28.382793
-9.8786097 9.0392942 1.5857862 0 0 0 0 28.387739
-10.022529 10.804767 1.4616029 0 0 0 0 28.392687
-9.9130812 9.302165 1.5353497 0 0 0 0 28.40258
-9.6359806 8.4238224 1.5323746 0 0 0 0 28.407528
-10.090362 10.372594 1.4262748 0 0 0 0 28.412476
-9.6322956 8.6317596 1.4681036 0 0 0 0 28.422369
-9.6851063 8.0847406 1.5269212 0 0 0 0 28.427315
-10.134184 9.9344769 1.390002 0 0 0 0 28.432262
-9.6432838 8.2457457 1.4488032 0 0 0 0 28.442158
-9.690177 7.7247562 1.5165879 0 0 0 0 28.447104
-10.178049 9.511363 1.3557018 0 0 0 0 28.452049
-9.6934128 7.9106531 1.4373391 0 0 0 0 28.461945
-9.731349 7.4006982 1.5131216 0 0 0 0 28.466892
-9.558403 8.5146666 1.2376585 0 0 0 0 28.47184
-9.6824903 8.0505438 1.3341944 0 0 0 0 28.476786
-9.695466 7.5486622 1.4190124 0 0 0 0 28.481731
-9.793601 7.106596 1.5125626 0 0 0 0 28.486679
-9.6024303 8.1485643 1.2112563 0 0 0 0 28.491627
-9.6664677 7.6615829 1.3079475 0 0 0 0 28.496574
-9.7426386 7.227581 1.4095272 0 0 0 0 28.50152
-9.8779125 6.8324513 1.5169257 0 0 0 0 28.506468
-9.6134291 7.7715335 1.1809353 0 0 0 0 28.511414
-9.704587 7.3255086 1.2895042 0 0 0 0 28.516361
-9.8619881 6.9713516 1.4117914 0 0 0 0 28.521309
-9.9154015 6.5319095 1.5180784 0 0 0 0 28.526257
-9.6668243 7.4419346 1.1621267 0 0 0 0 28.531202
-9.8091421 7.0518146 1.2855052 0 0 0 0 28.53615
-9.84235 6.6219239 1.397137 0 0 0 0 28.541096
-10.160032 6.3704505 1.5479912 0 0 0 0 28.546043
-9.7199917 7.1168303 1.141632 0 0 0 0 28.550991
-9.8202934 6.7168088 1.2670985 0 0 0 0 28.555939
-10.007819 6.4046144 1.4072756 0 0 0 0 28.560884
-10.3766 6.182055 1.5759954 0 0 0 0 28.56583
-9.7812042 6.8087101 1.122095 0 0 0 0 28.570778
-9.9286299 6.4516063 1.2624114 0 0 0 0 28.575726
-10.241402 6.22717 1.4282328 0 0 0 0 28.580673
-10.451951 5.9129457 1.5823721 0 0 0 0 28.585621
-9.8604708 6.5195575 1.1074954 0 0 0 0 28.590567
-10.320443 6.3678231 1.2939473 0 0 0 0 28.595512
-10.286676 5.9331093 1.4226996 0 0 0 0 28.60046
-10.556738 6.6191297 1.1622177 0 0 0 0 28.610355
-10.351667 6.0567851 1.2814648 0 0 0 0 28.615301
-0.42534915 0.21312915 0.049811423 0 0 0 0 28.625195
-10.617957 6.30902 1.1456826 0 0 0 0 28.630142
-0.43434998 0.22210452 0.04580931 0 0 0 0 28.640038
-0.43686545 0.2261558 0.039872229 0 0 0 0 29.221382
-0.42780441 0.19119288 0.051955223 0 0 0 0 29.231276
-0.43184176 0.22615793 0.032907818 0 0 0 0 29.236221
-0.43279275 0.19617565 0.045967259 0 0 0 0 29.246117
-0.42976964 0.19717218 0.037998058 0 0 0 0 29.260958
-0.44174013 0.17417137 0.054029468 0 0 0 0 29.270851
-0.44176415 0.20514064 0.031994533 0 0 0 0 29.275799
-0.44172281 0.17716318 0.047052514 0 0 0 0 29.285692
-0.43769777 0.17716183 0.039086316 0 0 0 0 29.300533
-0.47068962 0.16212218 0.058072325 0 0 0 0 29.310429
-0.45068863 0.18412703 0.032082699 0 0 0 0 29.315374
-0.46666667 0.16312093 0.050104722 0 0 0 0 29.325268
-0.46764216 0.16410807 0.041129056 0 0 0 0 29.340111
-0.42256886 0.12421533 0.05127608 0 0 0 0 29.350002
-0.48062733 0.16907217 0.03312844 0 0 0 0 29.35495
-0.4325574 0.12918818 0.045280091 0 0 0 0 29.364845
-0.4235234 0.12619421 0.035325918 0 0 0 0 29.379684
-0.36145192 0.089331105 0.042495247 0 0 0 0 29.38958
-0.42650273 0.12817864 0.027345443 0 0 0 0 29.394527
-0.37444022 0.093299203 0.037495706 0 0 0 0 29.404421
-0.38542289 0.095270105 0.031502239 0 0 0 0 29.419262
-0.37439555 0.075311497 0.044565614 0 0 0 0 29.429155
-0.39240238 0.097246408 0.023515232 0 0 0 0 29.434103
-0.36836714 0.073313959 0.036604818 0 0 0 0 29.443996
-0.3713443 0.073299706 0.029626887 0 0 0 0 29.458838
-0.36932677 0.057324149 0.043670122 0 0 0 0 29.468731
-0.36531439 0.071300797 0.020666039 0 0 0 0 29.473679
-0.37130404 0.05731193 0.036693748 0 0 0 0 29.483574
-0.36827579 0.055308394 0.028728068 0 0 0 0 29.498413
-0.37326708 0.041322861 0.045757297 0 0 0 0 29.508308
-0.36924955 0.054296885 0.020754658 0 0 0 0 29.513254
-0.37023735 0.039317943 0.036791556 0 0 0 0 29.523148
-0.36821124 0.038312431 0.028822845 0 0 0 0 29.537991
-0.36920103 0.024333406 0.044858277 0 0 0 0 29.547884
-0.37318316 0.036293056 0.020844463 0 0 0 0 29.55283
-0.370175 0.023321943 0.036884785 0 0 0 0 29.562725
-0.36814508 0.02031647 0.028918738 0 0 0 0 29.577564
-0.37414202 0.0083301887 0.046943478 0 0 0 0 29.58746
-0.37011561 0.018301763 0.019945038 0 0 0 0 29.592407
-0.37911415 0.0063109295 0.038965061 0 0 0 0 29.602301
-0.37008125 0.0033165717 0.029009895 0 0 0 0 29.617142
-0.37108025 -0.0076599508 0.047041006 0 0 0 0 29.627035
-0.37204999 0.00030196118 0.020037511 0 0 0 0 29.631983
-0.37305251 -0.0096732322 0.039067231 0 0 0 0 29.641876
-0.36201981 -0.012663734 0.029115029 0 0 0 0 29.656717
-0.38102147 -0.024671495 0.050119419 0 0 0 0 29.666611
-0.36798674 -0.016686095 0.020137714 0 0 0 0 29.671558
-0.38198885 -0.027685408 0.040148534 0 0 0 0 29.681454
-0.37226301 -0.030719211 0.029467218 0 0 0 0 29.289757
-0.39026654 -0.042724032 0.051472738 0 0 0 0 29.29965
-0.37422898 -0.034734521 0.020496231 0 0 0 0 29.304598
-0.38823298 -0.045732517 0.041506816 0 0 0 0 29.314491
-0.37220001 -0.047713716 0.030562056 0 0 0 0 29.329332
-0.38820356 -0.059714414 0.052570805 0 0 0 0 29.339226
-0.3741625 -0.052730348 0.020592418 0 0 0 0 29.344173
-0.38216859 -0.062716104 0.041611247 0 0 0 0 29.354069
-0.37413168 -0.066713713 0.030656246 0 0 0 0 29.368908
-0.37614182 -0.074687332 0.051681869 0 0 0 0 29.378803
-0.36709645 -0.070711955 0.020699581 0 0 0 0 29.383751
-0.38310412 -0.080712624 0.042705521 0 0 0 0 29.393642
-0.37706539 -0.085714288 0.031748593 0 0 0 0 29.408485
-0.38207912 -0.092692703 0.053767946 0 0 0 0 29.418379
-0.38302425 -0.092738792 0.021775227 0 0 0 0 29.423325
-0.37604049 -0.097694397 0.042810932 0 0 0 0 29.43322
-0.36700395 -0.10169004 0.031857245 0 0 0 0 29.448061
-0.36602011 -0.10665791 0.052883301 0 0 0 0 29.457954
-0.36996308 -0.10870842 0.021888571 0 0 0 0 29.462902
-0.36897922 -0.11367632 0.042914607 0 0 0 0 29.472795
-0.35694492 -0.11666601 0.031964134 0 0 0 0 29.487637
-0.41893631 -0.14274484 0.063919343 0 0 0 0 29.497532
-0.41287205 -0.1437833 0.026939102 0 0 0 0 29.502478
-0.41989052 -0.15076171 0.051955216 0 0 0 0 29.512371
-0.40285331 -0.15374406 0.039012566 0 0 0 0 29.527212
-0.41887087 -0.16273773 0.066017203 0 0 0 0 29.537106
-0.43578458 -0.17582031 0.030017143 0 0 0 0 29.542053
-0.41082773 -0.16873804 0.053064387 0 0 0 0 29.551949
-0.44275689 -0.19281067 0.045073304 0 0 0 0 29.566788
-0.45178157 -0.19978769 0.074086241 0 0 0 0 29.576683
-0.4427022 -0.20482661 0.032116055 0 0 0 0 29.581631
-0.44973084 -0.20979971 0.061129373 0 0 0 0 29.591522
-0.44068462 -0.21679926 0.047179308 0 0 0 0 29.606365
-0.45271081 -0.22378093 0.077187523 0 0 0 0 29.616259
-0.4366307 -0.22780861 0.033226788 0 0 0 0 29.621204
-0.45465249 -0.23780072 0.064229704 0 0 0 0 29.6311
-0.46059009 -0.2548269 0.052269671 0 0 0 0 29.645941
-3.0984392 -1.7273549 0.51915938 0 0 0 0 29.650887
-3.1125872 -1.7342366 0.62415671 0 0 0 0 29.655834
-2.9390764 -1.739328 0.30344278 0 0 0 0 29.660782
-2.9542291 -1.7422146 0.40643296 0 0 0 0 29.66573
-2.9693735 -1.7461067 0.50542456 0 0 0 0 29.670675
-2.9845221 -1.7509935 0.60841751 0 0 0 0 29.675623
-2.7940414 -1.7460438 0.29371566 0 0 0 0 29.680569
-2.8201809 -1.7539549 0.39469546 0 0 0 0 29.685516
-2.8413198 -1.7588617 0.49167901 0 0 0 0 29.690464
-2.8624609 -1.7657634 0.59266531 0 0 0 0 29.695412
-2.6749895 -1.7638074 0.28696203 0 0 0 0 29.700357
-2.7011273 -1.7707217 0.3859404 0 0 0 0 29.705303
-2.7212698 -1.7706324 0.47891876 0 0 0 0 29.710251
-2.7464035 -1.7795447 0.57790148 0 0 0 0 29.715199
-2.5529499 -1.774568 0.27920261 0 0 0 0 29.720146
-2.5790906 -1.7774866 0.37517563 0 0 0 0 29.725094
-2.6122146 -1.7874213 0.46914726 0 0 0 0 29.73004
-2.6343536 -1.7903337 0.56412655 0 0 0 0 29.734985
-2.4578915 -1.7983766 0.2754181 0 0 0 0 29.739933
-2.4920208 -1.8063122 0.37038547 0 0 0 0 29.744881
-2.5211496 -1.8112437 0.46135658 0 0 0 0 29.749828
-2.5462866 -1.8141633 0.55533117 0 0 0 0 29.754776
-2.3529332 -1.8123379 0.26912901 0 0 0 0 29.483601
-2.3840714 -1.8152699 0.36109287 0 0 0 0 29.488548
-2.4171991 -1.8212101 0.45005777 0 0 0 0 29.493496
-2.4453354 -1.8251363 0.54202789 0 0 0 0 29.498444
-1.2942607 -1.0453809 0.14578629 0 0 0 0 29.503389
-1.3083426 -1.0443356 0.19777143 0 0 0 0 29.508337
-2.3191564 -1.8320152 0.44126433 0 0 0 0 29.513283
-2.3472939 -1.8329457 0.53023028 0 0 0 0 29.51823
-1.2402341 -1.0522693 0.14391634 0 0 0 0 29.523178
-1.2573106 -1.0522329 0.19389813 0 0 0 0 29.528126
-1.273384 -1.0521972 0.24188153 0 0 0 0 29.533072
-1.295452 -1.0571694 0.29286239 0 0 0 0 29.538017
-1.1902056 -1.0601664 0.14204101 0 0 0 0 29.542965
-1.2052827 -1.0581288 0.19002323 0 0 0 0 29.547913
-1.2263499 -1.0611033 0.2380029 0 0 0 0 29.55286
-1.2414269 -1.0590659 0.28598517 0 0 0 0 29.557808
-1.1351873 -1.0620552 0.13916491 0 0 0 0 29.562754
-1.1612481 -1.0690384 0.1881422 0 0 0 0 29.567699
-1.1773239 -1.0660058 0.23412152 0 0 0 0 29.572647
-1.1993889 -1.0699823 0.28210101 0 0 0 0 29.577595
-1.092153 -1.0729672 0.13728189 0 0 0 0 29.582542
-1.1132239 -1.0739419 0.18525882 0 0 0 0 29.587488
-1.1332901 -1.0749186 0.23023736 0 0 0 0 29.592436
-1.1533607 -1.0758914 0.27821591 0 0 0 0 29.597382
-1.0481262 -1.0808762 0.13639596 0 0 0 0 29.602329
-1.0681978 -1.0798517 0.18237175 0 0 0 0 29.607277
-1.0902599 -1.0828326 0.22734991 0 0 0 0 29.612225
-1.1083332 -1.0808042 0.27332753 0 0 0 0 29.61717
-1.0011078 -1.0837812 0.13450752 0 0 0 0 29.622118
-1.0231773 -1.0837609 0.18048158 0 0 0 0 29.627064
-1.0472341 -1.0877483 0.22345802 0 0 0 0 29.632011
-1.0643077 -1.0847194 0.2684359 0 0 0 0 29.636959
-0.95010167 -1.0796802 0.13161547 0 0 0 0 29.641907
-0.97815722 -1.0866717 0.17758971 0 0 0 0 29.646852
-1.0072075 -1.0946678 0.22156382 0 0 0 0 29.651798
-1.0262755 -1.0936443 0.26554132 0 0 0 0 29.656746
-0.91506684 -1.092607 0.13172121 0 0 0 0 29.661694
-0.94511873 -1.1006037 0.17669374 0 0 0 0 29.666641
-0.97017378 -1.1045947 0.21866868 0 0 0 0 29.671589
-0.98425215 -1.0965643 0.26064453 0 0 0 0 29.676535
-0.87504619 -1.0975257 0.13082355 0 0 0 0 29.68148
-0.89711285 -1.095511 0.17279504 0 0 0 0 29.686428
-0.92416388 -1.101506 0.21476962 0 0 0 0 29.691376
-0.95022029 -1.1054976 0.25774309 0 0 0 0 29.696323
-0.8350296 -1.1004449 0.12992288 0 0 0 0 29.701269
-0.8610844 -1.1044381 0.17189631 0 0 0 0 29.706217
-0.88214773 -1.102424 0.21186945 0 0 0 0 29.711163
-0.91319233 -1.1124254 0.25484329 0 0 0 0 29.71611
-0.79800713 -1.1063704 0.1290213 0 0 0 0 29.721058
-0.81907421 -1.1023564 0.16899177 0 0 0 0 29.726006
-0.84512389 -1.1073523 0.20896661 0 0 0 0 29.730951
-0.86818463 -1.1073409 0.24993944 0 0 0 0 29.735899
-0.76098865 -1.1102962 0.12811674 0 0 0 0 29.740845
-0.78903937 -1.1162933 0.17008984 0 0 0 0 29.745792
-0.80710971 -1.1072789 0.20605832 0 0 0 0 29.75074
-0.83116496 -1.109271 0.24603234 0 0 0 0 29.755688
-0.72596973 -1.115225 0.12821014 0 0 0 0 29.760633
-0.74903113 -1.1132164 0.1671803 0 0 0 0 29.765579
-0.77508134 -1.116215 0.20515257 0 0 0 0 29.770527
-0.79314917 -1.1091995 0.24212383 0 0 0 0 29.775475
-0.69294518 -1.123158 0.12830418 0 0 0 0 29.780422
-0.71600682 -1.1201508 0.16627307 0 0 0 0 29.78537
-0.74205542 -1.1231507 0.20324539 0 0 0 0 29.790316
-0.76112497 -1.1151372 0.24021383 0 0 0 0 29.795261
-0.65792871 -1.1260889 0.12739435 0 0 0 0 29.800209
-0.68198836 -1.1240836 0.16536309 0 0 0 0 29.805157
-0.70504326 -1.1220806 0.20033342 0 0 0 0 29.810104
-0.7300989 -1.1220772 0.23830338 0 0 0 0 29.81505
-0.62191772 -1.1270169 0.12748311 0 0 0 0 29.819998
-0.64797372 -1.1260169 0.16445018 0 0 0 0 29.824944
-0.67402089 -1.1280195 0.19942129 0 0 0 0 29.829891
-0.69707519 -1.1270151 0.23539305 0 0 0 0 29.834839
-0.59189332 -1.1349566 0.12757173 0 0 0 0 29.839787
-0.61495531 -1.1299522 0.16353816 0 0 0 0 29.844732
-0.64499247 -1.1379611 0.19951114 0 0 0 0 29.84968
-0.66505885 -1.1289538 0.23347697 0 0 0 0 29.854626
-0.56186682 -1.1448954 0.12866271 0 0 0 0 29.859573
-0.58991534 -1.1469007 0.16463083 0 0 0 0 29.864521
-0.60998237 -1.1358958 0.19659404 0 0 0 0 29.869469
-0.63503116 -1.1368967 0.23156549 0 0 0 0 29.874414
-0.53184259 -1.1528358 0.12875076 0 0 0 0 29.87936
-0.55989289 -1.1538411 0.16471763 0 0 0 0 29.884308
-0.58095598 -1.1448383 0.19668204 0 0 0 0 29.889256
-0.607005 -1.1448424 0.23065072 0 0 0 0 29.894203
-0.500826 -1.1567749 0.12883483 0 0 0 0 29.899151
-0.52489018 -1.1487751 0.16279601 0 0 0 0 29.904097
-0.55292976 -1.153783 0.19676825 0 0 0 0 29.909042
-0.58197111 -1.1577926 0.2307377 0 0 0 0 29.91399
-0.47180125 -1.1667153 0.13092345 0 0 0 0 29.918938
-0.49586785 -1.1557181 0.16288081 0 0 0 0 29.923885
-0.52091932 -1.152723 0.19484717 0 0 0 0 29.928833
-0.54696667 -1.1527282 0.227816 0 0 0 0 29.933779
-0.43780017 -1.1616505 0.12999977 0 0 0 0 29.938725
-0.46684897 -1.1616603 0.16396403 0 0 0 0 29.943672
-0.49189734 -1.1586677 0.19393048 0 0 0 0 29.94862
-0.51794302 -1.1586742 0.22589937 0 0 0 0 29.953568
-0.40772206 -1.1655781 0.13130164 0 0 0 0 30.096767
-0.43676838 -1.1655889 0.16426672 0 0 0 0 30.101715
-0.46281394 -1.1635979 0.19423373 0 0 0 0 30.106663
-0.49085361 -1.1656092 0.22520295 0 0 0 0 30.11161
-0.37671128 -1.1665196 0.13138001 0 0 0 0 30.116556
-0.40675604 -1.1665335 0.16334368 0 0 0 0 30.121504
-0.43180361 -1.1625419 0.19230972 0 0 0 0 30.12645
-0.46083954 -1.1665552 0.22328004 0 0 0 0 30.131397
-0.34968558 -1.1764675 0.13246368 0 0 0 0 30.136345
-0.37773788 -1.171479 0.16342403 0 0 0 0 30.141293
-0.40477991 -1.170491 0.19239099 0 0 0 0 30.146238
-0.43182331 -1.1695019 0.22235799 0 0 0 0 30.151186
-0.31868178 -1.1744084 0.13353775 0 0 0 0 30.156132
-0.34971759 -1.1784253 0.16450518 0 0 0 0 30.161079
-0.37576744 -1.1714381 0.19146612 0 0 0 0 30.166027
-0.40380716 -1.1724508 0.22143427 0 0 0 0 30.170975
-0.28966346 -1.1803533 0.13461879 0 0 0 0 30.17592
-0.32169953 -1.1833732 0.16458358 0 0 0 0 30.180866
-0.34874529 -1.1793866 0.19254692 0 0 0 0 30.185814
-0.37578923 -1.1763998 0.22051156 0 0 0 0 30.190762
-0.26065275 -1.1812998 0.13469329 0 0 0 0 30.195709
-0.2936812 -1.1893202 0.16566299 0 0 0 0 30.200657
-0.3207272 -1.1843348 0.19262515 0 0 0 0 30.205603
-0.34776774 -1.1823493 0.21959111 0 0 0 0 30.210548
-0.23164712 -1.1802453 0.13576508 0 0 0 0 30.215496
-0.2646701 -1.1912657 0.16673858 0 0 0 0 30.220444
-0.29072598 -1.1782821 0.19069228 0 0 0 0 30.225391
-0.32174778 -1.1883013 0.21966754 0 0 0 0 30.230337
-0.20263037 -1.1861899 0.1378454 0 0 0 0 30.235285
-0.23466685 -1.1872122 0.16580792 0 0 0 0 30.240231
-0.26270613 -1.184231 0.19077131 0 0 0 0 30.245178
-0.29273751 -1.187251 0.21773934 0 0 0 0 30.250126
-0.26658583 -1.8312032 0.21958584 0 0 0 0 30.255074
-0.20665398 -1.1901602 0.1668829 0 0 0 0 30.260019
-0.23568814 -1.189182 0.19084743 0 0 0 0 30.264967
-0.26472154 -1.1902014 0.21681446 0 0 0 0 30.269913
-0.22455609 -1.8471239 0.2226949 0 0 0 0 30.27486
-0.27362621 -1.8401603 0.26362264 0 0 0 0 30.279808
-0.2086734 -1.1931319 0.19192205 0 0 0 0 30.284756
-0.23771098 -1.1901538 0.21588421 0 0 0 0 30.289701
-0.17955703 -1.8450408 0.22478554 0 0 0 0 30.294647
-0.23061661 -1.843082 0.26471674 0 0 0 0 30.299595
-0.27468315 -1.8331167 0.29964823 0 0 0 0 30.304543
-0.20969686 -1.1921047 0.21495768 0 0 0 0 30.30949
-0.1365473 -1.8489618 0.22688043 0 0 0 0 30.314438
-0.18661059 -1.8440024 0.26580951 0 0 0 0 30.319384
-0.23365748 -1.8450425 0.3007504 0 0 0 0 30.324329
-0.27970576 -1.8460793 0.33669284 0 0 0 0 30.329277
-0.092535481 -1.8548805 0.22997887 0 0 0 0 30.334225
-0.14359897 -1.8489238 0.26790544 0 0 0 0 30.339172
-0.19064991 -1.8459662 0.30084154 0 0 0 0 30.344118
-0.23769487 -1.8480062 0.3357839 0 0 0 0 30.349066
-0.04950932 -1.8698 0.23408657 0 0 0 0 30.354012
-0.10159121 -1.8508488 0.26899594 0 0 0 0 30.358959
-0.14863852 -1.8498912 0.30193463 0 0 0 0 30.363907
-0.19469839 -1.8409328 0.33386505 0 0 0 0 30.368855
-0.0051601245 -2.0916836 0.2664488 0 0 0 0 30.3738
-0.058572631 -1.8597713 0.27109608 0 0 0 0 30.378748
-0.10562541 -1.8548148 0.30303001 0 0 0 0 30.383694
-0.15368752 -1.8428624 0.33295405 0 0 0 0 30.388641
0.042845163 -2.0945969 0.2695474 0 0 0 0 30.393589
-0.016214259 -2.0916529 0.30846655 0 0 0 0 30.398537
-0.063621394 -1.8537418 0.30311632 0 0 0 0 30.403482
-0.11167286 -1.8477893 0.33304787 0 0 0 0 30.408428
0.092855982 -2.1015058 0.27365327 0 0 0 0 30.413376
0.030798143 -2.098568 0.31156841 0 0 0 0 30.418324
-0.023252562 -2.0956223 0.34449494 0 0 0 0 30.423271
-0.069672823 -1.8427192 0.33112916 0 0 0 0 30.428219
0.14286155 -2.1054153 0.27775514 0 0 0 0 30.433165
0.079804957 -2.1014817 0.31366783 0 0 0 0 30.43811
0.02376274 -2.1025405 0.34559652 0 0 0 0 30.443058
-0.03129502 -2.0945978 0.37751588 0 0 0 0 30.448006
0.19186333 -2.1063287 0.28085157 0 0 0 0 30.452953
0.12881175 -2.1043959 0.31576687 0 0 0 0 30.457901
0.071767598 -2.1034577 0.34669194 0 0 0 0 30.462847
0.014718317 -2.099519 0.37761346 0 0 0 0 30.467793
0.24388678 -2.1222334 0.28696996 0 0 0 0 30.47274
0.17882606 -2.1133065 0.31987417 0 0 0 0 30.477688
0.11977245 -2.1043751 0.34778693 0 0 0 0 30.482635
0.062724397 -2.0994389 0.37670746 0 0 0 0 30.487581
0.29388332 -2.120146 0.29006338 0 0 0 0 30.492529
0.22883515 -2.1192176 0.32397744 0 0 0 0 30.497475
0.169792 -2.1162863 0.35189763 0 0 0 0 30.502422
0.11074515 -2.1103559 0.37881431 0 0 0 0 30.50737
0.34588915 -2.1250532 0.29516765 0 0 0 0 30.512318
0.27883875 -2.1211307 0.32707551 0 0 0 0 30.517263
0.21880192 -2.120203 0.35299689 0 0 0 0 30.522209
0.15975863 -2.1162727 0.37991613 0 0 0 0 30.527157
0.39890209 -2.134958 0.30127892 0 0 0 0 30.532104
0.33085629 -2.1320393 0.33118677 0 0 0 0 30.537052
0.26880905 -2.1241164 0.35609716 0 0 0 0 30.542
0.20776865 -2.1201916 0.38101384 0 0 0 0 30.546946
0.45191324 -2.1438637 0.30738854 0 0 0 0 30.551891
0.38086188 -2.1359525 0.33528647 0 0 0 0 30.556839
0.31882089 -2.1300316 0.35819942 0 0 0 0 30.561787
0.25778031 -2.1251075 0.38211507 0 0 0 0 30.566734
0.50603539 -2.148874 0.31316602 0 0 0 0 31.11006
0.43499887 -2.1479542 0.34107956 0 0 0 0 31.115005
0.36995447 -2.1360331 0.36198896 0 0 0 0 31.119953
0.30791345 -2.1271057 0.38390562 0 0 0 0 31.124901
0.56004262 -2.1557877 0.31926775 0 0 0 0 31.129848
0.48699957 -2.1488733 0.34517241 0 0 0 0 31.134794
0.42296761 -2.1449502 0.36609203 0 0 0 0 31.139742
0.35792777 -2.1350296 0.38600397 0 0 0 0 31.144688
0.61604851 -2.162698 0.32637158 0 0 0 0 31.149635
0.54100972 -2.1567886 0.35027501 0 0 0 0 31.154583
0.47497737 -2.1508706 0.3691901 0 0 0 0 31.159531
0.40994203 -2.1429508 0.38810444 0 0 0 0 31.164476
0.65999907 -2.127635 0.32641423 0 0 0 0 31.169424
0.59501219 -2.1597047 0.35537177 0 0 0 0 31.17437
0.5289827 -2.1547873 0.37328815 0 0 0 0 31.179317
0.46094674 -2.1438751 0.38919565 0 0 0 0 31.184265
0.73106033 -2.1765161 0.34058177 0 0 0 0 31.189213
0.64499229 -2.1446316 0.35644364 0 0 0 0 31.194159
0.58399725 -2.1647031 0.37739351 0 0 0 0 31.199104
0.51596743 -2.1577909 0.39330551 0 0 0 0 31.204052
0.79608971 -2.2014115 0.35071507 0 0 0 0 31.209
0.7090295 -2.1745284 0.36658138 0 0 0 0 31.213947
0.63800102 -2.1676214 0.38148963 0 0 0 0 31.218895
0.56897539 -2.1617126 0.39540169 0 0 0 0 31.223841
0.86010659 -2.2173104 0.35983679 0 0 0 0 31.228786
0.77004784 -2.1904321 0.37469962 0 0 0 0 31.233734
0.69501233 -2.1755357 0.38559452 0 0 0 0 31.238682
0.62398201 -2.1656306 0.39849997 0 0 0 0 31.243629
0.91107523 -2.1972349 0.36390305 0 0 0 0 31.248575
0.83707982 -2.216327 0.38383558 0 0 0 0 31.253523
0.75201488 -2.1784494 0.39069355 0 0 0 0 31.258469
0.67296487 -2.1495636 0.39656892 0 0 0 0 31.263416
0.98611253 -2.2301145 0.37705576 0 0 0 0 31.268364
0.89507782 -2.2172391 0.38993296 0 0 0 0 31.273312
0.82005733 -2.2113431 0.39983788 0 0 0 0 31.278257
0.74201697 -2.1904531 0.40772328 0 0 0 0 31.283205
1.0511172 -2.2380137 0.3861686 0 0 0 0 31.288151
0.96008831 -2.2281394 0.39804927 0 0 0 0 31.293098
0.88106573 -2.2182522 0.40494519 0 0 0 0 31.298046
0.80403888 -2.2063603 0.41284168 0 0 0 0 31.302994
1.1201251 -2.2489071 0.39628908 0 0 0 0 31.30794
1.0281019 -2.2420349 0.40717196 0 0 0 0 31.312885
0.93203729 -2.197181 0.40600994 0 0 0 0 31.317833
0.86806071 -2.2222655 0.41796198 0 0 0 0 31.322781
1.1921344 -2.2617958 0.40741485 0 0 0 0 31.327728
1.0941076 -2.2489362 0.41428423 0 0 0 0 31.332676
1.0110891 -2.2400565 0.4191767 0 0 0 0 31.337622
0.91301662 -2.1872079 0.4150044 0 0 0 0 31.342567
1.26013 -2.2636933 0.41652349 0 0 0 0 31.347515
1.1611089 -2.2538362 0.42239508 0 0 0 0 31.352463
1.0740869 -2.239965 0.4242776 0 0 0 0 31.35741
0.99708462 -2.2410765 0.4281885 0 0 0 0 31.362356
1.3351352 -2.2745781 0.42864972 0 0 0 0 31.367304
1.2331152 -2.2637269 0.43251687 0 0 0 0 31.37225
1.1420956 -2.2488644 0.43139368 0 0 0 0 31.377197
1.0580835 -2.2399905 0.43128565 0 0 0 0 31.382145
1.4141419 -2.286458 0.44078133 0 0 0 0 31.387093
1.3041168 -2.2696214 0.44163266 0 0 0 0 31.392038
1.2141058 -2.259758 0.43951625 0 0 0 0 31.396986
1.1260918 -2.2478914 0.4374004 0 0 0 0 31.401932
1.4871322 -2.2863488 0.45189241 0 0 0 0 31.406879
1.3811247 -2.2815056 0.4527615 0 0 0 0 31.411827
1.2871145 -2.2696509 0.44763836 0 0 0 0 31.416775
1.1961017 -2.2567906 0.4435181 0 0 0 0 31.421721
1.5801544 -2.3132048 0.46905553 0 0 0 0 31.426666
1.4601297 -2.291388 0.46389014 0 0 0 0 31.431614
1.3601145 -2.2735448 0.45575371 0 0 0 0 31.436562
1.2701129 -2.2666845 0.44964117 0 0 0 0 31.441509
1.624086 -2.2651489 0.47108024 0 0 0 0 31.446457
1.5451422 -2.3072615 0.47603166 0 0 0 0 31.451403
1.4431325 -2.2924218 0.46689621 0 0 0 0 31.456348
1.3451213 -2.2755768 0.4567638 0 0 0 0 31.461296
1.6319636 -2.1711564 0.46301359 0 0 0 0 31.466244
1.6151189 -2.295162 0.48412535 0 0 0 0 31.471191
1.5281461 -2.3082969 0.47803733 0 0 0 0 31.476137
1.421127 -2.2824686 0.46388504 0 0 0 0 31.481085
1.660881 -2.109127 0.46100596 0 0 0 0 31.486031
1.6209934 -2.1961751 0.4730514 0 0 0 0 31.490978
1.6061388 -2.3071859 0.48615184 0 0 0 0 31.495926
1.5051429 -2.2983477 0.47302464 0 0 0 0 31.500874
1.7278522 -2.0940311 0.47109282 0 0 0 0 31.505819
1.6449034 -2.1261563 0.46802962 0 0 0 0 31.510767
1.628039 -2.2281733 0.47811812 0 0 0 0 31.515713
1.5901515 -2.3092263 0.48215958 0 0 0 0 31.52066
1.8288684 -2.116879 0.48925924 0 0 0 0 31.525608
1.6938515 -2.0880949 0.47007105 0 0 0 0 31.530556
1.6409322 -2.1411765 0.46706581 0 0 0 0 31.535501
1.6250726 -2.2451937 0.4751572 0 0 0 0 31.540447
1.9238685 -2.1287367 0.50740635 0 0 0 0 31.545395
1.79387 -2.1119456 0.48723686 0 0 0 0 31.550343
1.6748608 -2.0851417 0.4640708 0 0 0 0 31.55529
1.6389674 -2.1581967 0.46310636 0 0 0 0 31.560238
2.022866 -2.1385899 0.52555549 0 0 0 0 31.565184
1.8858708 -2.1208124 0.50137699 0 0 0 0 31.570129
1.7768832 -2.1099923 0.47923955 0 0 0 0 31.575077
1.665887 -2.092176 0.45609286 0 0 0 0 31.580025
2.129786 -2.1522129 0.54441494 0 0 0 0 31.266394
1.9938011 -2.1414466 0.52023661 0 0 0 0 31.271339
1.8728094 -2.1226616 0.49206892 0 0 0 0 31.276287
1.7508041 -2.0948777 0.46389067 0 0 0 0 31.281235
2.2517965 -2.176018 0.56861264 0 0 0 0 31.286182
2.0978038 -2.1532865 0.53639936 0 0 0 0 31.291128
1.9728149 -2.1355078 0.50722808 0 0 0 0 31.296076
1.8548273 -2.1187184 0.47806692 0 0 0 0 31.301022
2.3697932 -2.1888325 0.59079254 0 0 0 0 31.305969
2.2158134 -2.1731024 0.55658722 0 0 0 0 31.310917
2.0768187 -2.1463504 0.52138931 0 0 0 0 31.315865
1.9558351 -2.1305668 0.49022582 0 0 0 0 31.32081
2.4967904 -2.204632 0.61598599 0 0 0 0 31.325758
2.3388174 -2.1909101 0.57877821 0 0 0 0 31.330704
2.1898258 -2.1611786 0.53756517 0 0 0 0 31.335651
2.0578396 -2.139416 0.50138205 0 0 0 0 31.340599
2.6357913 -2.2244129 0.64319754 0 0 0 0 31.345547
2.4648199 -2.2067158 0.5999698 0 0 0 0 31.350492
2.3128333 -2.1789904 0.55675566 0 0 0 0 31.355438
2.18086 -2.1642292 0.51858032 0 0 0 0 31.360386
2.7837896 -2.2441804 0.67241907 0 0 0 0 31.365334
2.5958178 -2.2205148 0.62216455 0 0 0 0 31.370281
2.442843 -2.198792 0.57695591 0 0 0 0 31.375229
2.3008699 -2.1800501 0.53376436 0 0 0 0 31.380175
2.9377835 -2.2619395 0.70264477 0 0 0 0 31.38512
2.7478218 -2.2432783 0.65039361 0 0 0 0 31.390068
2.5798481 -2.216584 0.5981617 0 0 0 0 31.395016
2.424871 -2.1908658 0.5499472 0 0 0 0 31.399963
3.1197884 -2.2936516 0.74091834 0 0 0 0 31.404909
2.9068255 -2.2660332 0.67862999 0 0 0 0 31.409857
2.7248521 -2.234365 0.62037623 0 0 0 0 31.414803
2.5678856 -2.2136519 0.56916499 0 0 0 0 31.41975
3.3057826 -2.3183596 0.77918816 0 0 0 0 31.424698
3.0768256 -2.2887709 0.70987868 0 0 0 0 31.429646
2.8858581 -2.2571201 0.64661437 0 0 0 0 31.434591
2.7138929 -2.2314353 0.5883801 0 0 0 0 31.439539
3.508779 -2.3470423 0.82048142 0 0 0 0 31.444485
3.2748342 -2.322464 0.7471717 0 0 0 0 31.449432
3.0608647 -2.2818546 0.67487049 0 0 0 0 31.45438
2.8749011 -2.2521956 0.61061537 0 0 0 0 31.459328
3.7307711 -2.3766947 0.86679721 0 0 0 0 31.464273
3.4668248 -2.34217 0.78244126 0 0 0 0 31.469219
3.2478673 -2.306571 0.70613986 0 0 0 0 31.474167
3.0579171 -2.2819219 0.63688558 0 0 0 0 31.479115
3.7516284 -2.274688 0.86673045 0 0 0 0 31.484062
3.708838 -2.3867948 0.82879591 0 0 0 0 31.48901
3.4608779 -2.3402479 0.74144852 0 0 0 0 31.493956
3.2559335 -2.3136265 0.66517454 0 0 0 0 31.498901
3.7614851 -2.1687007 0.86364686 0 0 0 0 31.503849
3.7537122 -2.2967525 0.82977104 0 0 0 0 31.508797
3.700891 -2.3798833 0.78179443 0 0 0 0 31.513744
3.4529324 -2.3333352 0.69344842 0 0 0 0 31.51869
3.7743473 -2.0667078 0.86157155 0 0 0 0 31.523638
3.7685704 -2.1907589 0.82569385 0 0 0 0 31.528584
3.7607763 -2.2988176 0.78479713 0 0 0 0 31.533531
3.7149637 -2.3849421 0.73283195 0 0 0 0 31.538479
3.7912138 -1.9687076 0.86150581 0 0 0 0 31.543427
3.7794309 -2.0847721 0.82061237 0 0 0 0 31.548372
3.7786345 -2.1908216 0.77872181 0 0 0 0 31.55332
3.7738471 -2.299881 0.73282939 0 0 0 0 31.558266
3.796077 -1.8657264 0.85942113 0 0 0 0 31.563213
3.7972949 -1.9827721 0.81854409 0 0 0 0 31.568161
3.7884953 -2.0828381 0.77163756 0 0 0 0 31.573109
3.7837007 -2.1849003 0.72273773 0 0 0 0 31.578054
3.8159516 -1.7727211 0.86036527 0 0 0 0 31.583
3.8141651 -1.883775 0.81547815 0 0 0 0 31.587948
3.8023586 -1.976848 0.76556081 0 0 0 0 31.592896
3.8025632 -2.077904 0.71566576 0 0 0 0 31.597843
3.8308244 -1.6777231 0.8613019 0 0 0 0 31.602791
3.8160319 -1.7798011 0.81038988 0 0 0 0 31.607737
3.8252306 -1.8778433 0.7615025 0 0 0 0 31.612682
3.8144281 -1.9699196 0.70658493 0 0 0 0 31.61763
3.8356967 -1.5797411 0.86022413 0 0 0 0 31.622578
3.8309059 -1.682806 0.80832487 0 0 0 0 31.627525
3.8340981 -1.7738595 0.756423 0 0 0 0 31.632473
3.8272943 -1.8639319 0.69950801 0 0 0 0 31.637419
3.8525774 -1.4897397 0.86216933 0 0 0 0 31.642365
3.8477814 -1.5878062 0.80826479 0 0 0 0 31.647312
3.8369677 -1.6698852 0.750337 0 0 0 0 31.65226
3.8461637 -1.7609339 0.69444185 0 0 0 0 31.657207
3.8634577 -1.3977476 0.86310589 0 0 0 0 31.662153
3.850656 -1.48783 0.80418366 0 0 0 0 31.667101
3.8638463 -1.5758723 0.74929017 0 0 0 0 31.672047
3.8500335 -1.65496 0.68635559 0 0 0 0 31.676994
3.875339 -1.3057543 0.86404425 0 0 0 0 31.681942
3.8745384 -1.3978189 0.80613804 0 0 0 0 31.68689
3.8697212 -1.4748929 0.74421203 0 0 0 0 31.691835
3.8719094 -1.5559572 0.68229818 0 0 0 0 31.696781
3.8812213 -1.2137696 0.86497605 0 0 0 0 31.701729
3.8884211 -1.3048248 0.80507803 0 0 0 0 31.706676
3.8715985 -1.3749192 0.73913085 0 0 0 0 31.711624
3.8817859 -1.454973 0.67622519 0 0 0 0 31.716572
3.8911061 -1.1237782 0.86691517 0 0 0 0 31.721518
3.8863015 -1.2078549 0.80199587 0 0 0 0 31.726463
3.8864799 -1.2799245 0.73707056 0 0 0 0 31.731411
3.8906634 -1.3549893 0.67115265 0 0 0 0 31.736359
3.9048274 -1.0354521 0.86964267 0 0 0 0 31.476269
3.90903 -1.1185189 0.80473691 0 0 0 0 31.481216
3.8992126 -1.1846099 0.73579645 0 0 0 0 31.486162
3.8944004 -1.2526956 0.66486406 0 0 0 0 31.49111
3.9197109 -0.94945103 0.87358928 0 0 0 0 31.496056
3.9129102 -1.0255396 0.80266273 0 0 0 0 31.501003
3.9080923 -1.0906242 0.73272723 0 0 0 0 31.505951
3.9072752 -1.1557039 0.66179645 0 0 0 0 31.510899
3.9305937 -0.86145687 0.87652951 0 0 0 0 31.515844
3.9167905 -0.93355834 0.80259019 0 0 0 0 31.520792
3.91697 -0.99563748 0.73065752 0 0 0 0 31.525738
3.922152 -1.0597094 0.65873295 0 0 0 0 31.530685
3.9464779 -0.77545375 0.88147837 0 0 0 0 31.535633
3.9366736 -0.84555119 0.80554169 0 0 0 0 31.540581
3.9508514 -0.90760911 0.73462582 0 0 0 0 31.545527
3.9180267 -0.95874518 0.65264189 0 0 0 0 31.550472
3.9523628 -0.6874671 0.8844136 0 0 0 0 31.55542
3.9545565 -0.75654709 0.80849028 0 0 0 0 31.560368
3.9497311 -0.811638 0.73154426 0 0 0 0 31.565315
3.9519083 -0.8687188 0.65460855 0 0 0 0 31.570263
3.966249 -0.60146707 0.88936108 0 0 0 0 31.575209
3.9614425 -0.66656184 0.80842507 0 0 0 0 31.580154
3.974613 -0.7216239 0.73450059 0 0 0 0 31.585102
3.9737878 -0.77471179 0.65455711 0 0 0 0 31.59005
3.9731371 -0.51447928 0.89229959 0 0 0 0 31.594997
3.986325 -0.57854521 0.8143841 0 0 0 0 31.599943
3.985497 -0.62963295 0.7344386 0 0 0 0 31.604891
3.9826679 -0.67872536 0.65248859 0 0 0 0 31.609837
3.9860227 -0.42748001 0.89824599 0 0 0 0 31.614784
3.990212 -0.48856354 0.81531644 0 0 0 0 31.619732
3.9963801 -0.53664207 0.73437619 0 0 0 0 31.62468
4.0035505 -0.58572012 0.6524381 0 0 0 0 31.629625
3.9979117 -0.34148338 0.90319258 0 0 0 0 31.634573
3.9990971 -0.39857286 0.81825536 0 0 0 0 31.639519
4.0132627 -0.44463998 0.73732257 0 0 0 0 31.644466
4.0114326 -0.48973536 0.65036958 0 0 0 0 31.649414
4.0108004 -0.25548452 0.90914094 0 0 0 0 31.654362
4.0149856 -0.31057149 0.82220513 0 0 0 0 31.659307
4.0221467 -0.35165119 0.7382589 0 0 0 0 31.664253
4.0223136 -0.3937445 0.65030527 0 0 0 0 31.669201
4.0166903 -0.16849658 0.9140805 0 0 0 0 31.674149
4.0298691 -0.21957077 0.8271513 0 0 0 0 31.679096
4.0310316 -0.25866252 0.73919588 0 0 0 0 31.684044
4.0451941 -0.29873508 0.65225673 0 0 0 0 31.68899
4.0315776 -0.081493296 0.92203134 0 0 0 0 31.693935
4.0337577 -0.12958747 0.83008599 0 0 0 0 31.698883
4.046917 -0.16666229 0.74214268 0 0 0 0 31.703831
4.056076 -0.20274355 0.65319365 0 0 0 0 31.708778
4.0284719 0.0054799682 0.92496139 0 0 0 0 31.713724
4.0526438 -0.039580546 0.83603895 0 0 0 0 31.718672
4.0568004 -0.072670549 0.74508107 0 0 0 0 31.723618
4.0669575 -0.10575213 0.6541301 0 0 0 0 31.728565
6.0767436 0.13874541 1.4062622 0 0 0 0 31.733513
6.2279668 0.077832147 1.2925026 0 0 0 0 31.738461
6.2222047 0.031673521 1.1485438 0 0 0 0 31.743406
4.0798416 -0.0097580869 0.65507048 0 0 0 0 31.748354
5.914104 0.16615985 1.0930634 0 0 0 0 31.763195
6.2662506 0.13355145 1.0105107 0 0 0 0 31.768143
9.930728 0.87077701 2.3400869 0 0 0 0 31.792877
9.8752136 0.96513283 1.8479329 0 0 0 0 31.822559
10.029514 0.93611407 1.62814 0 0 0 0 31.827505
10.125656 2.678484 2.2466142 0 0 0 0 31.938841
10.206919 2.7073336 1.9906812 0 0 0 0 31.943787
10.262198 2.7341375 1.7217203 0 0 0 0 31.948734
9.820034 3.7790997 2.5832858 0 0 0 0 32.032833
9.7813663 3.7947514 2.2782309 0 0 0 0 32.037781
9.7566395 3.8374422 1.9951663 0 0 0 0 32.042728
9.7249079 3.8861208 1.7080885 0 0 0 0 32.047676
9.608902 3.9387405 2.5569143 0 0 0 0 32.05262
9.5892057 3.9704249 2.2588663 0 0 0 0 32.057568
9.6084309 4.0391846 1.9878274 0 0 0 0 32.062515
9.6006737 4.1039 1.7057624 0 0 0 0 32.067463
9.5026903 4.1375442 2.5586267 0 0 0 0 32.072411
9.5539265 4.207335 2.2766228 0 0 0 0 32.077354
9.6041107 4.3031411 2.0115943 0 0 0 0 32.082306
9.6582985 4.4039431 1.7365656 0 0 0 0 32.08725
9.5363607 4.3975635 2.5994403 0 0 0 0 32.092197
9.6015692 4.4883733 2.3174334 0 0 0 0 32.097145
9.6257677 4.5821362 2.0413783 0 0 0 0 32.102093
9.6859331 4.7019458 1.7653391 0 0 0 0 32.10704
9.5360556 4.6475306 2.6312275 0 0 0 0 32.111984
9.6002512 4.7513375 2.3472078 0 0 0 0 32.116932
9.6424217 4.8661256 2.0721538 0 0 0 0 32.12188
9.7195587 5.007957 1.796114 0 0 0 0 32.126827
9.5757074 4.9235601 2.6760368 0 0 0 0 32.131775
9.6328964 5.037353 2.3860006 0 0 0 0 32.136719
9.6900387 5.1731615 2.1119444 0 0 0 0 32.141666
9.7721558 5.3349962 1.8318925 0 0 0 0 32.146614
9.6083508 5.2065816 2.7228336 0 0 0 0 32.151562
9.6705246 5.3343792 2.4297907 0 0 0 0 32.156509
9.7845945 5.520268 2.1647525 0 0 0 0 32.161453
9.7697926 5.6399584 1.8596325 0 0 0 0 32.166405
9.6749544 5.5146542 2.7796469 0 0 0 0 32.171349
9.6931543 5.6353836 2.4715626 0 0 0 0 32.176296
9.8141985 5.8422813 2.2065136 0 0 0 0 32.181244
9.7514296 5.9469013 1.8883555 0 0 0 0 32.186192
9.691596 5.8046541 2.8264236 0 0 0 0 32.191139
9.676815 5.9203329 2.5063083 0 0 0 0 32.196083
9.833807 6.1652808 2.2472653 0 0 0 0 32.201031
10.840932 6.9754214 2.1376438 0 0 0 0 32.205978
9.7162228 6.1066666 2.8762002 0 0 0 0 32.210926
10.790247 6.9369535 2.8406336 0 0 0 0 32.215874
10.653543 7.0294423 2.477407 0 0 0 0 32.220818
10.584871 6.9769535 3.1843901 0 0 0 0 32.230713
10.801016 8.79286 3.1131191 0 0 0 0 32.314812
10.605572 11.708471 2.7118881 0 0 0 0 33.129402
11.082708 11.370893 4.0375834 0 0 0 0 33.134346
10.52227 11.686646 3.1358554 0 0 0 0 33.144241
10.574056 12.252428 2.7885015 0 0 0 0 33.149189
11.147118 11.95097 4.1602564 0 0 0 0 33.154137
10.446004 11.651813 3.5388391 0 0 0 0 33.159081
10.501762 12.219619 3.2204885 0 0 0 0 33.164028
10.675325 12.983545 2.9071054 0 0 0 0 33.168976
10.384704 11.627011 3.9698293 0 0 0 0 33.173923
10.4315 12.176794 3.6304853 0 0 0 0 33.178871
10.582077 12.904718 3.3441083 0 0 0 0 33.183819
10.723619 13.700607 3.0226758 0 0 0 0 33.188766
10.369226 12.126994 4.0644941 0 0 0 0 33.19371
10.470894 12.790847 3.7481205 0 0 0 0 33.198658
10.615416 13.576766 3.4626992 0 0 0 0 33.203606
10.427606 12.744073 4.1971459 0 0 0 0 33.213501
10.540203 13.479942 3.8857331 0 0 0 0 33.218445
10.475965 13.388145 4.3337736 0 0 0 0 33.233288
11.55094 15.474198 4.391273 0 0 0 0 33.238235
11.806779 16.585535 4.635766 0 0 0 0 33.258022
11.75285 19.398937 4.0258203 0 0 0 0 33.287704
11.63598 17.061678 5.2693682 0 0 0 0 33.292652
12.282571 20.13092 4.8038263 0 0 0 0 33.302544
11.47833 20.012665 4.1152086 0 0 0 0 33.307491
11.943611 18.356106 5.5877919 0 0 0 0 33.312439
11.399262 19.6919 4.6474094 0 0 0 0 33.322334
12.031084 22.181385 4.5222569 0 0 0 0 33.327282
11.397787 18.379463 5.5173492 0 0 0 0 33.33223
11.44111 20.868019 4.8736959 0 0 0 0 33.342121
11.485991 22.43281 4.5376716 0 0 0 0 33.347069
11.43181 19.370565 5.7377539 0 0 0 0 33.352016
11.309238 20.40016 5.3449521 0 0 0 0 33.356964
11.607592 22.381302 5.1778688 0 0 0 0 33.361908
10.857095 22.505136 4.5181413 0 0 0 0 33.366856
11.251219 20.0494 5.8621912 0 0 0 0 33.371803
11.716258 22.299751 5.7790737 0 0 0 0 33.376751
11.001692 22.467646 5.1523504 0 0 0 0 33.381699
10.242172 22.59749 4.5096149 0 0 0 0 33.386642
11.634341 21.834972 6.3063722 0 0 0 0 33.391594
11.130352 22.402109 5.745563 0 0 0 0 33.396538
10.382832 22.514982 5.120852 0 0 0 0 33.401485
9.6312609 22.677856 4.5021052 0 0 0 0 33.406433
11.285965 22.35162 6.3807878 0 0 0 0 33.411381
10.542464 22.48547 5.7110686 0 0 0 0 33.416328
9.7909431 22.587355 5.0983653 0 0 0 0 33.421272
9.030364 22.745235 4.4926181 0 0 0 0 33.42622
10.710098 22.427982 6.3323097 0 0 0 0 33.431168
9.9635878 22.557846 5.6765943 0 0 0 0 33.436115
9.2110252 22.682749 5.0858784 0 0 0 0 33.441063
8.4384556 22.819635 4.4891386 0 0 0 0 33.446007
10.15023 22.506365 6.2838488 0 0 0 0 33.450954
9.391716 22.624235 5.6431346 0 0 0 0 33.455902
8.6321373 22.749153 5.069416 0 0 0 0 33.46085
7.850543 22.895048 4.4906669 0 0 0 0 33.465797
9.5833902 22.555746 6.2334051 0 0 0 0 33.470741
8.8218374 22.693636 5.6156788 0 0 0 0 33.475693
8.0582399 22.823566 5.0569582 0 0 0 0 33.480637
7.2716331 22.967476 4.4932094 0 0 0 0 33.485584
9.02952 22.629154 6.1939616 0 0 0 0 33.490532
8.2619619 22.758053 5.5892406 0 0 0 0 33.49548
7.4933467 22.890999 5.0475163 0 0 0 0 33.500427
6.6897421 23.020906 4.4947662 0 0 0 0 33.505371
8.4896431 22.709581 6.1565304 0 0 0 0 33.510319
7.703083 22.823483 5.5678058 0 0 0 0 33.515266
6.9334507 22.960442 5.0400825 0 0 0 0 33.520214
6.1248193 23.102365 4.5053244 0 0 0 0 33.525162
7.947763 22.787016 6.125103 0 0 0 0 33.530106
7.1551886 22.902929 5.5503764 0 0 0 0 33.535053
6.375545 23.035898 5.038651 0 0 0 0 33.540001
5.5569 23.177828 4.5188885 0 0 0 0 33.544949
7.4039021 22.847454 6.0906901 0 0 0 0 33.549896
6.6123018 22.972387 5.5349617 0 0 0 0 33.554844
5.8226342 23.115366 5.0402255 0 0 0 0 33.559792
4.9969873 23.247305 4.5314679 0 0 0 0 33.564735
6.8720298 22.915913 6.061286 0 0 0 0 33.569683
6.0644255 23.029848 5.5205555 0 0 0 0 33.574631
5.2717423 23.174839 5.0408196 0 0 0 0 33.579578
4.4320798 23.308784 4.5480528 0 0 0 0 33.584526
6.3402176 22.97505 6.0287876 0 0 0 0 33.35302
5.5305839 23.114931 5.5110016 0 0 0 0 33.357964
4.7209058 23.250851 5.0472202 0 0 0 0 33.362911
3.8762403 23.386732 4.5684094 0 0 0 0 33.367859
5.8113303 23.050491 6.0073638 0 0 0 0 33.372807
4.9966865 23.186384 5.5035806 0 0 0 0 33.377754
4.1770024 23.315311 5.0527992 0 0 0 0 33.382702
3.3213129 23.459202 4.5919776 0 0 0 0 33.38765
5.2874508 23.116943 5.9859557 0 0 0 0 33.392593
4.461802 23.243843 5.4961729 0 0 0 0 33.397541
3.6331055 23.37178 5.0603881 0 0 0 0 33.402489
2.7633913 23.525677 4.6165519 0 0 0 0 33.407436
4.7675672 23.188408 5.9655519 0 0 0 0 33.412384
3.9268966 23.318316 5.4967575 0 0 0 0 33.417328
3.0941777 23.454264 5.0769677 0 0 0 0 33.422276
2.2054536 23.603161 4.6491227 0 0 0 0 33.427223
4.2386727 23.263874 5.9541416 0 0 0 0 33.432171
3.3929918 23.391792 5.4983482 0 0 0 0 33.437119
2.5422683 23.516743 5.0945544 0 0 0 0 33.442062
1.6505404 23.658651 4.6777158 0 0 0 0 33.447014
3.7148108 23.310347 5.9357595 0 0 0 0 33.451958
2.8551109 23.440271 5.4989572 0 0 0 0 33.456905
2.0023489 23.590239 5.1131487 0 0 0 0 33.461853
1.0906119 23.725151 4.7133012 0 0 0 0 33.466801
3.1949239 23.378832 5.9243703 0 0 0 0 33.471748
2.3251979 23.517769 5.5075569 0 0 0 0 33.476692
1.4594429 23.648741 5.1327543 0 0 0 0 33.48164
0.53568017 23.795658 4.7498937 0 0 0 0 33.486588
2.6700418 23.440323 5.9149857 0 0 0 0 33.491535
1.7923009 23.580271 5.5141692 0 0 0 0 33.496483
0.91051322 23.726248 5.1613474 0 0 0 0 33.501427
-0.023253132 23.865171 4.7904873 0 0 0 0 33.506374
2.14816 23.500822 5.9076085 0 0 0 0 33.511322
1.259408 23.637775 5.5217886 0 0 0 0 33.51627
0.36461166 23.778759 5.1839633 0 0 0 0 33.521217
-0.58920348 23.947689 4.8390713 0 0 0 0 33.526165
1.6262515 23.584332 5.9082203 0 0 0 0 33.531113
0.71948737 23.717289 5.5403924 0 0 0 0 33.536057
-0.18331943 23.856283 5.2165656 0 0 0 0 33.541004
-1.1521153 23.995211 4.8796849 0 0 0 0 33.545952
1.1003579 23.652843 5.9078431 0 0 0 0 33.5509
0.17657039 23.791807 5.5610008 0 0 0 0 33.555847
-0.74423635 23.9158 5.2521729 0 0 0 0 33.560791
-1.7270738 24.081739 4.9362679 0 0 0 0 33.565739
0.56348664 23.698349 5.9054756 0 0 0 0 33.570686
-0.36432073 23.842329 5.5766315 0 0 0 0 33.575634
-1.3001601 23.98333 5.288784 0 0 0 0 33.580582
-2.3060186 24.154268 4.9928608 0 0 0 0 33.585526
0.032576516 23.778873 5.9140949 0 0 0 0 33.590473
-0.91324013 23.917856 5.6012435 0 0 0 0 33.595421
-1.8610921 24.058863 5.3283906 0 0 0 0 33.600368
-2.8849573 24.220804 5.0494628 0 0 0 0 33.605316
-0.50531888 23.843399 5.9227228 0 0 0 0 33.610264
-1.4631585 23.991388 5.6278601 0 0 0 0 33.615211
-2.4300139 24.120396 5.3710036 0 0 0 0 33.620155
-3.4729202 24.311344 5.1120467 0 0 0 0 33.625103
-1.045233 23.925932 5.9363422 0 0 0 0 33.630051
-2.0180674 24.053923 5.6554842 0 0 0 0 33.634998
-3.0029519 24.196936 5.4196086 0 0 0 0 33.639946
-4.0628524 24.367886 5.174655 0 0 0 0 33.64489
-1.5881293 23.991465 5.9469743 0 0 0 0 33.649837
-2.5829964 24.13446 5.690093 0 0 0 0 33.654785
-3.5818965 24.278481 5.4722099 0 0 0 0 33.659733
-4.6698136 24.449427 5.2472382 0 0 0 0 33.66468
-2.1400564 24.083004 5.9695873 0 0 0 0 33.669624
-3.1478949 24.184002 5.7207265 0 0 0 0 33.674576
-4.1748466 24.364023 5.5298018 0 0 0 0 33.67952
-5.2777643 24.521971 5.3188314 0 0 0 0 33.684467
