# .PCD v0.7 - Point Cloud Data file format
VERSION 0.7
FIELDS x y z normal_x normal_y normal_z intensity curvature
SIZE 4 4 4 4 4 4 4 4
TYPE F F F F F F F F
COUNT 1 1 1 1 1 1 1 1
WIDTH 978
HEIGHT 1
VIEWPOINT 0 0 0 1 0 0 0
POINTS 978
DATA ascii
-2.9393268 3.4014671 4.1514955 0 0 0 0 33.327576
-2.8632147 3.1785271 4.2085733 0 0 0 0 33.332523
-2.7861197 2.9815907 4.2826447 0 0 0 0 33.337471
-2.6920199 2.7726591 4.3477216 0 0 0 0 33.342415
-3.0162137 3.3264828 4.1365676 0 0 0 0 33.347363
-2.937114 3.1145461 4.2076421 0 0 0 0 33.35231
-2.8450203 2.9136131 4.2747164 0 0 0 0 33.357258
-2.743928 2.7096837 4.3447928 0 0 0 0 33.362206
-3.1031127 3.2645016 4.1396341 0 0 0 0 33.367149
-3.0070136 3.0465686 4.2027125 0 0 0 0 33.372097
-2.9069259 2.8486378 4.2727866 0 0 0 0 33.377045
-2.7978408 2.6487107 4.3488622 0 0 0 0 33.381992
-3.173003 3.1835263 4.1227083 0 0 0 0 33.38694
-3.0739138 2.9745948 4.1957841 0 0 0 0 33.391888
-2.9688349 2.7836657 4.2738566 0 0 0 0 33.396832
-2.8467538 2.5847409 4.3469334 0 0 0 0 33.401779
-3.2488999 3.107554 4.1147795 0 0 0 0 33.406727
-3.14482 2.9066241 4.1968536 0 0 0 0 33.411674
-3.025744 2.7146969 4.269928 0 0 0 0 33.416622
-2.890666 2.5147736 4.338006 0 0 0 0 33.42157
-3.3268025 3.034585 4.1128492 0 0 0 0 33.426514
-3.2107272 2.8346572 4.1939244 0 0 0 0 33.431461
-3.0806558 2.6447315 4.2659998 0 0 0 0 33.436409
-2.9395852 2.4508083 4.3390765 0 0 0 0 33.441357
-3.3977044 2.9546204 4.1049218 0 0 0 0 33.446304
-3.2736359 2.7596939 4.1889963 0 0 0 0 33.451252
-3.1395721 2.5767679 4.2680697 0 0 0 0 33.456196
-2.9885077 2.3878458 4.3441463 0 0 0 0 33.461143
-3.4726112 2.8766587 4.1019931 0 0 0 0 33.466091
-3.3405495 2.6877329 4.1910663 0 0 0 0 33.471039
-3.1934896 2.5058079 4.2661409 0 0 0 0 33.475986
-3.0374329 2.3248854 4.349216 0 0 0 0 33.480934
-3.5425205 2.7967012 4.0980649 0 0 0 0 33.485878
-3.4024642 2.6107757 4.1891384 0 0 0 0 33.490826
-3.2434087 2.4318504 4.2612128 0 0 0 0 33.495773
-3.0853598 2.2589269 4.3532863 0 0 0 0 33.500721
-3.6204357 2.7197464 4.1041346 0 0 0 0 33.505669
-3.4623818 2.5338211 4.1862097 0 0 0 0 33.510612
-3.300334 2.3628953 4.267283 0 0 0 0 33.51556
-3.1262879 2.1909714 4.3523574 0 0 0 0 33.520508
-3.6813486 2.6317961 4.0942087 0 0 0 0 33.525455
-3.5253038 2.4568698 4.1902809 0 0 0 0 33.530403
-3.3512597 2.2889428 4.267354 0 0 0 0 33.535351
-3.1682189 2.1220174 4.3524284 0 0 0 0 33.540295
-3.7502682 2.5488489 4.0972805 0 0 0 0 33.545242
-3.5822277 2.3769217 4.189353 0 0 0 0 33.55019
-3.3981879 2.2129931 4.2654257 0 0 0 0 33.555138
-3.2131541 2.0560658 4.359498 0 0 0 0 33.560085
-3.8201911 2.4649043 4.1003513 0 0 0 0 33.565033
-3.6351535 2.2939758 4.1854253 0 0 0 0 33.569977
-3.4511213 2.1410453 4.2714958 0 0 0 0 33.574924
-3.2520905 1.9861159 4.3595686 0 0 0 0 33.579872
-3.875114 2.3719635 4.0914264 0 0 0 0 33.58482
-3.6930845 2.2140329 4.1904964 0 0 0 0 33.589767
-3.4990563 2.0651002 4.2745671 0 0 0 0 33.594715
-3.2890296 1.915168 4.3586397 0 0 0 0 33.599659
-3.9430444 2.2870255 4.0994968 0 0 0 0 33.604607
-3.7470183 2.1310928 4.1925683 0 0 0 0 33.609554
-3.5439939 1.988157 4.2746382 0 0 0 0 33.614502
-3.3319736 1.8482225 4.3687086 0 0 0 0 33.61945
-4.0009761 2.1940904 4.0985703 0 0 0 0 33.624393
-3.7959545 2.0461547 4.1906409 0 0 0 0 33.629341
-3.5899355 1.9122162 4.2797089 0 0 0 0 33.634289
-3.37392 1.7802783 4.3777771 0 0 0 0 33.639236
-4.0619121 2.1041582 4.1026425 0 0 0 0 33.644184
-3.8548963 1.9642193 4.2017112 0 0 0 0 33.649132
-3.6338799 1.8342774 4.2827797 0 0 0 0 33.654076
-3.4058671 1.7073357 4.3758483 0 0 0 0 33.659023
-4.1168518 2.0102284 4.1037154 0 0 0 0 33.663971
-3.8998389 1.8762863 4.2007837 0 0 0 0 33.668919
-3.675827 1.7543405 4.2858505 0 0 0 0 33.673866
-3.4458191 1.6373951 4.3859177 0 0 0 0 33.678814
-4.1927991 1.9253024 4.1277833 0 0 0 0 33.683758
-3.9467862 1.7883554 4.2038555 0 0 0 0 33.688705
-3.7207787 1.676406 4.2949204 0 0 0 0 33.693653
-3.4797733 1.5654559 4.389987 0 0 0 0 33.698601
-4.2843347 1.8433268 4.1669827 0 0 0 0 33.445969
-3.9972832 1.7014525 4.2120733 0 0 0 0 33.450916
-3.7632525 1.5965657 4.3011479 0 0 0 0 33.455864
-3.5112224 1.4906822 4.3902254 0 0 0 0 33.460808
-4.3652673 1.7563877 4.2000518 0 0 0 0 33.465755
-4.0432138 1.6125139 4.2181473 0 0 0 0 33.470703
-3.7981863 1.5126246 4.3022223 0 0 0 0 33.475651
-3.5441632 1.4177374 4.396297 0 0 0 0 33.480598
-4.415195 1.656456 4.2051282 0 0 0 0 33.485546
-4.0831466 1.5205781 4.2202234 0 0 0 0 33.49049
-3.8401265 1.4326847 4.3122945 0 0 0 0 33.495438
-3.5811086 1.3467939 4.4093676 0 0 0 0 33.500385
-4.4611259 1.5535272 4.2082052 0 0 0 0 33.505333
-4.1290855 1.4316438 4.2302961 0 0 0 0 33.510281
-3.8730679 1.3487475 4.3153682 0 0 0 0 33.515224
-3.6070535 1.2708528 4.41044 0 0 0 0 33.520172
-4.5140619 1.4516 4.2202806 0 0 0 0 33.52512
-4.1710277 1.3397123 4.2393703 0 0 0 0 33.530067
-3.9040124 1.2638123 4.3184419 0 0 0 0 33.535015
-3.6370027 1.1959125 4.4165115 0 0 0 0 33.539963
-4.5610023 1.3486758 4.2303557 0 0 0 0 33.544907
-4.2169738 1.2487823 4.2544432 0 0 0 0 33.549854
-3.941962 1.180878 4.3305135 0 0 0 0 33.554802
-3.6669555 1.1209741 4.4255824 0 0 0 0 33.55975
-4.5999446 1.2417544 4.2344332 0 0 0 0 33.564697
-4.2759271 1.160854 4.2845125 0 0 0 0 33.569645
-3.9719136 1.0959458 4.3355865 0 0 0 0 33.574589
-3.6869094 1.0440371 4.424655 0 0 0 0 33.579536
-4.6508946 1.1378345 4.2525067 0 0 0 0 33.584484
-4.3108788 1.0649289 4.2925873 0 0 0 0 33.589432
-4.0038691 1.0100154 4.3456593 0 0 0 0 33.594379
-3.7218697 0.97010112 4.4417238 0 0 0 0 33.599327
-4.6018305 1.0109202 4.1815996 0 0 0 0 33.604271
-4.3138289 0.96100605 4.271667 0 0 0 0 33.609219
-4.0398297 0.92508632 4.3607302 0 0 0 0 33.614166
-3.7468312 0.89316666 4.4497943 0 0 0 0 33.619114
-4.6327872 0.90300363 4.187676 0 0 0 0 33.624062
-4.3527904 0.86608374 4.2877393 0 0 0 0 33.629005
-4.0677919 0.83815879 4.369802 0 0 0 0 33.633953
-3.7707956 0.81523317 4.4568648 0 0 0 0 33.638901
-4.6747494 0.7970885 4.2047496 0 0 0 0 33.643848
-4.3787527 0.76716322 4.2938137 0 0 0 0 33.648796
-4.0967584 0.75023252 4.3808737 0 0 0 0 33.653744
-3.7927632 0.73730087 4.4639359 0 0 0 0 33.658688
-4.7197175 0.69017577 4.2288222 0 0 0 0 33.663635
-4.4167228 0.67024451 4.3148851 0 0 0 0 33.668583
-4.1237283 0.66230774 4.3929448 0 0 0 0 33.673531
-3.8157344 0.65936989 4.4750051 0 0 0 0 33.678478
-4.7426867 0.578264 4.2338986 0 0 0 0 33.683426
-4.4466949 0.57132697 4.3289576 0 0 0 0 33.68837
-4.1447005 0.57238382 4.4000168 0 0 0 0 33.693317
-3.8367083 0.58043951 4.4830747 0 0 0 0 33.698265
-4.7706614 0.46735394 4.246973 0 0 0 0 33.703213
-4.4696703 0.4704105 4.3390312 0 0 0 0 33.70816
-4.1676774 0.48246121 4.4120879 0 0 0 0 33.713108
-3.8566856 0.50051033 4.4931445 0 0 0 0 33.718052
-4.7966409 0.35544515 4.2610474 0 0 0 0 33.723
-4.4936509 0.36949524 4.3521037 0 0 0 0 33.727947
-4.1936584 0.39153993 4.4281578 0 0 0 0 33.732895
-3.8756666 0.42058203 4.5042138 0 0 0 0 33.737843
-4.8196244 0.24353731 4.2741213 0 0 0 0 33.742786
-4.5166349 0.26758108 4.3661757 0 0 0 0 33.747734
-4.2116427 0.30061898 4.4382286 0 0 0 0 33.752682
-3.8926504 0.33965406 4.5122828 0 0 0 0 33.757629
-4.8396134 0.12963051 4.2881951 0 0 0 0 33.762577
-4.5376244 0.16466804 4.382247 0 0 0 0 33.767525
-4.2296309 0.20869894 4.4502988 0 0 0 0 33.772469
-3.911638 0.25872752 4.526351 0 0 0 0 33.777416
-4.8646069 0.014725214 4.3082676 0 0 0 0 33.782364
-4.5526161 0.061755024 4.3933191 0 0 0 0 33.787312
-4.2536235 0.11578082 4.4713678 0 0 0 0 33.792259
-3.9296288 0.17680156 4.5394187 0 0 0 0 33.797207
-4.5696135 -0.041156653 4.4103899 0 0 0 0 33.807098
-4.2666192 0.022861877 4.4824376 0 0 0 0 33.812046
-3.9416227 0.09387546 4.5484867 0 0 0 0 33.816994
-0.28505901 -0.011800515 0.25399703 0 0 0 0 33.821941
-4.5866156 -0.1460675 4.4294605 0 0 0 0 33.826889
-4.2856193 -0.071055301 4.5015059 0 0 0 0 33.831833
-3.9616213 0.010951482 4.5675535 0 0 0 0 33.836781
-4.603622 -0.25097767 4.4495301 0 0 0 0 33.846676
-4.2986231 -0.16597275 4.5165749 0 0 0 0 33.851624
-3.9736223 -0.071973287 4.5796208 0 0 0 0 33.856567
-0.29306257 -0.025773861 0.26210284 0 0 0 0 33.861515
-4.6046309 -0.35689017 4.4576015 0 0 0 0 33.866463
-4.3056302 -0.26089084 4.5276442 0 0 0 0 33.87141
-3.9876273 -0.15589699 4.5956874 0 0 0 0 33.876358
-4.6256475 -0.46579808 4.48667 0 0 0 0 33.88625
-4.3206429 -0.35680661 4.5497112 0 0 0 0 33.891197
-3.9996359 -0.24182048 4.6117539 0 0 0 0 33.896145
-0.28706571 -0.039749768 0.25821024 0 0 0 0 33.901093
-4.6346669 -0.57270777 4.5077391 0 0 0 0 33.90604
-4.3276587 -0.45372373 4.5647793 0 0 0 0 33.910988
-4.0176492 -0.32774189 4.6358194 0 0 0 0 33.915932
-4.6346164 -0.68057352 4.5211706 0 0 0 0 33.708584
-4.3356352 -0.55252397 4.58321 0 0 0 0 33.713528
-0.28805459 -0.053862035 0.26074037 0 0 0 0 33.723423
-4.6446218 -0.7914834 4.5482421 0 0 0 0 33.728371
-4.6476307 -0.90039343 4.5713143 0 0 0 0 33.748158
-0.2850574 -0.066836886 0.26084745 0 0 0 0 33.763
-0.29506409 -0.070816979 0.29391214 0 0 0 0 33.787735
-0.27206019 -0.077813268 0.25295541 0 0 0 0 33.802574
-0.35407856 -0.08478824 0.38197157 0 0 0 0 33.812469
-0.30407029 -0.087789781 0.30701783 0 0 0 0 33.827309
-0.26306441 -0.088789858 0.24906258 0 0 0 0 33.842152
-0.34108213 -0.097763464 0.37207967 0 0 0 0 33.852047
-0.30007586 -0.10176472 0.30712467 0 0 0 0 33.866886
-0.25706995 -0.09976647 0.24816915 0 0 0 0 33.881729
-0.32608658 -0.10973998 0.3611877 0 0 0 0 33.891621
-0.3220875 -0.12573341 0.33622915 0 0 0 0 33.906464
-0.25107655 -0.11174358 0.24727564 0 0 0 0 33.921303
-0.32009336 -0.12271521 0.35929444 0 0 0 0 33.931198
-0.32009649 -0.14170742 0.34033546 0 0 0 0 33.946037
-0.27108985 -0.13571347 0.27437994 0 0 0 0 33.96088
-0.30710003 -0.13369299 0.35040155 0 0 0 0 33.970772
-0.31510636 -0.15668249 0.34244186 0 0 0 0 33.985615
-0.3141118 -0.1766745 0.32648283 0 0 0 0 34.000454
-0.30511045 -0.14966781 0.35550761 0 0 0 0 34.010349
-0.31211829 -0.17365721 0.34754789 0 0 0 0 34.025188
-0.31512624 -0.19664772 0.3365885 0 0 0 0 34.040031
-0.30112165 -0.1646436 0.35861355 0 0 0 0 34.049927
-0.30813166 -0.19063251 0.35365382 0 0 0 0 34.064766
-0.32314539 -0.22261798 0.35769355 0 0 0 0 34.079609
-0.29413313 -0.17762096 0.35871941 0 0 0 0 34.0895
-3.9304712 -2.8511035 4.4065437 0 0 0 0 34.099396
-3.9124422 -2.6680782 4.6025453 0 0 0 0 34.104343
-3.8845639 -2.9560454 4.4376044 0 0 0 0 34.119183
-3.7944996 -2.7140539 4.5366101 0 0 0 0 34.12413
-0.28914669 -0.19259797 0.36182499 0 0 0 0 34.129078
-3.7045696 -2.7780209 4.5046725 0 0 0 0 34.143917
-3.7765596 -2.6479592 4.7796693 0 0 0 0 34.148865
-0.29117206 -0.24357961 0.34890574 0 0 0 0 34.15876
-4.1828938 -3.2857203 5.1787028 0 0 0 0 34.163708
-3.6616161 -2.6899424 4.7047329 0 0 0 0 34.168652
-3.5713193 -2.7473965 4.6624317 0 0 0 0 34.041363
-3.6643252 -2.6033297 4.9694223 0 0 0 0 34.04631
-0.26214036 -0.24065641 0.32762733 0 0 0 0 34.051258
-0.27514359 -0.2366475 0.3556385 0 0 0 0 34.056202
-3.9525623 -3.1811736 5.2464714 0 0 0 0 34.06115
-3.5713799 -2.6552973 4.9094858 0 0 0 0 34.066097
-3.8926516 -3.2781217 5.258533 0 0 0 0 34.080936
-3.5074484 -2.7292557 4.8895469 0 0 0 0 34.085884
-3.7346458 -3.039088 5.2865925 0 0 0 0 34.105675
-3.7027447 -3.1510317 5.3246512 0 0 0 0 34.125462
-3.6508389 -3.2459862 5.33671 0 0 0 0 34.145248
-3.5929353 -3.3379457 5.344768 0 0 0 0 34.165039
-2.8312213 -3.6561286 4.5330176 0 0 0 0 34.234295
-2.8953183 -3.6370249 4.7660656 0 0 0 0 34.259029
-2.9942639 -3.4679556 4.9270616 0 0 0 0 34.263977
-2.9593952 -3.5859203 4.986114 0 0 0 0 34.283764
-1.0608511 -3.8332431 3.8621821 0 0 0 0 35.212711
-0.97494239 -3.8453584 3.8632209 0 0 0 0 35.232498
-0.89406967 -3.8804729 3.8882563 0 0 0 0 35.252289
-0.80413115 -3.8725994 3.872297 0 0 0 0 35.272076
-0.93807578 -3.8253932 3.9163139 0 0 0 0 35.277023
-0.73132354 -3.9477143 3.9403255 0 0 0 0 35.291862
-0.85317081 -3.839515 3.9133515 0 0 0 0 35.29681
-0.64643556 -3.970845 3.9593606 0 0 0 0 35.311653
-0.77129209 -3.869638 3.9273865 0 0 0 0 35.316597
-0.50489044 -3.5870085 3.5744581 0 0 0 0 35.33144
-0.69042426 -3.9057643 3.9524198 0 0 0 0 35.336388
-0.81033987 -3.8425641 3.9374404 0 0 0 0 35.341331
-0.42595893 -3.5871332 3.5734978 0 0 0 0 35.351227
-0.60956931 -3.9488952 3.9834516 0 0 0 0 35.356174
-0.72644776 -3.863693 3.9374762 0 0 0 0 35.361122
-0.85941595 -3.8334732 3.955492 0 0 0 0 35.36607
-0.34701416 -3.5792601 3.5685382 0 0 0 0 35.371014
-0.52265793 -3.9570343 3.9814885 0 0 0 0 35.375961
-0.64660805 -3.9158237 3.969506 0 0 0 0 35.380909
-0.77050263 -3.8416076 3.9315295 0 0 0 0 35.385857
-0.26907247 -3.5733893 3.5655782 0 0 0 0 35.390804
-0.39310417 -3.582185 3.5975881 0 0 0 0 35.395752
-0.56375355 -3.957962 3.9935374 0 0 0 0 35.400696
-0.68966895 -3.8967404 3.9575589 0 0 0 0 35.405643
-0.19213559 -3.5705206 3.5666173 0 0 0 0 35.410591
-0.31416243 -3.5763156 3.586628 0 0 0 0 35.415539
-0.43527618 -3.6331186 3.6506298 0 0 0 0 35.420486
-0.60683233 -3.9488802 3.9835882 0 0 0 0 35.425434
-0.11521053 -3.5746567 3.5766551 0 0 0 0 35.430378
-0.23521703 -3.5684493 3.5746677 0 0 0 0 35.435326
-0.34825283 -3.5792546 3.5836778 0 0 0 0 35.440273
-0.46829382 -3.5930483 3.600687 0 0 0 0 35.445221
-0.039292507 -3.5827951 3.5926919 0 0 0 0 35.450169
-0.15727304 -3.5615852 3.5667074 0 0 0 0 35.455112
-0.26730919 -3.572392 3.5657175 0 0 0 0 35.46006
-0.38331568 -3.5661852 3.5537305 0 0 0 0 35.465008
0.035641029 -3.581934 3.6017296 0 0 0 0 35.469955
-0.080356851 -3.5707254 3.5757439 0 0 0 0 35.474903
-0.18837236 -3.56953 3.5527561 0 0 0 0 35.479851
-0.30138066 -3.5643253 3.5327692 0 0 0 0 35.484795
0.11256052 -3.5890813 3.619766 0 0 0 0 35.489742
-0.0034391915 -3.5788686 3.58478 0 0 0 0 35.49469
-0.10945138 -3.5756733 3.5517926 0 0 0 0 35.499638
-0.21947418 -3.5784714 3.5288045 0 0 0 0 35.504585
0.18948336 -3.5942318 3.6378024 0 0 0 0 35.509533
0.073487163 -3.5820148 3.590817 0 0 0 0 35.514477
-0.02954144 -3.5878227 3.556828 0 0 0 0 35.519424
-0.13855198 -3.5836179 3.5188413 0 0 0 0 35.524372
0.2654278 -3.5873814 3.6448407 0 0 0 0 35.52932
0.15140077 -3.5921676 3.6058524 0 0 0 0 35.534267
0.049377162 -3.5949733 3.559864 0 0 0 0 35.539215
-0.056646351 -3.5977716 3.519876 0 0 0 0 35.544159
0.3423306 -3.6035411 3.6768742 0 0 0 0 35.549107
0.23033053 -3.5933242 3.6128888 0 0 0 0 35.554054
0.12929188 -3.60413 3.5668991 0 0 0 0 35.559002
0.024236649 -3.6239295 3.5339079 0 0 0 0 35.56395
0.41927347 -3.5977004 3.6889117 0 0 0 0 35.568893
0.30824924 -3.6004839 3.6289239 0 0 0 0 35.573841
0.2102007 -3.6162922 3.5779331 0 0 0 0 35.578789
0.10715026 -3.6330914 3.5329425 0 0 0 0 35.583736
0.49620923 -3.5958643 3.7069483 0 0 0 0 35.588684
0.38816398 -3.6096513 3.6469584 0 0 0 0 35.593632
0.29210725 -3.6294608 3.5919666 0 0 0 0 35.598576
0.19204289 -3.6532633 3.5439746 0 0 0 0 35.603523
0.57512635 -3.6040373 3.7359824 0 0 0 0 35.608471
0.46708605 -3.61482 3.6639931 0 0 0 0 35.613419
0.37402284 -3.6376324 3.6030009 0 0 0 0 35.618366
0.2779291 -3.6764417 3.5610056 0 0 0 0 35.623314
0.65206611 -3.600208 3.7560186 0 0 0 0 35.628258
0.54801559 -3.6159952 3.6780286 0 0 0 0 35.633205
0.45792097 -3.6548131 3.6240327 0 0 0 0 35.638153
0.36481449 -3.6996257 3.579036 0 0 0 0 35.643101
0.73283583 -3.6071265 3.7875826 0 0 0 0 35.40205
0.62978882 -3.6239421 3.7015905 0 0 0 0 35.406998
0.54270768 -3.6607871 3.6355948 0 0 0 0 35.411945
0.45359898 -3.7136312 3.5905967 0 0 0 0 35.416893
0.81176424 -3.6092885 3.815619 0 0 0 0 35.421841
0.71171319 -3.6281056 3.7216265 0 0 0 0 35.426785
0.62762588 -3.6679533 3.6506302 0 0 0 0 35.431732
0.54447973 -3.7418079 3.6166282 0 0 0 0 35.43668
0.89169616 -3.6094553 3.8436551 0 0 0 0 35.441628
0.79363745 -3.632273 3.7436624 0 0 0 0 35.446575
0.71452999 -3.6831284 3.6756639 0 0 0 0 35.451523
0.63735771 -3.7709932 3.6466591 0 0 0 0 35.456467
0.97162819 -3.6096263 3.874691 0 0 0 0 35.461414
0.87557393 -3.6294432 3.7616987 0 0 0 0 35.466362
0.80144763 -3.6903059 3.6946986 0 0 0 0 35.47131
0.73323822 -3.7981875 3.6766896 0 0 0 0 35.476257
1.0525587 -3.6108029 3.9087269 0 0 0 0 35.481205
0.96148765 -3.6396267 3.7947326 0 0 0 0 35.486149
0.89035976 -3.7004919 3.7187321 0 0 0 0 35.491096
0.83010882 -3.8303893 3.7137189 0 0 0 0 35.496044
1.1354909 -3.6109869 3.9427621 0 0 0 0 35.500992
1.041442 -3.6267991 3.8047705 0 0 0 0 35.505939
0.98325372 -3.7206917 3.7557635 0 0 0 0 35.510887
0.97167152 -4.0337086 3.918714 0 0 0 0 35.515831
1.2184162 -3.6151755 3.9817965 0 0 0 0 35.520779
1.1283612 -3.633992 3.8388045 0 0 0 0 35.525726
1.0741724 -3.7268891 3.7797971 0 0 0 0 35.530674
1.0566925 -3.9798832 3.877758 0 0 0 0 35.535622
1.3063325 -3.6243789 4.0308294 0 0 0 0 35.540565
1.2182765 -3.6431952 3.8768373 0 0 0 0 35.545513
1.1641055 -3.7250879 3.7988317 0 0 0 0 35.550461
1.3902705 -3.6215765 4.0678644 0 0 0 0 35.560356
1.3062099 -3.6423969 3.9058716 0 0 0 0 35.565304
1.2600111 -3.7383049 3.8348632 0 0 0 0 35.570248
1.4772015 -3.6227849 4.1118979 0 0 0 0 35.580143
1.395138 -3.6446052 3.9399052 0 0 0 0 35.585091
1.3539424 -3.7375195 3.8578968 0 0 0 0 35.590038
1.5621476 -3.6159921 4.1489334 0 0 0 0 35.59993
1.4840795 -3.6398165 3.9699399 0 0 0 0 35.604877
1.4478741 -3.7367394 3.8849304 0 0 0 0 35.609825
1.8353206 -4.0196648 4.663877 0 0 0 0 35.61972
1.5750136 -3.6390369 4.0059733 0 0 0 0 35.624668
1.5428115 -3.7329648 3.9099638 0 0 0 0 35.629612
1.9183154 -3.983876 4.6759162 0 0 0 0 35.639507
1.6689442 -3.6402683 4.0470061 0 0 0 0 35.644455
1.6407455 -3.7312012 3.9409969 0 0 0 0 35.649403
2.0082889 -3.9601083 4.7059526 0 0 0 0 35.659294
1.7628808 -3.6385036 4.087039 0 0 0 0 35.664242
1.7366914 -3.7234368 3.9660306 0 0 0 0 35.669189
2.0972693 -3.9333417 4.7329893 0 0 0 0 35.679085
1.8608119 -3.6397526 4.1340709 0 0 0 0 35.684029
1.8366319 -3.7186863 3.9990633 0 0 0 0 35.688976
1.9281542 -3.4449365 4.201138 0 0 0 0 35.698872
1.959749 -3.6380076 4.1791029 0 0 0 0 35.703819
1.9365788 -3.7109396 4.0300965 0 0 0 0 35.708767
1.993189 -3.3961151 4.1981826 0 0 0 0 35.718658
1.9620279 -3.4640257 4.0271773 0 0 0 0 35.723606
2.0205901 -3.6711578 4.0291371 0 0 0 0 35.728554
2.0592198 -3.3502998 4.2012267 0 0 0 0 35.738449
2.042033 -3.4302402 4.0392179 0 0 0 0 35.743393
2.0139222 -3.472152 3.8542185 0 0 0 0 35.748341
2.0386138 -3.6121986 3.7821941 0 0 0 0 35.753288
2.1382103 -3.3255205 4.2312651 0 0 0 0 35.758236
2.1100719 -3.3804288 4.0322628 0 0 0 0 35.763184
2.1068974 -3.4533992 3.8802547 0 0 0 0 35.768127
2.0807874 -3.4943149 3.6982553 0 0 0 0 35.773075
2.2241838 -3.3097627 4.2763009 0 0 0 0 35.778023
2.191076 -3.3486531 4.0493026 0 0 0 0 35.78297
2.1819386 -3.4026048 3.871299 0 0 0 0 35.787918
2.17677 -3.47157 3.7162919 0 0 0 0 35.792866
2.3011911 -3.2779849 4.3013411 0 0 0 0 35.79781
2.2930224 -3.3459346 4.1053343 0 0 0 0 35.802757
2.2729306 -3.3768544 3.8933368 0 0 0 0 35.807705
2.2737622 -3.4448309 3.7323291 0 0 0 0 35.812653
2.4290574 -3.3153419 4.4213614 0 0 0 0 35.8176
2.3909876 -3.3342099 4.1523676 0 0 0 0 35.822548
2.373899 -3.3631337 3.9323707 0 0 0 0 35.827492
2.3757432 -3.424109 3.7593646 0 0 0 0 35.832439
2.521035 -3.2986112 4.4723969 0 0 0 0 35.837387
2.5099037 -3.3465433 4.2333946 0 0 0 0 35.842335
2.5057902 -3.3864958 4.0183935 0 0 0 0 35.847282
2.4787316 -3.400394 3.7854004 0 0 0 0 35.85223
2.622993 -3.2919104 4.5414286 0 0 0 0 35.857174
2.6068892 -3.3258247 4.2764297 0 0 0 0 35.862122
2.6217384 -3.3828225 4.0774236 0 0 0 0 35.867069
2.6196215 -3.4237802 3.8674221 0 0 0 0 35.872017
2.7187274 -3.272382 4.5970216 0 0 0 0 35.629719
2.7625139 -3.3714442 4.410008 0 0 0 0 35.634666
2.7354908 -3.3703492 4.1300178 0 0 0 0 35.639614
2.7353973 -3.4063182 3.909019 0 0 0 0 35.644558
2.7997425 -3.2346127 4.6300621 0 0 0 0 35.649506
2.8136129 -3.2886031 4.3790588 0 0 0 0 35.654453
2.8334954 -3.3366117 4.1580563 0 0 0 0 35.659401
2.8823025 -3.4236894 3.9950447 0 0 0 0 35.664349
2.9156883 -3.2339277 4.7180929 0 0 0 0 35.669292
2.9265783 -3.2769074 4.4450922 0 0 0 0 35.67424
2.9544573 -3.3259315 4.2210894 0 0 0 0 35.679188
2.9783359 -3.3749497 4.0080862 0 0 0 0 35.684135
3.0266521 -3.2242365 4.7981267 0 0 0 0 35.689083
3.0485346 -3.2702379 4.5231242 0 0 0 0 35.694031
3.0844102 -3.3202772 4.2941203 0 0 0 0 35.698975
3.1162853 -3.3703113 4.0771165 0 0 0 0 35.703922
3.1446109 -3.2175667 4.8871579 0 0 0 0 35.70887
3.1904602 -3.2796199 4.627151 0 0 0 0 35.713818
3.2203636 -3.3146424 4.3731503 0 0 0 0 35.718765
3.2602353 -3.3656921 4.1521459 0 0 0 0 35.723713
3.2635765 -3.2079046 4.97719 0 0 0 0 35.728657
3.3184259 -3.2689753 4.7091823 0 0 0 0 35.733604
3.366308 -3.3140366 4.4641786 0 0 0 0 35.738552
3.4181719 -3.3681118 4.2411723 0 0 0 0 35.7435
3.3855467 -3.1962543 5.068222 0 0 0 0 35.748447
3.4563823 -3.26336 4.805212 0 0 0 0 35.753395
3.5192549 -3.3124537 4.5602059 0 0 0 0 35.758339
3.5691376 -3.3565218 4.3212023 0 0 0 0 35.763287
3.5873821 -3.2528038 5.278234 0 0 0 0 35.768234
3.6612329 -3.3109112 4.988225 0 0 0 0 35.773182
3.7301075 -3.3580158 4.7302194 0 0 0 0 35.77813
3.7979739 -3.4091229 4.4902124 0 0 0 0 35.783073
3.7213554 -3.2401958 5.3822646 0 0 0 0 35.788021
3.8121943 -3.3033409 5.0962534 0 0 0 0 35.792969
3.8950634 -3.3524764 4.8372459 0 0 0 0 35.797916
3.9619486 -3.3935783 4.5792408 0 0 0 0 35.802864
3.8283832 -3.2015271 5.4483023 0 0 0 0 35.807812
3.9402082 -3.2707207 5.1712885 0 0 0 0 35.812756
4.0410676 -3.3238974 4.9182787 0 0 0 0 35.817703
4.1309309 -3.3750527 4.6722698 0 0 0 0 35.822651
4.0003147 -3.2110248 5.6053247 0 0 0 0 35.827599
4.1091685 -3.2652073 5.2993145 0 0 0 0 35.832546
4.2020617 -3.3013618 5.0173087 0 0 0 0 35.837494
4.3049207 -3.3535466 4.7692986 0 0 0 0 35.842438
6.6332231 -4.0258174 6.7111373 0 0 0 0 35.94138
6.2938805 -3.7355874 8.0222702 0 0 0 0 35.966114
5.8253584 -2.9997051 7.1865911 0 0 0 0 36.025478
9.7230453 -4.450583 9.1659269 0 0 0 0 36.040318
6.0943666 -2.9835536 7.4426069 0 0 0 0 36.045265
9.7725601 -4.2009087 9.103013 0 0 0 0 36.060108
6.4053535 -2.978529 7.7466164 0 0 0 0 36.065056
6.8412261 -3.0195389 7.49858 0 0 0 0 36.07
9.7661285 -3.9320881 8.9961119 0 0 0 0 36.079895
6.5944915 -2.9061818 7.8996534 0 0 0 0 36.084843
7.1672854 -2.9835684 7.7785945 0 0 0 0 36.08979
7.9489145 -3.1365364 7.8954978 0 0 0 0 36.094738
9.7836771 -3.6763332 8.9172058 0 0 0 0 36.099682
6.8767366 -2.8654764 8.1645613 0 0 0 0 36.029011
7.5964789 -2.9712136 8.1664886 0 0 0 0 36.033958
8.1094103 -2.990416 7.9774537 0 0 0 0 36.038906
9.2148819 -3.2201757 8.3163166 0 0 0 0 36.04385
6.9350209 -2.726778 8.1636257 0 0 0 0 36.048798
7.9206095 -2.9052403 8.4385109 0 0 0 0 36.053745
8.7053967 -2.9921701 8.4864368 0 0 0 0 36.058693
9.3722839 -3.0317819 8.3803825 0 0 0 0 36.063641
6.9813223 -2.5830498 8.1516933 0 0 0 0 36.068584
7.9789729 -2.7345636 8.4295835 0 0 0 0 36.073532
9.1065855 -2.904428 8.8014574 0 0 0 0 36.07848
10.10033 -3.0119185 8.9553585 0 0 0 0 36.083427
7.0056448 -2.4322641 8.1177664 0 0 0 0 36.088375
8.0333452 -2.5628796 8.4206581 0 0 0 0 36.093323
9.1310577 -2.6896851 8.7555447 0 0 0 0 36.098267
10.37973 -2.8338809 9.1294127 0 0 0 0 36.103214
7.0469575 -2.288527 8.1058369 0 0 0 0 36.108162
8.0567455 -2.3821132 8.3817387 0 0 0 0 36.11311
9.1705284 -2.479986 8.7296295 0 0 0 0 36.118057
10.401303 -2.5811586 9.08251 0 0 0 0 36.123005
7.0523005 -2.1336913 8.0539141 0 0 0 0 36.127949
8.0731544 -2.2003293 8.3398199 0 0 0 0 36.132896
9.1760244 -2.2621951 8.6737223 0 0 0 0 36.137844
10.411883 -2.3294089 9.0326099 0 0 0 0 36.142792
7.0796342 -1.9859189 8.0319881 0 0 0 0 36.147739
8.089572 -2.0185473 8.3019037 0 0 0 0 36.152687
9.1975145 -2.0514507 8.6398115 0 0 0 0 36.157631
10.420472 -2.0786545 8.9837103 0 0 0 0 36.162579
7.3958158 -1.9129688 8.3370171 0 0 0 0 36.167526
8.437829 -1.9157012 8.6079378 0 0 0 0 36.172474
9.5448771 -1.9056189 8.914856 0 0 0 0 36.177422
10.424068 -1.8288884 8.9378138 0 0 0 0 36.182365
7.4271717 -1.7612177 8.322093 0 0 0 0 36.187313
8.4442768 -1.7269008 8.5640249 0 0 0 0 36.192261
9.5534029 -1.6868492 8.8759518 0 0 0 0 36.197208
10.396681 -1.5760375 8.8719215 0 0 0 0 36.202156
7.4365444 -1.6044058 8.2871733 0 0 0 0 36.207104
8.4567204 -1.5431197 8.5331135 0 0 0 0 36.212048
9.5529375 -1.4680557 8.8340492 0 0 0 0 36.216995
10.360293 -1.3271617 8.8050308 0 0 0 0 36.221943
7.4289279 -1.4455453 8.2362576 0 0 0 0 36.226891
8.4491825 -1.3542823 8.4852057 0 0 0 0 36.231838
9.5334826 -1.2482096 8.7811508 0 0 0 0 36.236786
10.347908 -1.082353 8.7611399 0 0 0 0 36.24173
7.4523048 -1.2927755 8.2203379 0 0 0 0 36.246677
8.4646435 -1.1705123 8.4642954 0 0 0 0 36.251625
9.5330296 -1.0314176 8.7472515 0 0 0 0 36.256573
10.288534 -0.83541149 8.6862545 0 0 0 0 36.26152
7.4676929 -1.1379844 8.2004213 0 0 0 0 36.266468
8.4431124 -0.98463577 8.4103909 0 0 0 0 36.271412
9.4825888 -0.81248218 8.6743593 0 0 0 0 36.27636
10.249159 -0.59352553 8.6303673 0 0 0 0 36.281307
7.4730868 -0.98316467 8.1715059 0 0 0 0 36.286255
8.431591 -0.79878843 8.3694859 0 0 0 0 36.291203
9.4631481 -0.59763652 8.6344643 0 0 0 0 36.296146
10.185784 -0.3545703 8.5624838 0 0 0 0 36.301094
7.45749 -0.8262825 8.1215944 0 0 0 0 36.306042
8.4180717 -0.61493605 8.3315821 0 0 0 0 36.310989
9.3977127 -0.38265494 8.5555744 0 0 0 0 36.315937
10.071412 -0.11746387 8.4566069 0 0 0 0 36.320885
7.4508986 -0.67042828 8.0866833 0 0 0 0 36.325829
8.3945551 -0.43305376 8.2866802 0 0 0 0 36.330776
9.362277 -0.17276125 8.5096827 0 0 0 0 36.335724
10.009037 0.11349272 8.3987255 0 0 0 0 36.340672
7.4373102 -0.51555318 8.046773 0 0 0 0 36.345619
8.359046 -0.25013563 8.2347813 0 0 0 0 36.350567
9.2988405 0.035216413 8.4437952 0 0 0 0 36.355511
9.9296646 0.34250155 8.3308458 0 0 0 0 36.360458
7.3957253 -0.36059189 7.9788675 0 0 0 0 36.365406
8.3295412 -0.069234617 8.1908827 0 0 0 0 36.370354
9.2314072 0.24120764 8.3789082 0 0 0 0 36.375301
9.9313107 0.57226849 8.3369598 0 0 0 0 36.380249
7.3581471 -0.20564209 7.9189625 0 0 0 0 36.385193
8.3270369 0.10858355 8.1779814 0 0 0 0 36.390141
9.1709785 0.44518024 8.3220215 0 0 0 0 36.395088
9.9189644 0.8010757 8.3370781 0 0 0 0 36.400036
7.2985678 -0.05262227 7.8370605 0 0 0 0 36.404984
8.238534 0.28666627 8.0850916 0 0 0 0 36.409927
9.1025505 0.64617813 8.2641363 0 0 0 0 36.414875
9.9446411 1.0337663 8.3721943 0 0 0 0 36.419823
7.0949597 0.093851633 7.6051726 0 0 0 0 36.42477
8.200036 0.46259648 8.0441952 0 0 0 0 36.429718
9.0291176 0.84319347 8.2052526 0 0 0 0 36.434666
9.876298 1.2587429 8.3343191 0 0 0 0 36.43961
7.1694026 0.24445409 7.6742578 0 0 0 0 36.444557
8.1765471 0.63847995 8.0223007 0 0 0 0 36.449505
8.9336815 1.0362794 8.1303711 0 0 0 0 36.454453
9.7819405 1.4758018 8.2784472 0 0 0 0 36.4594
7.0598083 0.3876394 7.5483613 0 0 0 0 36.464348
8.0890408 0.80756611 7.9404111 0 0 0 0 36.469292
8.8512478 1.2273269 8.0734892 0 0 0 0 36.474239
9.6425562 1.6820043 8.1885767 0 0 0 0 36.479187
7.0192332 0.5326072 7.4994597 0 0 0 0 36.484135
8.0495539 0.97950184 7.9095182 0 0 0 0 36.489082
8.7688169 1.4163774 8.0186081 0 0 0 0 36.49403
9.4481335 1.873385 8.0567102 0 0 0 0 36.498974
6.9985604 0.67303067 7.4769573 0 0 0 0 37.166134
7.988306 1.1432996 7.8610268 0 0 0 0 37.171082
8.6829386 1.5947423 7.9631376 0 0 0 0 37.176029
9.02635 1.9995878 7.7332873 0 0 0 0 37.180977
6.9730978 0.81797218 7.4490752 0 0 0 0 37.185925
7.9249268 1.3093646 7.8131614 0 0 0 0 37.190868
8.5816212 1.7759362 7.8992872 0 0 0 0 37.195816
8.9000616 2.1868672 7.6654453 0 0 0 0 37.200764
6.9426379 0.96193427 7.4181943 0 0 0 0 37.205711
7.8525457 1.4734675 7.7592983 0 0 0 0 37.210659
8.3641806 1.926603 7.7314439 0 0 0 0 37.215607
8.7507458 2.3652437 7.5806046 0 0 0 0 37.220551
6.8971777 1.1049569 7.377317 0 0 0 0 37.225498
7.7741599 1.6345967 7.7034359 0 0 0 0 37.230446
8.0516119 2.0446665 7.476603 0 0 0 0 37.235394
8.649477 2.5524299 7.5427618 0 0 0 0 37.240341
6.8547201 1.2469692 7.3394399 0 0 0 0 37.245289
7.696774 1.7937233 7.6525745 0 0 0 0 37.250233
7.9382401 2.2059271 7.4107499 0 0 0 0 37.25518
8.499136 2.7198193 7.4639196 0 0 0 0 37.260128
6.8062572 1.3860065 7.2995634 0 0 0 0 37.265076
7.4321766 1.9026289 7.4177227 0 0 0 0 37.270023
7.8438816 2.368113 7.3648953 0 0 0 0 37.274971
8.3437872 2.8832338 7.385078 0 0 0 0 37.279915
6.7457943 1.5240951 7.2496896 0 0 0 0 37.284863
7.2316275 2.0202792 7.2478652 0 0 0 0 37.28981
7.7184887 2.5204306 7.2930431 0 0 0 0 37.294758
8.1814108 3.0376832 7.3022346 0 0 0 0 37.299706
6.6923356 1.6611556 7.2098155 0 0 0 0 37.304649
7.140202 2.164479 7.1910033 0 0 0 0 37.309597
7.5950913 2.6697438 7.2261906 0 0 0 0 37.314545
8.0300503 3.1940928 7.2323923 0 0 0 0 37.319492
6.625865 1.794273 7.1579428 0 0 0 0 37.32444
7.061789 2.3096266 7.1491399 0 0 0 0 37.329388
7.4807019 2.8190234 7.1703372 0 0 0 0 37.334332
7.869658 3.3405452 7.1565475 0 0 0 0 37.339279
6.5513916 1.9254265 7.1000724 0 0 0 0 37.344227
6.9713655 2.4508276 7.0982785 0 0 0 0 37.349174
7.3462744 2.9573917 7.0974841 0 0 0 0 37.354122
7.7092533 3.4820042 7.0827022 0 0 0 0 37.35907
6.4899373 2.0595253 7.0602016 0 0 0 0 37.364014
6.8729239 2.5860651 7.042417 0 0 0 0 37.368961
7.2178502 3.094738 7.0356307 0 0 0 0 37.373909
7.5488396 3.6194682 7.0128565 0 0 0 0 37.378857
6.4164681 2.1886778 7.0093317 0 0 0 0 37.383804
6.7664642 2.7153399 6.981555 0 0 0 0 37.388752
7.0824008 3.2241194 6.9677758 0 0 0 0 37.393696
7.3823967 3.7479646 6.9380088 0 0 0 0 37.398643
6.3339796 2.3118713 6.9524617 0 0 0 0 37.403591
6.6660185 2.8465927 6.9286942 0 0 0 0 37.408539
6.9439406 3.349519 6.898921 0 0 0 0 37.413486
7.2089272 3.8684971 6.8591595 0 0 0 0 37.418434
6.2685308 2.4429932 6.9155941 0 0 0 0 37.423378
6.5635633 2.9738574 6.8758326 0 0 0 0 37.428326
6.807487 3.4749146 6.8350668 0 0 0 0 37.433273
7.0414605 3.9880099 6.7893095 0 0 0 0 37.438221
6.1860504 2.565191 6.8637257 0 0 0 0 37.443169
6.4490881 3.0951784 6.8129721 0 0 0 0 37.448112
6.6770282 3.5972886 6.7792115 0 0 0 0 37.45306
6.8619499 4.095583 6.7064581 0 0 0 0 37.458008
6.1075792 2.6883733 6.8188586 0 0 0 0 37.462955
6.3376112 3.2144892 6.7571111 0 0 0 0 37.467903
6.5355449 3.7127161 6.7143559 0 0 0 0 37.472851
6.6884375 4.2011361 6.6326046 0 0 0 0 37.477795
6.030118 2.8125534 6.7779927 0 0 0 0 37.482742
6.2211227 3.3298266 6.6972499 0 0 0 0 37.48769
6.3900394 3.8211665 6.6474986 0 0 0 0 37.492638
6.554019 4.3275228 6.5997562 0 0 0 0 37.497585
5.9416361 2.9307857 6.7261271 0 0 0 0 37.502533
6.0996156 3.4391901 6.634388 0 0 0 0 37.507477
6.2505393 3.9295962 6.5876412 0 0 0 0 37.512424
6.5620093 4.5492797 6.7139335 0 0 0 0 37.517372
5.8441267 3.0410604 6.6682601 0 0 0 0 37.52232
5.9981518 3.5574677 6.5955281 0 0 0 0 37.527267
6.1009984 4.0270758 6.5197811 0 0 0 0 37.532215
6.3904867 4.6478376 6.6490808 0 0 0 0 37.537159
5.7546396 3.1553023 6.6213951 0 0 0 0 37.542107
5.8746343 3.6618483 6.535666 0 0 0 0 37.547054
5.9474411 4.1195788 6.4499207 0 0 0 0 37.552002
6.2269778 4.7483659 6.5942278 0 0 0 0 37.55695
5.6681657 3.2715328 6.5805311 0 0 0 0 37.561893
5.7531171 3.765224 6.479804 0 0 0 0 37.566841
5.812932 4.2220016 6.4010625 0 0 0 0 37.571789
6.0504117 4.8339601 6.5273714 0 0 0 0 37.576736
5.5676546 3.37783 6.5266662 0 0 0 0 37.581684
5.6315966 3.8666041 6.4259424 0 0 0 0 37.586632
5.697475 4.335341 6.3762078 0 0 0 0 37.591576
5.8738322 4.9155612 6.461514 0 0 0 0 37.596523
5.4751663 3.4880934 6.4848027 0 0 0 0 37.601471
5.5160861 3.968961 6.3800812 0 0 0 0 37.606419
5.7044439 4.5461159 6.492384 0 0 0 0 37.611366
5.6962242 4.9891753 6.3936534 0 0 0 0 37.616314
5.365634 3.5874391 6.4249377 0 0 0 0 37.621258
5.3875327 4.0603819 6.3232174 0 0 0 0 37.626205
5.5779657 4.6515102 6.4615297 0 0 0 0 37.631153
5.5236192 5.0627742 6.3317924 0 0 0 0 37.636101
5.261826 3.6916053 6.3752418 0 0 0 0 37.346012
3.9694486 3.1352468 4.7332106 0 0 0 0 37.350956
5.4237719 4.7349319 6.4017849 0 0 0 0 37.355904
5.3552866 5.1392241 6.2780247 0 0 0 0 37.360851
5.1582747 3.7908952 6.3273697 0 0 0 0 37.365799
3.9550312 3.2681794 4.7923393 0 0 0 0 37.370747
5.2591228 4.8034611 6.3309116 0 0 0 0 37.37569
3.9964023 3.0768604 4.9692726 0 0 0 0 37.385586
5.0113888 4.3303833 6.1717544 0 0 0 0 37.390533
5.1125183 4.8819189 6.2800422 0 0 0 0 37.395481
3.8294778 3.085475 4.8283658 0 0 0 0 37.405373
4.9921956 4.5122938 6.2579136 0 0 0 0 37.41032
4.9568691 4.948422 6.2201686 0 0 0 0 37.415268
3.9704199 4.3617868 5.006063 0 0 0 0 37.420216
4.8225517 4.0648961 6.1687517 0 0 0 0 37.425163
4.9188266 4.6494441 6.2820611 0 0 0 0 37.430111
3.9385495 4.1118102 5.0569806 0 0 0 0 37.435055
4.7069693 4.1522536 6.11588 0 0 0 0 37.44495
4.8133373 4.7557402 6.2681994 0 0 0 0 37.449898
3.9514487 4.3145971 5.1931477 0 0 0 0 37.454845
4.6154699 4.2585053 6.0970144 0 0 0 0 37.464737
4.3381567 5.4615908 5.9377718 0 0 0 0 37.47958
4.4687519 4.3110137 6.0061321 0 0 0 0 37.484528
4.1814709 5.5131183 5.8988957 0 0 0 0 37.499367
4.1844721 5.2310076 5.9387879 0 0 0 0 37.51421
4.012701 5.5437098 5.8410115 0 0 0 0 37.519154
4.21661 4.9847698 6.0016918 0 0 0 0 37.529049
4.0428224 5.2924833 5.902914 0 0 0 0 37.533997
3.8429003 5.5663142 5.7811241 0 0 0 0 37.538944
4.2746754 4.7204142 6.0915794 0 0 0 0 37.543892
4.0880036 5.0581961 5.9668221 0 0 0 0 37.548836
3.8890891 5.3330235 5.848033 0 0 0 0 37.553783
3.6821342 5.5968838 5.7322397 0 0 0 0 37.558731
4.1460533 4.7918506 6.0387077 0 0 0 0 37.563679
3.9412968 5.1067123 5.9069433 0 0 0 0 37.568626
3.7343371 5.3685746 5.7931499 0 0 0 0 37.573574
3.5233581 5.6244502 5.6873546 0 0 0 0 37.578518
4.0144134 4.8583059 5.9828348 0 0 0 0 37.583466
3.803622 5.1621914 5.8610668 0 0 0 0 37.588413
3.5856042 5.4081035 5.7462683 0 0 0 0 37.593361
3.3555 5.6320691 5.6264606 0 0 0 0 37.598309
3.8787439 4.9167852 5.9239593 0 0 0 0 37.603252
3.6639371 5.2146859 5.8131905 0 0 0 0 37.6082
3.4398692 5.4466257 5.7023869 0 0 0 0 37.613148
3.202718 5.6576233 5.5855742 0 0 0 0 37.618095
3.7641835 5.0001678 5.8970942 0 0 0 0 37.623043
3.5222256 5.2601957 5.7633114 0 0 0 0 37.627991
3.2911108 5.4791679 5.6555033 0 0 0 0 37.632935
3.044879 5.6692095 5.5366817 0 0 0 0 37.637882
3.6305242 5.0596461 5.8452206 0 0 0 0 37.64283
3.3875465 5.3126764 5.7254353 0 0 0 0 37.647778
3.1393082 5.5007305 5.6046143 0 0 0 0 37.652725
2.8940711 5.6877675 5.4987926 0 0 0 0 37.657673
3.5018773 5.1211057 5.8013487 0 0 0 0 37.662617
3.2407844 5.3452229 5.6685519 0 0 0 0 37.667564
2.9864728 5.514308 5.5477219 0 0 0 0 37.672512
2.7381961 5.6903586 5.4498954 0 0 0 0 37.67746
3.3631768 5.1696191 5.7444715 0 0 0 0 37.682407
3.0970242 5.3777609 5.6166677 0 0 0 0 37.687355
2.8447113 5.5448356 5.5108376 0 0 0 0 37.692299
2.5873263 5.693934 5.4049983 0 0 0 0 37.697247
3.2294881 5.2201133 5.6965952 0 0 0 0 37.702194
2.9552619 5.4092946 5.5677834 0 0 0 0 37.707142
2.6988916 5.5613904 5.4659467 0 0 0 0 37.71209
2.436444 5.6945152 5.3611007 0 0 0 0 37.717033
3.0968106 5.2726064 5.6527209 0 0 0 0 37.721981
2.8185279 5.4468088 5.5289025 0 0 0 0 37.726929
2.5510342 5.5689631 5.4150515 0 0 0 0 37.731876
2.288554 5.6930895 5.319201 0 0 0 0 37.736824
2.9550574 5.3071518 5.5938387 0 0 0 0 37.741772
2.6757259 5.4683604 5.4780145 0 0 0 0 37.746716
2.4112256 5.587501 5.3781619 0 0 0 0 37.751663
2.1436601 5.6906567 5.2793007 0 0 0 0 37.756611
2.8243768 5.3576446 5.5559645 0 0 0 0 37.761559
2.5379694 5.4998903 5.4391317 0 0 0 0 37.766506
2.2693877 5.5990548 5.3392687 0 0 0 0 37.771454
1.9977314 5.6802363 5.2353969 0 0 0 0 37.776398
2.6866369 5.3941798 5.5070844 0 0 0 0 37.781345
2.3981664 5.5204387 5.3942432 0 0 0 0 37.786293
2.1265113 5.6016226 5.2933712 0 0 0 0 37.791241
1.8568254 5.6747966 5.2004948 0 0 0 0 37.796188
2.5468771 5.4257298 5.4572024 0 0 0 0 37.801136
2.2573428 5.5359974 5.3483529 0 0 0 0 37.80608
1.9876623 5.6101737 5.2574773 0 0 0 0 37.811028
1.7179278 5.6713519 5.1685939 0 0 0 0 37.815975
2.4075837 5.4570532 5.4084716 0 0 0 0 37.571636
2.1169755 5.5542483 5.3066049 0 0 0 0 37.576584
1.8472201 5.6133556 5.2187119 0 0 0 0 37.581528
1.5794306 5.663455 5.1358142 0 0 0 0 37.586475
2.2728372 5.4925504 5.3695879 0 0 0 0 37.591423
1.9791385 5.5667672 5.2637091 0 0 0 0 37.596371
1.710346 5.6158733 5.1828113 0 0 0 0 37.601318
1.442498 5.6509776 5.1029058 0 0 0 0 37.606266
2.1350548 5.5190697 5.3237 0 0 0 0 37.61121
1.8423029 5.5792856 5.2248139 0 0 0 0 37.616158
1.5764807 5.6203814 5.1519117 0 0 0 0 37.621105
1.307536 5.6314998 5.0669932 0 0 0 0 37.626053
1.9922067 5.5296216 5.2678051 0 0 0 0 37.631001
1.7054473 5.5868106 5.184917 0 0 0 0 37.635944
1.4385362 5.6059203 5.1070027 0 0 0 0 37.640892
1.1745903 5.6160169 5.0360832 0 0 0 0 37.64584
1.8604615 5.5641193 5.2379217 0 0 0 0 37.650787
1.567571 5.5893478 5.1420174 0 0 0 0 37.655735
1.3046132 5.5964432 5.0720963 0 0 0 0 37.660683
1.0436236 5.5955315 5.0051703 0 0 0 0 37.665627
1.7226546 5.5836535 5.1980324 0 0 0 0 37.670574
1.4337171 5.596869 5.1091204 0 0 0 0 37.675522
1.1737238 5.5949554 5.0441942 0 0 0 0 37.68047
0.91363454 5.5700502 4.9702539 0 0 0 0 37.685417
1.5827973 5.5912066 5.149137 0 0 0 0 37.690365
1.3008764 5.6073895 5.079226 0 0 0 0 37.695309
1.0407662 5.5774879 5.0052834 0 0 0 0 37.700256
0.78361958 5.5385756 4.9343352 0 0 0 0 37.705204
1.4490012 5.6127315 5.1172485 0 0 0 0 37.710152
1.1659639 5.6009297 5.0393219 0 0 0 0 37.715099
0.90980011 5.5580173 4.9683714 0 0 0 0 37.720047
0.6596728 5.5230708 4.9154243 0 0 0 0 37.724991
1.3121592 5.6232786 5.0783553 0 0 0 0 37.729939
1.0330601 5.5964661 5.0034194 0 0 0 0 37.734886
0.78085512 5.5435395 4.9374623 0 0 0 0 37.739834
0.53462583 5.4845877 4.8775005 0 0 0 0 37.744781
1.1712397 5.6158562 5.0264525 0 0 0 0 37.749729
0.89911318 5.582015 4.9615116 0 0 0 0 37.754673
0.65390998 5.5290575 4.9095531 0 0 0 0 37.759621
0.41263443 5.4590883 4.8535843 0 0 0 0 37.764568
1.0374039 5.627398 4.9955602 0 0 0 0 37.769516
0.76820976 5.5775514 4.9306092 0 0 0 0 37.774464
0.52791685 5.5035806 4.8756375 0 0 0 0 37.779408
0.29164231 5.4335895 4.8316674 0 0 0 0 37.784355
0.90050739 5.6249642 4.9546604 0 0 0 0 37.789303
0.63724983 5.5600977 4.8926992 0 0 0 0 37.79425
0.40296236 5.4870996 4.8507271 0 0 0 0 37.799198
0.17260122 5.3970914 4.8027439 0 0 0 0 37.804146
0.76462448 5.6255293 4.9187627 0 0 0 0 37.80909
0.50834709 5.5556321 4.8687978 0 0 0 0 37.814037
0.27895486 5.4586239 4.81881 0 0 0 0 37.818985
0.0545545 5.3595939 4.7748199 0 0 0 0 37.823933
0.63073343 5.6240902 4.8848643 0 0 0 0 37.82888
0.37938696 5.538178 4.8358884 0 0 0 0 37.833828
0.15695548 5.4321427 4.7908936 0 0 0 0 37.838772
-0.059471045 5.3270798 4.7538977 0 0 0 0 37.843719
0.49580321 5.6136637 4.8479609 0 0 0 0 37.848667
0.25137752 5.5097294 4.7959728 0 0 0 0 37.853615
0.035964139 5.4076605 4.7659783 0 0 0 0 37.858562
-0.17352428 5.2885723 4.7299728 0 0 0 0 37.86351
0.36088625 5.6062403 4.8150597 0 0 0 0 37.868454
0.12443015 5.4952731 4.7710652 0 0 0 0 37.873402
-0.083072327 5.3731785 4.7360573 0 0 0 0 37.878349
-0.28656995 5.2520638 4.7090478 0 0 0 0 37.883297
0.22794238 5.5928159 4.7791548 0 0 0 0 37.888245
-0.00058044551 5.4668193 4.7361493 0 0 0 0 37.893188
-0.20110077 5.3406944 4.7101369 0 0 0 0 37.898136
-0.3975983 5.2195473 4.6951261 0 0 0 0 37.903084
0.09499447 5.5783949 4.7472491 0 0 0 0 37.908031
-0.12554628 5.4483638 4.7132392 0 0 0 0 37.912979
-0.31811672 5.3112082 4.6882176 0 0 0 0 37.917927
-0.50666893 5.1780319 4.6731982 0 0 0 0 37.922871
-0.035994366 5.5549741 4.7103386 0 0 0 0 37.927818
-0.24953946 5.4239101 4.6883259 0 0 0 0 37.932766
-0.43416512 5.2747254 4.6632948 0 0 0 0 37.937714
-0.61475873 5.1325164 4.6512675 0 0 0 0 37.942661
-0.16691534 5.5465493 4.688437 0 0 0 0 37.947609
-0.37255198 5.3954601 4.6604099 0 0 0 0 37.952553
-0.54821926 5.2372379 4.6393709 0 0 0 0 37.9575
-0.72180414 5.0969944 4.6403427 0 0 0 0 37.962448
-0.29795513 5.5121427 4.6475201 0 0 0 0 37.967396
-0.49359196 5.3610063 4.6324902 0 0 0 0 37.972343
-0.66127908 5.19875 4.616446 0 0 0 0 37.977291
-0.82492477 5.0454688 4.615407 0 0 0 0 37.982235
-0.42793101 5.4917269 4.6226115 0 0 0 0 37.987183
-0.61461031 5.3315544 4.6095734 0 0 0 0 37.99213
-0.77432132 5.1642628 4.6005244 0 0 0 0 37.997078
-0.92609811 4.9829435 4.5824637 0 0 0 0 38.002026
-0.55595839 5.4603128 4.5896959 0 0 0 0 38.006969
-0.73563355 5.3011055 4.5896568 0 0 0 0 38.011917
-0.8843835 5.1257691 4.5815992 0 0 0 0 38.016865
-1.0281663 4.9434114 4.5735359 0 0 0 0 38.021812
-0.68495852 5.4349036 4.5647845 0 0 0 0 38.02676
-0.8517372 5.2536492 4.5557275 0 0 0 0 38.031708
-0.99545157 5.0862837 4.5636735 0 0 0 0 38.036652
-1.1282783 4.8948798 4.556601 0 0 0 0 38.041599
-0.81234229 5.4014692 4.5376554 0 0 0 0 37.988884
-0.97112107 5.2181692 4.5355959 0 0 0 0 37.993832
-1.0989561 5.022738 4.5285206 0 0 0 0 37.998779
-1.2257372 4.8392949 4.5344529 0 0 0 0 38.003727
-0.93836975 5.37005 4.5127401 0 0 0 0 38.008675
-1.0862011 5.1757045 4.5116696 0 0 0 0 38.013618
-1.2060478 4.9782372 4.510591 0 0 0 0 38.018566
-1.3238399 4.7927532 4.523519 0 0 0 0 38.023514
-1.0644255 5.3326364 4.4868207 0 0 0 0 38.028461
-1.2003007 5.129241 4.4867415 0 0 0 0 38.033409
-1.312127 4.9367342 4.4966631 0 0 0 0 38.038357
-1.4120665 4.7201862 4.4895658 0 0 0 0 38.043301
-1.1885054 5.2902198 4.459897 0 0 0 0 38.048248
-1.3153738 5.0887818 4.4698167 0 0 0 0 38.053196
-1.4142728 4.8812237 4.4737253 0 0 0 0 38.058144
-1.4559469 4.5095091 4.3245111 0 0 0 0 38.063091
-1.3125446 5.256803 4.4419804 0 0 0 0 38.068039
-1.409773 4.9792724 4.3938417 0 0 0 0 38.072983
-1.4592618 4.6475654 4.2886553 0 0 0 0 38.07793
-1.5450732 4.4599376 4.3145723 0 0 0 0 38.082878
-1.3776269 5.0022445 4.2409034 0 0 0 0 38.087826
-1.4795032 4.8006945 4.2588153 0 0 0 0 38.092773
-1.5573872 4.5980396 4.2737198 0 0 0 0 38.097721
-1.6322204 4.406363 4.3016305 0 0 0 0 38.102665
-1.4927435 4.9538016 4.2159734 0 0 0 0 38.107613
-1.5856322 4.7502103 4.2388811 0 0 0 0 38.11256
-1.6564763 4.5565166 4.2677894 0 0 0 0 38.117508
-1.7183791 4.3507886 4.2876868 0 0 0 0 38.122456
-1.6098142 4.9153662 4.2010512 0 0 0 0 38.127399
-1.6927245 4.7077293 4.227953 0 0 0 0 38.132347
-1.7506289 4.5019822 4.2508492 0 0 0 0 38.137295
-1.8065058 4.3022199 4.2837486 0 0 0 0 38.142242
-1.7259238 4.8689332 4.1831231 0 0 0 0 38.14719
-1.7958612 4.6562386 4.2110181 0 0 0 0 38.152138
-1.8477448 4.4554591 4.2439151 0 0 0 0 38.157082
-1.8896731 4.2456374 4.2718034 0 0 0 0 38.162029
-1.8380731 4.8144894 4.1611891 0 0 0 0 38.166977
-1.8999946 4.6057544 4.1980834 0 0 0 0 38.171925
-1.93892 4.3969178 4.228971 0 0 0 0 38.176872
-1.9738278 4.19206 4.2648602 0 0 0 0 38.18182
-1.950205 4.7640467 4.1452579 0 0 0 0 38.186764
-2.0001683 4.5472593 4.1801424 0 0 0 0 38.191711
-2.0271173 4.3343697 4.2100234 0 0 0 0 38.196659
-2.0530233 4.1304674 4.2519102 0 0 0 0 38.201607
-2.0583968 4.7015958 4.120317 0 0 0 0 38.206554
-2.0993443 4.4887629 4.1632013 0 0 0 0 38.211502
-2.1182771 4.2798319 4.2010822 0 0 0 0 38.216446
-2.1371672 4.0798926 4.2509694 0 0 0 0 38.221394
-2.1695416 4.6491566 4.1063838 0 0 0 0 38.226341
-2.1985168 4.4312682 4.1502609 0 0 0 0 38.231289
-2.2064636 4.2202859 4.1891365 0 0 0 0 38.236237
-2.2104015 4.0112815 4.2330127 0 0 0 0 38.24118
-2.278722 4.5897136 4.090445 0 0 0 0 38.246128
-2.2957013 4.3717685 4.1373181 0 0 0 0 38.251076
-2.2926712 4.1567354 4.1761875 0 0 0 0 38.256023
-2.291569 3.9567006 4.2310677 0 0 0 0 38.260971
-2.3849244 4.5262628 4.0725036 0 0 0 0 38.265919
-2.3879325 4.3032546 4.1173682 0 0 0 0 38.270863
-2.3818421 4.1011972 4.1712451 0 0 0 0 38.27581
-2.3677733 3.8951032 4.2231159 0 0 0 0 38.280758
-2.4891286 4.4628062 4.0565605 0 0 0 0 38.285706
-2.4861207 4.2437639 4.109426 0 0 0 0 38.290653
-2.4680393 4.0406499 4.1642976 0 0 0 0 38.295601
-2.4409947 3.8304965 4.2131619 0 0 0 0 38.300545
-2.5943446 4.397357 4.0426168 0 0 0 0 38.305492
-2.5803311 4.1802607 4.0994797 0 0 0 0 38.31044
-2.5482843 3.9710839 4.1483426 0 0 0 0 38.315388
-2.5132189 3.7658877 4.2042074 0 0 0 0 38.320335
-2.6975677 4.3309011 4.0306711 0 0 0 0 38.325283
-2.6685886 4.1077375 4.0825248 0 0 0 0 38.330227
-2.6285312 3.9015193 4.1353869 0 0 0 0 38.335175
-2.5864348 3.7032835 4.1992536 0 0 0 0 38.340122
-2.7958283 4.2574306 4.0127196 0 0 0 0 38.34507
-2.7637982 4.0452423 4.077579 0 0 0 0 38.350018
-2.7107503 3.8379619 4.1304359 0 0 0 0 38.354961
-2.6517043 3.6306515 4.1842909 0 0 0 0 38.359909
-2.8970711 4.1879735 4.0017715 0 0 0 0 38.364857
-2.8500659 3.9717152 4.063623 0 0 0 0 38.369804
-2.7899971 3.7693965 4.1214809 0 0 0 0 38.374752
-2.7268989 3.5730567 4.1883411 0 0 0 0 38.3797
-2.9963312 4.1155109 3.9908204 0 0 0 0 38.384644
-2.9413054 3.9042099 4.0576725 0 0 0 0 38.389591
-2.8682415 3.7018282 4.1145253 0 0 0 0 38.394539
-2.7931581 3.5034308 4.1793804 0 0 0 0 38.399487
-3.0906243 4.0370302 3.9768636 0 0 0 0 38.404434
-3.0255883 3.8286788 4.0457139 0 0 0 0 38.409382
-2.9474928 3.6332667 4.1095695 0 0 0 0 38.414326
-2.8623936 3.4388175 4.177423 0 0 0 0 38.419273
-3.1888945 3.9635689 3.9689112 0 0 0 0 38.424221
-3.1128476 3.7581608 4.04076 0 0 0 0 38.429169
-3.0207775 3.5586824 4.1006074 0 0 0 0 38.434116
-2.925668 3.3671827 4.1684594 0 0 0 0 38.439064
-3.2831924 3.885093 3.959954 0 0 0 0 38.444008
-3.1921663 3.676614 4.0267954 0 0 0 0 38.448956
-3.1020074 3.4951305 4.1046553 0 0 0 0 38.453903
-2.9899292 3.2985518 4.1644979 0 0 0 0 38.458851
-3.3682733 3.8030035 3.9497452 0 0 0 0 39.223011
-3.2763398 3.6064253 4.0285597 0 0 0 0 39.227959
-3.1693554 3.4197702 4.0963778 0 0 0 0 39.232903
-3.0483975 3.2290373 4.1601863 0 0 0 0 39.23785
-3.464627 3.7266176 3.9467854 0 0 0 0 39.242798
-3.3557172 3.5269451 4.0205908 0 0 0 0 39.247746
-3.236726 3.3422201 4.0874047 0 0 0 0 39.252693
-3.1137178 3.1604664 4.1592193 0 0 0 0 39.257641
-3.5530374 3.6411943 3.9388146 0 0 0 0 39.262585
-3.4430537 3.4545052 4.0226297 0 0 0 0 39.267532
-3.3130496 3.2727139 4.0904417 0 0 0 0 39.27248
-3.1760471 3.0908806 4.1582503 0 0 0 0 39.277428
-3.6434388 3.5577836 3.9338465 0 0 0 0 39.282375
-3.5353611 3.3870885 4.0346751 0 0 0 0 39.287323
-3.3824246 3.1951766 4.0864687 0 0 0 0 39.292267
-3.2334042 3.0172737 4.1522756 0 0 0 0 39.297215
-3.7308612 3.4713593 3.928874 0 0 0 0 39.302162
-3.5938761 3.2865136 4.0086789 0 0 0 0 39.30711
-3.4478152 3.1156211 4.0804925 0 0 0 0 39.312057
-3.2977252 2.9496994 4.1573086 0 0 0 0 39.317005
-3.817292 3.3839312 3.9259 0 0 0 0 39.321949
-3.6673012 3.2010112 4.0017009 0 0 0 0 39.326897
-3.5191772 3.041096 4.0825229 0 0 0 0 39.331844
-3.3540933 2.8750896 4.1533318 0 0 0 0 39.336792
-3.8987572 3.2914822 3.9179194 0 0 0 0 39.34174
-3.7447093 3.1185279 4.0027266 0 0 0 0 39.346684
-3.5845788 2.9605434 4.0795445 0 0 0 0 39.351631
-3.4104578 2.8014803 4.1513557 0 0 0 0 39.356579
-3.9762435 3.1960115 3.9119341 0 0 0 0 39.361526
-3.8141582 3.0300064 3.9977436 0 0 0 0 39.366474
-3.6479836 2.879981 4.0775657 0 0 0 0 39.371422
-3.4698174 2.7288857 4.1553817 0 0 0 0 39.376366
-4.0626888 3.1075888 3.9149582 0 0 0 0 39.381313
-3.8875971 2.9435067 3.9977636 0 0 0 0 39.386261
-3.715378 2.80144 4.0805893 0 0 0 0 39.391209
-3.5241933 2.6542683 4.1544037 0 0 0 0 39.396156
-4.197926 3.0524142 3.9650302 0 0 0 0 39.401104
-3.9570518 2.8549876 3.9967802 0 0 0 0 39.406048
-3.7768068 2.7178705 4.0796065 0 0 0 0 39.410995
-3.5825644 2.5806718 4.1594267 0 0 0 0 39.415943
-4.2923617 2.9660363 3.9790587 0 0 0 0 39.420891
-4.026516 2.7654707 3.9967952 0 0 0 0 39.425838
-3.8342454 2.6332808 4.0776205 0 0 0 0 39.430786
-3.6359515 2.5050502 4.161447 0 0 0 0 39.43573
-4.3678904 2.8655629 3.9790671 0 0 0 0 39.440678
-4.0880151 2.6709137 3.991802 0 0 0 0 39.445625
-3.8956797 2.5497134 4.0796366 0 0 0 0 39.450573
-3.6843669 2.4254055 4.1594605 0 0 0 0 39.455521
-4.4394407 2.7620716 3.9760706 0 0 0 0 39.460464
-4.2033 2.6096294 4.0418591 0 0 0 0 39.465412
-3.9541297 2.4641306 4.0816493 0 0 0 0 39.47036
-3.7337792 2.3467667 4.1594753 0 0 0 0 39.475307
-4.5179753 2.6616178 3.9810791 0 0 0 0 39.480255
-4.2966986 2.5312395 4.0688925 0 0 0 0 39.485203
-4.0095901 2.3775344 4.0816593 0 0 0 0 39.490147
-3.7871802 2.2701483 4.165493 0 0 0 0 39.495094
-4.5835586 2.5540962 3.9790759 0 0 0 0 39.500042
-4.355237 2.4316714 4.0668931 0 0 0 0 39.50499
-4.0680518 2.2909536 4.0866704 0 0 0 0 39.509937
-3.8326104 2.1894896 4.1655035 0 0 0 0 39.514885
-4.6511388 2.4475861 3.9800735 0 0 0 0 39.519829
-4.4177656 2.3341238 4.0708961 0 0 0 0 39.524776
-4.1225238 2.2033534 4.0896788 0 0 0 0 39.529724
-3.8780503 2.1078329 4.1655126 0 0 0 0 39.534672
-4.7227216 2.3410983 3.9860725 0 0 0 0 39.539619
-4.4842834 2.2385983 4.0799022 0 0 0 0 39.544567
-4.2039161 2.1278918 4.120708 0 0 0 0 39.549511
-3.9324653 2.0302222 4.1765289 0 0 0 0 39.554459
-4.7813482 2.2285419 3.98506 0 0 0 0 39.559406
