# .PCD v0.7 - Point Cloud Data file format
VERSION 0.7
FIELDS x y z normal_x normal_y normal_z intensity curvature
SIZE 4 4 4 4 4 4 4 4
TYPE F F F F F F F F
COUNT 1 1 1 1 1 1 1 1
WIDTH 964
HEIGHT 1
VIEWPOINT 0 0 0 1 0 0 0
POINTS 964
DATA ascii
7.6293454 1.3934411 1.9892288 0 0 0 0 28.678253
7.8019218 1.6441317 1.8733971 0 0 0 0 28.683199
7.3766832 1.0868726 2.2340741 0 0 0 0 28.688147
7.571279 1.3434981 2.1282375 0 0 0 0 28.693092
7.7208571 1.5942417 2.0184166 0 0 0 0 28.69804
7.4431272 1.2627467 2.25125 0 0 0 0 28.707935
7.6137395 1.5274378 2.1414323 0 0 0 0 28.712881
8.944191 2.0649107 2.3473268 0 0 0 0 28.717827
7.5147214 1.4427561 2.2708662 0 0 0 0 28.438852
8.9192953 1.9998751 2.5137305 0 0 0 0 28.443798
8.9141531 1.9147636 2.6936798 0 0 0 0 28.458641
10.050885 3.4011364 2.4956403 0 0 0 0 28.493269
9.9302845 3.5384078 2.6729004 0 0 0 0 28.527897
9.937089 3.4362793 2.8448272 0 0 0 0 28.54274
9.9458179 3.3041406 3.0227242 0 0 0 0 28.557579
9.8363094 3.5105226 2.9960158 0 0 0 0 28.577368
11.017652 4.8125057 3.0337243 0 0 0 0 28.587261
12.265374 5.8471775 3.2011333 0 0 0 0 28.592209
6.5080833 3.2933784 1.7124714 0 0 0 0 28.611998
12.362056 6.0918341 3.4683902 0 0 0 0 28.626839
6.3032637 3.3789821 1.6796868 0 0 0 0 28.631786
10.970574 4.7494998 3.3777823 0 0 0 0 28.636732
12.197421 5.8301969 3.596246 0 0 0 0 28.641678
12.016442 6.2728648 3.4047682 0 0 0 0 28.646626
6.2015853 3.5152938 1.6759009 0 0 0 0 28.651573
10.820089 4.9719958 3.3451068 0 0 0 0 28.656521
12.200263 6.1732545 3.6246133 0 0 0 0 28.661469
10.981729 6.0588231 3.1450934 0 0 0 0 28.666414
6.3563285 3.8048875 1.7431397 0 0 0 0 28.67136
12.28182 5.9739299 3.8184116 0 0 0 0 28.676308
11.05541 5.9135399 3.3099465 0 0 0 0 28.681255
11.138803 6.4844313 3.2274642 0 0 0 0 28.686203
9.9510574 6.2798805 2.7778413 0 0 0 0 28.691149
12.09538 6.2195292 3.7797742 0 0 0 0 28.696096
10.955046 6.1818776 3.3092885 0 0 0 0 28.701042
11.450188 7.0266056 3.3588727 0 0 0 0 28.70599
9.7014284 6.4496102 2.7511575 0 0 0 0 28.710938
10.953473 5.9418139 3.4430866 0 0 0 0 28.715885
11.117126 6.6124754 3.3906608 0 0 0 0 28.720831
11.793696 7.6176901 3.5053124 0 0 0 0 28.725779
10.266316 7.1780653 2.9626224 0 0 0 0 28.730724
10.947235 6.2578936 3.4634287 0 0 0 0 28.735672
11.432503 7.1546445 3.5220668 0 0 0 0 28.74062
9.7318411 6.6104913 2.9303577 0 0 0 0 28.745567
10.356375 7.6048427 3.0420225 0 0 0 0 28.750513
11.12631 6.6884499 3.5467925 0 0 0 0 28.755459
11.784017 7.75071 3.6715064 0 0 0 0 28.760406
16.496706 11.766652 5.0491333 0 0 0 0 28.765354
16.488018 12.720811 4.9410567 0 0 0 0 28.770302
11.585922 7.3182192 3.7242136 0 0 0 0 28.775249
14.319708 9.8906746 4.5163927 0 0 0 0 28.780195
15.306727 11.463018 4.7564383 0 0 0 0 28.785141
15.459311 12.514702 4.7233782 0 0 0 0 28.790089
11.864309 7.872499 3.8456471 0 0 0 0 28.795036
15.4561 11.200558 4.9371448 0 0 0 0 28.799984
16.306179 12.807273 5.1522856 0 0 0 0 28.804932
15.477847 13.147673 4.8260059 0 0 0 0 28.809877
14.273772 9.9348259 4.6725192 0 0 0 0 28.814823
16.632814 12.642332 5.3840022 0 0 0 0 28.819771
15.344555 12.633986 4.9316044 0 0 0 0 28.824718
16.850636 15.011876 5.3681712 0 0 0 0 28.829666
15.37008 11.219832 5.0822654 0 0 0 0 28.834612
15.505877 12.356524 5.0882912 0 0 0 0 28.83956
15.862204 13.690578 5.1904006 0 0 0 0 28.844505
16.396254 15.309148 5.3436971 0 0 0 0 28.849453
16.535748 12.650651 5.5261168 0 0 0 0 28.854401
15.297811 12.768146 5.0948124 0 0 0 0 28.859348
16.673716 15.081347 5.5613761 0 0 0 0 28.864294
16.010019 15.663223 5.3412442 0 0 0 0 28.86924
15.414764 12.347831 5.2113848 0 0 0 0 28.874187
16.971123 14.837533 5.743031 0 0 0 0 28.879135
16.228291 15.365603 5.5218835 0 0 0 0 28.884083
15.637815 16.030252 5.3467941 0 0 0 0 28.88903
15.295847 12.819216 5.23592 0 0 0 0 28.893976
16.542721 15.132757 5.693541 0 0 0 0 28.898922
15.909186 15.7725 5.5294471 0 0 0 0 28.90387
15.176358 16.301523 5.3232937 0 0 0 0 28.908817
16.912306 14.834183 5.8656936 0 0 0 0 28.659935
16.113668 15.425452 5.643651 0 0 0 0 28.664883
15.490242 16.085197 5.5025902 0 0 0 0 28.66983
14.657143 16.494547 5.2823873 0 0 0 0 28.674776
16.499947 15.140409 5.8042164 0 0 0 0 28.679722
15.802605 15.839364 5.6382275 0 0 0 0 28.684669
14.990652 16.301626 5.4500647 0 0 0 0 28.689617
14.239806 16.803715 5.2779102 0 0 0 0 28.694565
16.085567 15.439635 5.743732 0 0 0 0 28.699512
15.395273 16.155542 5.6017537 0 0 0 0 28.704458
14.535179 16.56292 5.4145598 0 0 0 0 28.709404
13.804399 17.086926 5.2684145 0 0 0 0 28.714352
15.787502 15.857522 5.7263045 0 0 0 0 28.719299
14.869575 16.335054 5.5232038 0 0 0 0 28.724247
14.106767 16.847126 5.3900619 0 0 0 0 28.729195
13.379997 17.373096 5.2669153 0 0 0 0 28.73414
15.368113 16.155746 5.6688175 0 0 0 0 28.739086
14.435112 16.602295 5.4816928 0 0 0 0 28.744034
13.690368 17.136292 5.3735614 0 0 0 0 28.748981
12.980695 17.697187 5.2774382 0 0 0 0 28.753929
14.853413 16.338236 5.5772638 0 0 0 0 28.758875
14.02471 16.893461 5.4501915 0 0 0 0 28.763823
13.275964 17.424442 5.3620567 0 0 0 0 28.768768
12.540194 17.94639 5.2749076 0 0 0 0 28.773716
14.420927 16.600481 5.5207458 0 0 0 0 28.778664
13.601258 17.166653 5.4166775 0 0 0 0 28.783611
12.865567 17.716574 5.3535533 0 0 0 0 28.788557
12.108759 18.222557 5.2773962 0 0 0 0 28.793503
14.011503 16.886654 5.4742374 0 0 0 0 28.79845
13.189853 17.457804 5.3911729 0 0 0 0 28.803398
12.450148 18.000711 5.3450422 0 0 0 0 28.808346
11.700391 18.524651 5.2928977 0 0 0 0 28.813293
13.595066 17.169838 5.4267278 0 0 0 0 28.818239
12.77843 17.743948 5.367662 0 0 0 0 28.823185
12.036753 18.295835 5.3415389 0 0 0 0 28.828133
11.268929 18.791801 5.3003745 0 0 0 0 28.83308
13.190647 17.45998 5.3872175 0 0 0 0 28.838028
12.360996 18.027102 5.3431492 0 0 0 0 28.842976
11.614305 18.570978 5.336019 0 0 0 0 28.847921
10.844514 19.077921 5.316864 0 0 0 0 28.852867
12.789242 17.756104 5.3527102 0 0 0 0 28.857815
11.961615 18.330193 5.3306451 0 0 0 0 28.862762
11.200891 18.860086 5.3375063 0 0 0 0 28.86771
10.416065 19.352049 5.3323421 0 0 0 0 28.872656
12.376808 18.04225 5.3171964 0 0 0 0 28.877604
11.551198 18.621307 5.3171334 0 0 0 0 28.882549
10.765409 19.124249 5.3329787 0 0 0 0 28.887497
9.9936514 19.640148 5.3548298 0 0 0 0 28.892445
11.961348 18.319399 5.2816739 0 0 0 0 28.897392
11.119713 18.886473 5.298605 0 0 0 0 28.902338
10.348997 19.416346 5.3404675 0 0 0 0 28.907286
9.5652437 19.932253 5.3793216 0 0 0 0 28.912231
11.549911 18.606525 5.2531567 0 0 0 0 28.917179
10.702271 19.16959 5.2880855 0 0 0 0 28.922127
9.920558 19.698469 5.34795 0 0 0 0 28.927074
9.1328058 20.213362 5.4058032 0 0 0 0 28.93202
11.132471 18.893661 5.2236414 0 0 0 0 28.936966
10.300924 19.490654 5.2895923 0 0 0 0 28.941914
9.4981403 19.990566 5.3604369 0 0 0 0 28.946861
8.692358 20.491484 5.4332838 0 0 0 0 28.951809
10.721051 19.188772 5.2021289 0 0 0 0 28.956757
9.8543892 19.739838 5.2730503 0 0 0 0 28.961702
9.0697107 20.278671 5.3749223 0 0 0 0 28.966648
8.258956 20.788574 5.4687777 0 0 0 0 28.971596
10.298611 19.477903 5.1796136 0 0 0 0 28.976543
9.4279432 20.023952 5.2715302 0 0 0 0 28.981491
8.6232262 20.54682 5.3843942 0 0 0 0 28.986437
7.8145041 21.066689 5.5022564 0 0 0 0 28.991385
9.8751669 19.766029 5.1600962 0 0 0 0 28.99633
8.9985037 20.312065 5.2720137 0 0 0 0 29.001278
8.1948175 20.844902 5.4078846 0 0 0 0 29.006226
7.3700862 21.359791 5.5417476 0 0 0 0 29.011173
9.4517136 20.051144 5.1445746 0 0 0 0 29.016119
8.569087 20.61017 5.2775049 0 0 0 0 29.021067
7.7544236 21.150009 5.4333854 0 0 0 0 29.026012
6.9206762 21.656895 5.5852427 0 0 0 0 29.03096
9.0202961 20.352272 5.1310692 0 0 0 0 29.035908
8.1306524 20.902292 5.2829924 0 0 0 0 29.040855
7.3039627 21.430136 5.4558654 0 0 0 0 29.045801
6.4602556 21.951021 5.6297383 0 0 0 0 29.050747
8.5828371 20.638409 5.1175508 0 0 0 0 29.055695
7.6802058 21.191433 5.2884808 0 0 0 0 29.060642
6.8525519 21.731253 5.4853635 0 0 0 0 29.06559
6.0018802 22.264124 5.683249 0 0 0 0 29.070538
8.141428 20.944542 5.1110516 0 0 0 0 29.075483
7.2358017 21.497545 5.3049808 0 0 0 0 29.080429
6.3901377 22.032393 5.5148644 0 0 0 0 29.085377
5.534492 22.573246 5.7377582 0 0 0 0 29.090324
7.7010322 21.257664 5.1085563 0 0 0 0 29.095272
6.7814269 21.817677 5.321496 0 0 0 0 29.100218
5.9307666 22.351505 5.5553794 0 0 0 0 29.105165
5.053092 22.879395 5.7912683 0 0 0 0 29.110111
7.2496443 21.575804 5.1070685 0 0 0 0 29.115059
6.3200173 22.124817 5.3400006 0 0 0 0 29.120007
5.4493165 22.640675 5.586874 0 0 0 0 29.124954
4.5707054 23.191528 5.8537836 0 0 0 0 29.1299
6.7900262 21.874258 5.1054263 0 0 0 0 28.890852
5.8515129 22.447336 5.3624063 0 0 0 0 28.8958
4.9779024 22.978237 5.6353145 0 0 0 0 28.900745
4.0763011 23.512196 5.9172387 0 0 0 0 28.905693
6.325655 22.190447 5.1119509 0 0 0 0 28.910641
5.3711028 22.746546 5.3839197 0 0 0 0 28.915588
4.4804955 23.277464 5.6748343 0 0 0 0 28.920534
3.574975 23.840399 5.9867854 0 0 0 0 28.92548
5.8472834 22.508669 5.1164823 0 0 0 0 28.930428
4.8887587 23.072741 5.4154582 0 0 0 0 28.935375
3.9851818 23.613668 5.727386 0 0 0 0 28.940323
3.0576327 24.163631 6.0573325 0 0 0 0 28.945271
5.3709841 22.855865 5.1320376 0 0 0 0 28.950216
4.3873949 23.392982 5.4439974 0 0 0 0 28.955162
3.4798625 23.948885 5.7839394 0 0 0 0 28.96011
2.535321 24.499863 6.1348925 0 0 0 0 28.965057
4.8705983 23.171125 5.1395717 0 0 0 0 28.970005
3.8850813 23.734209 5.481555 0 0 0 0 28.974951
2.9565434 24.28614 5.8405004 0 0 0 0 28.979898
2.0020244 24.843111 6.218462 0 0 0 0 28.984844
4.372304 23.523359 5.1601377 0 0 0 0 28.989792
3.3657939 24.087471 5.5221295 0 0 0 0 28.99474
2.4272749 24.644394 5.9060822 0 0 0 0 28.999687
1.4507285 25.188393 6.3030391 0 0 0 0 29.004633
3.8620117 23.877611 5.1847091 0 0 0 0 29.009581
2.8374546 24.420742 5.5646868 0 0 0 0 29.014526
1.8779616 24.986692 5.9686556 0 0 0 0 29.019474
0.89047533 25.551682 6.3966355 0 0 0 0 29.024422
3.3276434 24.203924 5.201263 0 0 0 0 29.029369
2.2961359 24.764038 5.6102576 0 0 0 0 29.034315
1.3217013 25.350988 6.0412507 0 0 0 0 29.039261
0.31523916 25.922993 6.4962435 0 0 0 0 29.044209
2.7934132 24.586214 5.2338672 0 0 0 0 29.049156
1.7379133 25.147358 5.6648712 0 0 0 0 29.054104
0.75146836 25.727306 6.121861 0 0 0 0 29.059052
-0.27269819 25.619484 6.4272232 0 0 0 0 29.063997
2.2401288 24.948544 5.2644587 0 0 0 0 29.068943
1.1686621 25.520695 5.721478 0 0 0 0 29.073891
0.15705742 26.034691 6.1854153 0 0 0 0 29.078838
-0.80821395 24.285076 6.1032152 0 0 0 0 29.083786
1.6668299 25.306915 5.2950535 0 0 0 0 29.088732
0.58241743 25.89806 5.782094 0 0 0 0 29.093679
-0.41640329 24.720366 5.867444 0 0 0 0 29.098625
-1.3327404 23.738449 5.9799399 0 0 0 0 29.103573
1.0836245 25.704292 5.3366866 0 0 0 0 29.108521
-0.024051748 25.784567 5.7332592 0 0 0 0 29.113468
-0.95722675 24.055813 5.708066 0 0 0 0 29.118414
0.47737557 26.085716 5.3783131 0 0 0 0 29.128307
-0.59250039 24.466215 5.4232841 0 0 0 0 29.133255
-1.4932487 23.710167 5.6259828 0 0 0 0 29.138203
-0.13287564 24.844442 5.0894289 0 0 0 0 29.148096
-1.1363168 23.800661 5.2619066 0 0 0 0 29.153042
-0.6999011 24.093964 4.9069834 0 0 0 0 29.167885
-1.2618572 23.775379 4.8149366 0 0 0 0 29.187672
-2.8125679 22.456308 4.4933987 0 0 0 0 29.247036
-4.5637617 18.911972 4.9378977 0 0 0 0 29.261877
-3.2662184 21.839483 4.3580279 0 0 0 0 29.266823
-4.3316975 19.045734 4.5929203 0 0 0 0 29.276718
-4.8603053 18.326754 4.8174901 0 0 0 0 29.281666
-3.6899722 21.175587 4.2166004 0 0 0 0 29.286613
-4.3648634 20.326902 4.4861155 0 0 0 0 29.291559
-4.6541982 18.477573 4.4745393 0 0 0 0 29.296505
-5.1735072 17.878534 4.7332158 0 0 0 0 29.301453
-4.10147 20.613634 4.0992632 0 0 0 0 29.3064
-4.4908047 18.749483 4.146719 0 0 0 0 29.311348
-4.9833918 18.032394 4.3892756 0 0 0 0 29.316296
-5.4846177 17.4653 4.6589737 0 0 0 0 29.321241
-4.2495537 18.970259 3.7688174 0 0 0 0 29.326187
-4.8132391 18.204308 4.0373607 0 0 0 0 29.331135
-5.2886705 17.549162 4.2959666 0 0 0 0 29.336082
-5.8174376 17.169081 4.6178484 0 0 0 0 29.34103
-4.592041 18.402134 3.6544466 0 0 0 0 29.345976
-5.1206126 17.681087 3.9350157 0 0 0 0 29.350924
-5.6315041 17.247971 4.2478414 0 0 0 0 29.355869
-4.9350309 17.912922 3.5602393 0 0 0 0 30.310184
-5.4790535 17.352724 3.876965 0 0 0 0 30.315132
-6.0184903 17.079479 4.2359347 0 0 0 0 30.32008
-5.2750034 17.496635 3.4830132 0 0 0 0 30.329973
-5.8605785 17.151476 3.8499379 0 0 0 0 30.334919
-6.9671397 16.748978 4.632009 0 0 0 0 30.344814
-5.6526694 17.227398 3.4359262 0 0 0 0 30.349762
-7.8708229 14.202956 4.1571913 0 0 0 0 30.443754
-8.5001345 13.176158 4.0185647 0 0 0 0 30.503119
-9.1132011 12.249273 3.915019 0 0 0 0 30.562481
-9.0504427 12.232458 3.5069854 0 0 0 0 30.577324
-9.2869301 11.916589 3.8718069 0 0 0 0 30.582272
-9.0196562 12.226691 3.1129725 0 0 0 0 30.592163
-9.2441359 11.915803 3.4717939 0 0 0 0 30.597111
-9.5214701 11.674988 3.8616931 0 0 0 0 30.602058
-8.9558744 12.222885 2.6929493 0 0 0 0 30.607006
-9.1984177 11.874015 3.0697458 0 0 0 0 30.611952
-9.469738 11.642196 3.4496505 0 0 0 0 30.616899
-9.7250757 11.399337 3.8405397 0 0 0 0 30.621845
-9.1476326 11.870228 2.653728 0 0 0 0 30.626793
-9.4280367 11.591414 3.0455964 0 0 0 0 30.631741
-9.6713734 11.350543 3.4234834 0 0 0 0 30.636688
-9.8718004 11.061593 3.798315 0 0 0 0 30.641634
-9.3662996 11.56161 2.624553 0 0 0 0 30.646582
-9.5119677 11.147573 2.9802611 0 0 0 0 30.651527
-9.9528236 11.150013 3.4264205 0 0 0 0 30.656475
-10.083354 10.807943 3.7861834 0 0 0 0 30.661423
-9.5729837 11.241968 2.5933647 0 0 0 0 30.66637
-9.9221392 11.088252 3.0193615 0 0 0 0 30.671316
-10.063626 10.769205 3.3761475 0 0 0 0 30.676262
-10.304875 10.568304 3.7810674 0 0 0 0 30.68121
-9.8225498 10.981391 2.5772409 0 0 0 0 30.686157
-10.140748 10.804619 2.9992077 0 0 0 0 30.691105
-10.267211 10.496541 3.3589978 0 0 0 0 30.696053
-10.518417 10.31665 3.7709382 0 0 0 0 30.700998
-10.119007 10.773885 2.5771778 0 0 0 0 30.705944
-10.49375 10.244908 3.3498735 0 0 0 0 30.715839
-10.671057 10.013896 3.7437458 0 0 0 0 30.720787
-10.65839 9.9401741 3.3246841 0 0 0 0 30.735626
-10.816702 9.7061272 3.7155473 0 0 0 0 30.740574
-10.847967 9.665473 3.3105283 0 0 0 0 30.755415
-10.949343 9.3983335 3.6863446 0 0 0 0 30.760363
-11.058512 9.4048033 3.3023915 0 0 0 0 30.775204
-10.996108 9.0244007 3.6330581 0 0 0 0 30.780151
-11.127965 9.3530512 2.9103062 0 0 0 0 30.5278
-11.244267 9.1309376 3.2911632 0 0 0 0 30.532745
-11.057052 8.6723166 3.584712 0 0 0 0 30.537693
-11.427866 8.8512316 3.2790003 0 0 0 0 30.552534
-11.098805 8.3163738 3.535435 0 0 0 0 30.55748
-11.661373 8.6146059 3.2838917 0 0 0 0 30.572323
-11.120565 7.9553962 3.4821475 0 0 0 0 30.577271
-11.648862 8.4588814 2.8647606 0 0 0 0 30.587162
-11.858934 8.3489141 3.2817457 0 0 0 0 30.59211
-11.238169 7.6685715 3.4619567 0 0 0 0 30.597057
-11.799506 8.1501112 2.8485625 0 0 0 0 30.606951
-12.023537 8.0611649 3.2705698 0 0 0 0 30.611898
-11.3977 7.4148126 3.4558091 0 0 0 0 30.616844
-12.112926 7.9516115 2.8735144 0 0 0 0 30.62674
-12.11823 7.7272973 3.2413311 0 0 0 0 30.631687
-11.29157 6.9946184 3.371429 0 0 0 0 30.636633
-12.211632 7.6077466 2.848269 0 0 0 0 30.646526
-12.173948 7.3773603 3.2060657 0 0 0 0 30.651474
-11.3482 6.6886859 3.3392026 0 0 0 0 30.656422
-12.300018 7.5002036 2.4322155 0 0 0 0 30.661369
-12.452148 7.3561153 2.8581512 0 0 0 0 30.666315
-12.1897 7.009356 3.1607721 0 0 0 0 30.671261
-11.480731 6.4298744 3.331043 0 0 0 0 30.676208
-0.42442527 0.22195432 0.085036203 0 0 0 0 30.705891
-0.43341967 0.22195934 0.10004692 0 0 0 0 30.710838
-0.43642184 0.21795408 0.11405222 0 0 0 0 30.715786
-0.42144433 0.21396355 0.070051216 0 0 0 0 30.720734
-0.41747561 0.19395107 0.081071116 0 0 0 0 30.745468
-0.43346414 0.19696806 0.097086728 0 0 0 0 30.750414
-0.43246847 0.1919563 0.11008982 0 0 0 0 30.755362
-0.4214882 0.18897153 0.068091087 0 0 0 0 30.760307
-0.42550921 0.17397209 0.08111798 0 0 0 0 30.785042
-0.44149777 0.17698891 0.097133555 0 0 0 0 30.789989
-0.43250856 0.16896504 0.10713142 0 0 0 0 30.794937
-0.4305234 0.16799426 0.068137497 0 0 0 0 30.799885
-0.44353643 0.15701023 0.082170807 0 0 0 0 30.824619
-0.45852688 0.15902503 0.098185182 0 0 0 0 30.829567
-0.44153792 0.15098761 0.10718034 0 0 0 0 30.834515
-0.47053817 0.15706871 0.073202811 0 0 0 0 30.83946
-0.3916074 0.1179325 0.07018172 0 0 0 0 30.864195
-0.37661499 0.11189981 0.078179277 0 0 0 0 30.869143
-0.38061255 0.11089887 0.089187428 0 0 0 0 30.874088
-0.38562828 0.10793486 0.057194307 0 0 0 0 30.879036
-0.36665377 0.090899423 0.064212024 0 0 0 0 30.90377
-0.38763919 0.09592557 0.07923083 0 0 0 0 30.908718
-0.38064098 0.092906587 0.088233627 0 0 0 0 30.913666
-0.36267042 0.082904704 0.052227013 0 0 0 0 30.918613
-0.35768592 0.070892915 0.061253674 0 0 0 0 30.943348
-0.37967142 0.075920612 0.076272771 0 0 0 0 30.948296
-0.37267172 0.07390257 0.084276401 0 0 0 0 30.953241
-0.36169991 0.06391079 0.051272213 0 0 0 0 30.958187
-0.36570913 0.054913331 0.0623044 0 0 0 0 30.982924
-0.37470132 0.056921121 0.073316649 0 0 0 0 30.987869
-0.36869773 0.056904148 0.082322262 0 0 0 0 30.992817
-0.35975912 0.045868646 0.050922085 0 0 0 0 30.741184
-0.35177159 0.03585181 0.058949232 0 0 0 0 30.765921
-0.37076092 0.038876787 0.07196594 0 0 0 0 30.770866
-0.36275753 0.038856424 0.079970792 0 0 0 0 30.775814
-0.36178705 0.027879391 0.050969034 0 0 0 0 30.780762
-0.3547956 0.019864475 0.058998238 0 0 0 0 30.805496
-0.37378681 0.021889236 0.072014078 0 0 0 0 30.810444
-0.37077978 0.023878073 0.08002232 0 0 0 0 30.815392
-0.372812 0.010904773 0.053019989 0 0 0 0 30.820337
-0.36182067 0.0028834725 0.060047865 0 0 0 0 30.845072
-0.37781227 0.0049034078 0.072062634 0 0 0 0 30.850019
-0.37280524 0.0068886909 0.08007019 0 0 0 0 30.854965
-0.35583824 -0.0061164973 0.050061394 0 0 0 0 30.859913
-0.36784351 -0.013099506 0.061098021 0 0 0 0 30.884647
-0.38483509 -0.011077967 0.073113091 0 0 0 0 30.889595
-0.37482667 -0.008100749 0.080119774 0 0 0 0 30.894543
-0.37186551 -0.025083186 0.053112552 0 0 0 0 30.89949
-0.37186947 -0.031086197 0.06214593 0 0 0 0 30.924225
-0.38686144 -0.029067604 0.073160276 0 0 0 0 30.929173
-0.37985092 -0.025085721 0.081168808 0 0 0 0 30.934118
-0.38389266 -0.044056576 0.055162374 0 0 0 0 30.939064
-0.377895 -0.049069453 0.063194573 0 0 0 0 30.9638
-0.39188665 -0.047053616 0.075208545 0 0 0 0 30.968746
-0.38687649 -0.043067288 0.08221776 0 0 0 0 30.973694
-0.37891823 -0.062058616 0.055207357 0 0 0 0 30.978642
-0.36691895 -0.066081077 0.062238425 0 0 0 0 31.003376
-0.37690988 -0.063069962 0.071251839 0 0 0 0 31.008324
-0.37789735 -0.058074638 0.080263875 0 0 0 0 31.013271
-0.36894193 -0.079068474 0.054251593 0 0 0 0 31.018217
-0.3559393 -0.081091613 0.060284026 0 0 0 0 31.042953
-0.36993167 -0.079074435 0.070297942 0 0 0 0 31.047899
-0.36191848 -0.073092312 0.076307796 0 0 0 0 31.052845
-0.35796341 -0.095079802 0.053296439 0 0 0 0 31.057793
-0.35196206 -0.098091379 0.060330447 0 0 0 0 31.082527
-0.37195757 -0.098064795 0.071344689 0 0 0 0 31.087475
-0.36594099 -0.090079106 0.077356823 0 0 0 0 31.092422
-0.35498729 -0.11307868 0.054342445 0 0 0 0 31.09737
-0.37599608 -0.12304781 0.066379704 0 0 0 0 31.122105
-0.36297676 -0.11307245 0.070391156 0 0 0 0 31.127052
-0.36596507 -0.10807205 0.077403814 0 0 0 0 31.131998
-0.40604189 -0.15099229 0.064390093 0 0 0 0 31.136944
-0.40403938 -0.15399882 0.073425464 0 0 0 0 31.16168
-0.40902734 -0.14899591 0.08143875 0 0 0 0 31.166626
-0.39800444 -0.1370178 0.086452439 0 0 0 0 31.171574
-0.40006796 -0.17099676 0.065433666 0 0 0 0 31.176521
-0.39406255 -0.17200838 0.072469391 0 0 0 0 31.201256
-0.40905496 -0.1699902 0.082483478 0 0 0 0 31.206203
-0.40503356 -0.15900093 0.08849863 0 0 0 0 31.211151
-0.43817848 -0.21197133 0.074089371 0 0 0 0 30.968227
-0.43317237 -0.2129828 0.082125351 0 0 0 0 30.992962
-0.44315952 -0.20797177 0.091140427 0 0 0 0 30.99791
-0.39710549 -0.17704855 0.087157853 0 0 0 0 31.002857
-0.44322139 -0.24195968 0.078128323 0 0 0 0 31.007803
-0.44922313 -0.2479535 0.088163972 0 0 0 0 31.032539
-0.45020086 -0.23695588 0.094180867 0 0 0 0 31.037485
-0.44317201 -0.22197139 0.099198334 0 0 0 0 31.042431
-3.3010926 -2.0054538 0.66170907 0 0 0 0 31.047379
-3.3629744 -1.9524039 0.72877961 0 0 0 0 31.052326
-3.205163 -2.0536294 0.65466839 0 0 0 0 31.067167
-3.2880676 -2.0135434 0.7217353 0 0 0 0 31.072113
-3.3629611 -1.9654657 0.78180587 0 0 0 0 31.077061
-0.45621729 -0.25394681 0.10423844 0 0 0 0 31.082008
-3.1152327 -2.1017938 0.64763004 0 0 0 0 31.086956
-3.2091515 -2.0696888 0.71469396 0 0 0 0 31.091902
-3.2920542 -2.0265968 0.77376306 0 0 0 0 31.096849
-3.3799438 -1.976499 0.83583939 0 0 0 0 31.101795
-3.0433176 -2.1599298 0.64558983 0 0 0 0 31.106743
-3.1232212 -2.1178446 0.70665717 0 0 0 0 31.111691
-3.2041254 -2.074753 0.76172554 0 0 0 0 31.116638
-3.306031 -2.0336313 0.82379901 0 0 0 0 31.121584
-2.9563837 -2.2070873 0.63955396 0 0 0 0 31.126532
-3.0432949 -2.1689897 0.69962019 0 0 0 0 31.131477
-3.1322067 -2.129884 0.75368786 0 0 0 0 31.136425
-3.226109 -2.0857718 0.80976105 0 0 0 0 31.141373
-2.9663696 -2.2211285 0.6925838 0 0 0 0 31.151266
-3.0472746 -2.1770329 0.74165267 0 0 0 0 31.156212
-3.1431782 -2.132916 0.79572642 0 0 0 0 31.16116
-2.7252324 -2.1415143 0.64660007 0 0 0 0 31.171055
-2.9643364 -2.221179 0.73162091 0 0 0 0 31.176003
-3.0692542 -2.1850464 0.78469104 0 0 0 0 31.180948
-2.7325976 -2.3614986 0.63144976 0 0 0 0 31.185894
-2.6422799 -2.1776595 0.63857508 0 0 0 0 31.190842
-2.887404 -2.2693148 0.72258818 0 0 0 0 31.195789
-2.9833117 -2.2261941 0.77066076 0 0 0 0 31.200737
-2.6636698 -2.4146254 0.63041621 0 0 0 0 31.205683
-2.7455778 -2.3715274 0.67748433 0 0 0 0 31.21063
-2.7043264 -2.2266066 0.68659419 0 0 0 0 31.215576
-2.9093795 -2.2743225 0.75962925 0 0 0 0 31.220524
-2.58973 -2.4607589 0.62838691 0 0 0 0 31.225471
-2.670639 -2.4176607 0.6724546 0 0 0 0 31.230419
-2.7545516 -2.3755534 0.71152246 0 0 0 0 31.235365
-2.8344414 -2.3194518 0.74860001 0 0 0 0 31.240313
-2.5227988 -2.5128815 0.62835532 0 0 0 0 31.245258
-2.5936935 -2.4597952 0.66642767 0 0 0 0 31.250206
-2.6796103 -2.4196837 0.70349443 0 0 0 0 31.255154
-2.7685137 -2.3715675 0.7405684 0 0 0 0 31.260099
-2.4508591 -2.5600107 0.62732649 0 0 0 0 31.265047
-2.532769 -2.5159063 0.66539508 0 0 0 0 31.269995
-2.607671 -2.4658089 0.69646609 0 0 0 0 31.27494
-2.6925676 -2.4126971 0.73054266 0 0 0 0 31.279888
-2.3819201 -2.6081345 0.62729806 0 0 0 0 31.284836
-2.458823 -2.5590363 0.66136891 0 0 0 0 31.289782
-2.5367312 -2.5119321 0.69043839 0 0 0 0 31.294729
-2.6286402 -2.4658077 0.72251147 0 0 0 0 31.299677
-2.3139818 -2.6572561 0.62726945 0 0 0 0 31.304623
-2.3878794 -2.6041605 0.65834236 0 0 0 0 31.30957
-2.4697919 -2.5590489 0.68541145 0 0 0 0 31.314518
-2.5556943 -2.5079315 0.71348643 0 0 0 0 31.319464
-2.2400301 -2.698386 0.6262455 0 0 0 0 31.324411
-2.3229434 -2.6542747 0.65631407 0 0 0 0 31.329359
-2.4008503 -2.6051679 0.68038493 0 0 0 0 31.334305
-2.4827442 -2.5480542 0.70446324 0 0 0 0 31.339252
-2.173089 -2.7465045 0.6272186 0 0 0 0 31.3442
-2.2580047 -2.7033892 0.65528691 0 0 0 0 31.349146
-2.3349094 -2.6522818 0.67635888 0 0 0 0 31.354094
-2.4168062 -2.5961664 0.69743627 0 0 0 0 31.359039
-2.1051438 -2.792624 0.62819326 0 0 0 0 31.363987
-2.1840477 -2.7415159 0.65226579 0 0 0 0 31.368935
-2.2629571 -2.6924031 0.67033672 0 0 0 0 31.37388
-2.3468566 -2.6372833 0.68941379 0 0 0 0 31.378828
-2.0321867 -2.8317502 0.6281721 0 0 0 0 31.383776
-2.1171029 -2.7876318 0.65124089 0 0 0 0 31.388721
-2.1970115 -2.7375162 0.66731274 0 0 0 0 31.393669
-2.2809126 -2.6823936 0.68238968 0 0 0 0 31.398617
-1.9712558 -2.8878589 0.63214159 0 0 0 0 31.403563
-2.0531621 -2.8367426 0.65121484 0 0 0 0 31.40851
-2.1280622 -2.7806325 0.66328973 0 0 0 0 31.413458
-2.2149692 -2.7285039 0.67636514 0 0 0 0 31.418404
-1.903307 -2.9329765 0.63411784 0 0 0 0 31.423351
-1.9822081 -2.8778622 0.64919317 0 0 0 0 31.428299
-2.0641205 -2.8287404 0.66026467 0 0 0 0 31.433245
-2.1490219 -2.772613 0.67034239 0 0 0 0 31.438192
-1.8334756 -2.9750657 0.63591105 0 0 0 0 31.330769
-1.9173838 -2.9249394 0.64898479 0 0 0 0 31.335714
-1.9952872 -2.8708189 0.65705973 0 0 0 0 31.340662
-2.0801878 -2.8146868 0.66413838 0 0 0 0 31.34561
-1.7705396 -3.0281775 0.63988227 0 0 0 0 31.350555
-1.8504376 -2.9710555 0.64996022 0 0 0 0 31.355503
-1.9293408 -2.915931 0.6540361 0 0 0 0 31.360451
-2.0172458 -2.8617926 0.659114 0 0 0 0 31.365396
-1.6995854 -3.0703006 0.64286005 0 0 0 0 31.370344
-1.7864957 -3.0201662 0.65093452 0 0 0 0 31.375292
-1.8643966 -2.963042 0.6530115 0 0 0 0 31.380238
-1.9502947 -2.9039044 0.65409249 0 0 0 0 31.385185
-1.6296276 -3.1104205 0.64483994 0 0 0 0 31.390133
-1.7175453 -3.0642834 0.65091145 0 0 0 0 31.395079
-1.7994504 -3.0091515 0.65098798 0 0 0 0 31.400026
-1.8803371 -2.9420192 0.64807355 0 0 0 0 31.404974
-1.3670673 -2.7637882 0.56706375 0 0 0 0 31.40992
-1.6516002 -3.112396 0.65288639 0 0 0 0 31.414867
-1.7274894 -3.0462706 0.6479696 0 0 0 0 31.419815
-1.8173958 -2.9911244 0.64504838 0 0 0 0 31.424761
-1.1515945 -2.471087 0.50225955 0 0 0 0 31.429708
-1.4161334 -2.8237255 0.58407301 0 0 0 0 31.434656
-1.6685616 -3.1053717 0.64993834 0 0 0 0 31.439602
-1.7504476 -3.0362341 0.64102548 0 0 0 0 31.44455
-0.99526864 -2.2713039 0.45740059 0 0 0 0 31.449495
-1.1916448 -2.5190337 0.51427531 0 0 0 0 31.454443
-1.5043193 -2.9606073 0.6090343 0 0 0 0 31.459391
-1.6834958 -3.0793431 0.63700438 0 0 0 0 31.464336
-0.85897738 -2.0924909 0.41753125 0 0 0 0 31.469284
-1.0293099 -2.3122568 0.46641994 0 0 0 0 31.474232
-1.254773 -2.6169465 0.52925915 0 0 0 0 31.479177
-1.6045095 -3.1004672 0.62899697 0 0 0 0 31.484125
-0.7467339 -1.9436431 0.38464579 0 0 0 0 31.489073
-0.8910203 -2.1334443 0.42454991 0 0 0 0 31.494019
-1.0814153 -2.3941822 0.47641289 0 0 0 0 31.498966
-1.3309137 -2.7228363 0.54024094 0 0 0 0 31.503914
-0.6455074 -1.8047789 0.35475576 0 0 0 0 31.50886
-0.77276599 -1.9766032 0.38866881 0 0 0 0 31.513807
-0.92808437 -2.1873875 0.42756006 0 0 0 0 31.518755
-1.1274768 -2.4471095 0.47542664 0 0 0 0 31.523701
-0.56634331 -1.7058848 0.33284125 0 0 0 0 31.528648
-0.67154664 -1.8417383 0.35877562 0 0 0 0 31.533596
-0.80482054 -2.0235519 0.38968277 0 0 0 0 31.538542
-0.97817272 -2.2573106 0.43056175 0 0 0 0 31.543489
-0.49418932 -1.6129801 0.31292412 0 0 0 0 31.548437
-0.58535922 -1.7268517 0.33287135 0 0 0 0 31.553383
-0.70068192 -1.8885942 0.35910219 0 0 0 0 31.558331
-0.84798747 -2.086376 0.39103448 0 0 0 0 31.563276
-0.43011144 -1.5269895 0.29525766 0 0 0 0 31.568224
-0.51327842 -1.6358652 0.31222481 0 0 0 0 31.573172
-0.60947663 -1.7647216 0.33118373 0 0 0 0 31.578117
-0.73574322 -1.9375336 0.35612506 0 0 0 0 31.583065
-0.37298214 -1.4510676 0.27931994 0 0 0 0 31.588013
-0.44913957 -1.5539538 0.29428867 0 0 0 0 31.592958
-0.53230685 -1.6628277 0.30725595 0 0 0 0 31.597906
-0.6415357 -1.8116647 0.32720679 0 0 0 0 31.602854
-0.3228755 -1.3891351 0.2653757 0 0 0 0 31.6078
-0.38699111 -1.4650372 0.27435726 0 0 0 0 31.612747
-0.4651624 -1.5769203 0.28832126 0 0 0 0 31.617695
-0.56036031 -1.7057765 0.30228013 0 0 0 0 31.622641
-0.2777738 -1.3301952 0.25343102 0 0 0 0 31.627588
-0.33588329 -1.402106 0.26041326 0 0 0 0 31.632536
-0.40402526 -1.4950023 0.26938581 0 0 0 0 31.637482
-0.4902136 -1.6178721 0.28134573 0 0 0 0 31.642429
-0.23567598 -1.2732501 0.24148595 0 0 0 0 31.647377
-0.29380953 -1.361163 0.25145856 0 0 0 0 31.652323
-0.34890249 -1.4220761 0.25344661 0 0 0 0 31.65727
-0.42607215 -1.5329586 0.26241115 0 0 0 0 31.662218
-0.19658302 -1.219301 0.23153986 0 0 0 0 31.667164
-0.24970594 -1.3002203 0.23851527 0 0 0 0 31.672112
-0.3068352 -1.3851327 0.24448952 0 0 0 0 31.677059
-0.36994684 -1.4580331 0.2454728 0 0 0 0 31.682005
-0.16149698 -1.169345 0.22159246 0 0 0 0 31.686953
-0.20860469 -1.2402722 0.22557214 0 0 0 0 31.691898
-0.26072752 -1.3211924 0.23054737 0 0 0 0 31.696846
-0.32386768 -1.4130946 0.23451933 0 0 0 0 31.701794
-0.13043292 -1.1333835 0.21363777 0 0 0 0 31.706739
-0.17251736 -1.1893176 0.21562502 0 0 0 0 31.711687
-0.21761158 -1.251246 0.21560958 0 0 0 0 31.716635
-0.27676028 -1.3491557 0.22057685 0 0 0 0 31.721581
-0.10137803 -1.1034199 0.20768005 0 0 0 0 31.726528
-0.13944748 -1.1493586 0.2066721 0 0 0 0 31.731476
-0.18153982 -1.2102919 0.20665644 0 0 0 0 31.736422
-0.23063719 -1.2742132 0.20464107 0 0 0 0 31.741369
-0.078405388 -1.1284535 0.2136914 0 0 0 0 31.746317
-0.10836569 -1.1013961 0.19772446 0 0 0 0 31.751263
-0.1474611 -1.1643336 0.19670677 0 0 0 0 31.75621
-0.19154605 -1.2202624 0.19369474 0 0 0 0 31.761158
-0.05341351 -1.1404877 0.21571 0 0 0 0 31.766104
-0.084383212 -1.1194289 0.19973974 0 0 0 0 31.771051
-0.11538421 -1.1193725 0.18775703 0 0 0 0 31.775999
-0.15747504 -1.1793045 0.18474208 0 0 0 0 31.780945
-0.02743168 -1.1595241 0.21972427 0 0 0 0 31.785892
-0.059394356 -1.1334627 0.20175719 0 0 0 0 31.79084
-0.089359887 -1.1094053 0.18478832 0 0 0 0 31.795786
-0.12540883 -1.1413438 0.17678817 0 0 0 0 31.800734
-0.0022012512 -1.1774075 0.22454379 0 0 0 0 32.285187
-0.034154348 -1.1413511 0.20457999 0 0 0 0 32.290131
-0.065144978 -1.1332984 0.18860066 0 0 0 0 32.295078
-0.095106214 -1.1032455 0.169633 0 0 0 0 32.300026
0.024791868 -1.1904399 0.22756293 0 0 0 0 32.304974
-0.0081789531 -1.1673828 0.20859227 0 0 0 0 32.309921
-0.039173681 -1.1623303 0.19261128 0 0 0 0 32.314865
-0.070115589 -1.1172742 0.16965191 0 0 0 0 32.319817
0.052773383 -1.2124743 0.23257706 0 0 0 0 32.32476
0.017811496 -1.1824137 0.21161062 0 0 0 0 32.329708
-0.013188919 -1.1813607 0.19462745 0 0 0 0 32.334656
-0.045137852 -1.1413034 0.17166553 0 0 0 0 32.3396
0.080763318 -1.2285085 0.23759457 0 0 0 0 32.344551
0.045795351 -1.2024469 0.2146259 0 0 0 0 32.349495
0.012817242 -1.1843898 0.19465235 0 0 0 0 32.354443
-0.019141385 -1.1513327 0.17168657 0 0 0 0 32.35939
0.11074398 -1.2515448 0.24260794 0 0 0 0 32.364338
0.074774563 -1.2264823 0.2196389 0 0 0 0 32.369286
0.040812913 -1.1954219 0.19567251 0 0 0 0 32.374229
0.0068446947 -1.1693622 0.17270344 0 0 0 0 32.379181
0.14172897 -1.2715822 0.2476228 0 0 0 0 32.384125
0.10376163 -1.2445161 0.22265528 0 0 0 0 32.389072
0.069794469 -1.2174559 0.19868669 0 0 0 0 32.39402
0.033844147 -1.1773921 0.1727255 0 0 0 0 32.398964
0.17370643 -1.297621 0.25363439 0 0 0 0 32.403915
0.13573764 -1.2715551 0.22866625 0 0 0 0 32.408859
0.0987854 -1.232489 0.20070472 0 0 0 0 32.413807
0.062821537 -1.2024255 0.17473811 0 0 0 0 32.418755
0.20768711 -1.3216627 0.26064667 0 0 0 0 32.423698
0.16772014 -1.2935927 0.23268004 0 0 0 0 32.42865
0.1297624 -1.2585255 0.20471655 0 0 0 0 32.433594
0.092804551 -1.2234598 0.17675276 0 0 0 0 32.438541
0.24266413 -1.3487051 0.26765731 0 0 0 0 32.443489
0.20169653 -1.3206329 0.23769085 0 0 0 0 32.448437
0.16274741 -1.2785636 0.20773122 0 0 0 0 32.453384
0.12378783 -1.244495 0.17876731 0 0 0 0 32.458328
0.28063509 -1.3807514 0.27566475 0 0 0 0 32.46328
0.23667483 -1.3466746 0.24370208 0 0 0 0 32.468224
0.19572765 -1.3026019 0.21174392 0 0 0 0 32.473171
0.1557727 -1.2645311 0.18078227 0 0 0 0 32.478119
0.31961149 -1.4087981 0.28267422 0 0 0 0 32.483063
0.27464822 -1.3767197 0.24971071 0 0 0 0 32.488014
0.23070793 -1.3266418 0.21475631 0 0 0 0 32.492958
0.18975151 -1.28957 0.18379429 0 0 0 0 32.497906
0.35859239 -1.4338448 0.2906855 0 0 0 0 32.502853
0.31262848 -1.4017643 0.25572214 0 0 0 0 32.507801
0.26768774 -1.3516849 0.21976785 0 0 0 0 32.512749
0.2237356 -1.3106079 0.18580857 0 0 0 0 32.517693
0.39857566 -1.4568913 0.29669774 0 0 0 0 32.522644
0.35459763 -1.4358141 0.26272807 0 0 0 0 32.527588
0.30367512 -1.370725 0.22278295 0 0 0 0 32.532536
0.26071373 -1.3366498 0.18881966 0 0 0 0 32.537483
0.44554108 -1.4949487 0.30770063 0 0 0 0 32.542427
0.39458349 -1.4568598 0.26774144 0 0 0 0 32.547379
0.34663919 -1.4087759 0.22978663 0 0 0 0 32.552322
0.29869476 -1.3606923 0.19183174 0 0 0 0 32.55727
0.49351054 -1.5300064 0.31770509 0 0 0 0 32.562218
0.44055489 -1.4899142 0.27574733 0 0 0 0 32.567162
0.39061096 -1.4408265 0.23479341 0 0 0 0 32.572113
0.34365243 -1.4037449 0.19783248 0 0 0 0 32.577057
0.54248536 -1.5610642 0.32671165 0 0 0 0 32.582005
0.4895229 -1.5259718 0.28375119 0 0 0 0 32.586952
0.43259695 -1.4618735 0.23880658 0 0 0 0 32.5919
0.3846342 -1.4277904 0.20084424 0 0 0 0 32.596848
0.59644848 -1.6021292 0.33871207 0 0 0 0 32.601791
0.54148805 -1.5650336 0.29375303 0 0 0 0 32.606743
0.48156101 -1.5009302 0.24580896 0 0 0 0 32.611687
0.43160251 -1.4628434 0.20484908 0 0 0 0 32.616634
0.65241587 -1.640196 0.35071385 0 0 0 0 32.621582
0.59346068 -1.5980935 0.3017582 0 0 0 0 32.626526
0.53153569 -1.5319875 0.25281549 0 0 0 0 32.631477
0.47758391 -1.4878944 0.20885953 0 0 0 0 32.636421
0.71138382 -1.6782658 0.36271515 0 0 0 0 32.641369
0.65042669 -1.6371602 0.31175938 0 0 0 0 32.646317
0.58649838 -1.5730511 0.26081598 0 0 0 0 32.65126
0.52755451 -1.5219506 0.21386465 0 0 0 0 32.656212
0.77833658 -1.7293464 0.37770823 0 0 0 0 32.661156
0.71238714 -1.6812329 0.32275712 0 0 0 0 32.666103
0.64545912 -1.6161189 0.26881474 0 0 0 0 32.671051
0.58351713 -1.5630139 0.21986502 0 0 0 0 32.675999
0.84829122 -1.7794298 0.39270148 0 0 0 0 32.680946
0.77635163 -1.7223067 0.33275619 0 0 0 0 32.68589
0.70642412 -1.6561884 0.27681491 0 0 0 0 32.690842
0.64547169 -1.6110845 0.22686075 0 0 0 0 32.695786
0.92723721 -1.837525 0.41068891 0 0 0 0 32.700733
0.85029924 -1.7783946 0.34774563 0 0 0 0 32.705681
0.77537668 -1.7072685 0.28780788 0 0 0 0 32.710625
0.70544249 -1.6461509 0.23186381 0 0 0 0 32.715576
1.0081865 -1.8936216 0.42867723 0 0 0 0 32.72052
0.92625201 -1.8304828 0.36073706 0 0 0 0 32.725468
0.84533554 -1.7533479 0.29680353 0 0 0 0 32.730415
0.77140433 -1.6892248 0.23886174 0 0 0 0 32.735363
1.1001234 -1.9607319 0.44965795 0 0 0 0 32.740311
1.0101999 -1.8875815 0.37672445 0 0 0 0 32.745255
0.92628127 -1.8114418 0.30979094 0 0 0 0 32.750206
0.84835011 -1.7463121 0.24785042 0 0 0 0 32.75515
1.2038549 -2.0400379 0.47417867 0 0 0 0 32.513351
1.1049446 -1.9588639 0.39425445 0 0 0 0 32.518299
1.0120425 -1.8727021 0.32233119 0 0 0 0 32.523247
0.92911828 -1.8045567 0.25639594 0 0 0 0 32.528191
1.3187654 -2.1261866 0.50114185 0 0 0 0 32.533142
1.2158525 -2.0460057 0.41721791 0 0 0 0 32.538086
1.1059763 -1.9378178 0.33631006 0 0 0 0 32.543034
1.0160587 -1.8636619 0.26637948 0 0 0 0 32.547981
1.4436722 -2.2163477 0.53010112 0 0 0 0 32.552929
1.3267752 -2.1221452 0.43818766 0 0 0 0 32.557877
1.2118976 -2.0139494 0.35328075 0 0 0 0 32.56282
1.1139886 -1.9317812 0.27835613 0 0 0 0 32.567772
1.5795728 -2.3125219 0.5610553 0 0 0 0 32.572716
1.4506863 -2.2083006 0.46114963 0 0 0 0 32.577663
1.3318049 -2.1020985 0.37224242 0 0 0 0 32.582611
1.2278982 -2.0169206 0.29232058 0 0 0 0 32.587555
1.7354569 -2.4237232 0.59799755 0 0 0 0 32.592506
1.5975732 -2.3154871 0.49009585 0 0 0 0 32.59745
1.461711 -2.1922596 0.39320126 0 0 0 0 32.602398
1.3458152 -2.0970635 0.30628726 0 0 0 0 32.607346
1.919311 -2.5609612 0.64192045 0 0 0 0 32.612289
1.7554581 -2.4256864 0.52103865 0 0 0 0 32.617241
1.6125951 -2.3014474 0.41714597 0 0 0 0 32.622185
1.477721 -2.1872237 0.32224602 0 0 0 0 32.627132
2.1271503 -2.7122297 0.69083148 0 0 0 0 32.63208
1.940318 -2.5579205 0.55796456 0 0 0 0 32.637028
1.7754784 -2.4126489 0.44308755 0 0 0 0 32.641975
1.6336024 -2.2984145 0.34218898 0 0 0 0 32.646919
2.3729563 -2.8935487 0.75071913 0 0 0 0 32.651871
2.1571498 -2.7151961 0.60187101 0 0 0 0 32.656815
1.9693308 -2.5508909 0.4760088 0 0 0 0 32.661762
1.8044804 -2.4136221 0.36312714 0 0 0 0 32.66671
2.6467516 -3.0859022 0.81559587 0 0 0 0 32.671654
2.4079576 -2.8945148 0.65275937 0 0 0 0 32.676605
2.2051439 -2.723186 0.5149039 0 0 0 0 32.681549
2.0073264 -2.5568707 0.39004442 0 0 0 0 32.686497
1.618287 -1.806428 0.48352551 0 0 0 0 32.691444
2.68975 -3.088871 0.70863414 0 0 0 0 32.696392
2.4649475 -2.9055092 0.55778944 0 0 0 0 32.70134
2.2481427 -2.7261653 0.42094064 0 0 0 0 32.706284
1.820141 -1.9446851 0.53144479 0 0 0 0 32.711235
1.6782467 -1.8424525 0.42753869 0 0 0 0 32.716179
1.8389661 -2.0676336 0.40139687 0 0 0 0 32.721127
2.5379171 -2.9325211 0.45880803 0 0 0 0 32.726074
2.1538582 -2.2021196 0.6142745 0 0 0 0 32.731018
1.8801087 -1.9737031 0.46646228 0 0 0 0 32.73597
1.6743027 -1.7973888 0.35360774 0 0 0 0 32.740913
1.8709755 -2.0616121 0.32543874 0 0 0 0 32.745861
4.0258656 -3.9396515 1.1270086 0 0 0 0 32.750809
2.2378104 -2.2441604 0.54228115 0 0 0 0 32.755753
1.9550747 -2.0047393 0.40247557 0 0 0 0 32.760704
1.6863356 -1.7713464 0.28266338 0 0 0 0 32.765648
4.0960169 -3.8367004 1.1220869 0 0 0 0 32.770596
2.6854453 -2.5757313 0.6360507 0 0 0 0 32.775543
2.3277729 -2.2782056 0.46729079 0 0 0 0 32.780491
2.0450258 -2.0477903 0.33347982 0 0 0 0 32.785439
4.1122217 -3.6856759 1.1022011 0 0 0 0 32.790382
3.4707704 -3.1807415 0.80360943 0 0 0 0 32.795334
4.1249666 -3.8515294 0.81013733 0 0 0 0 32.800278
2.4447093 -2.3332808 0.3882843 0 0 0 0 32.805225
4.2073388 -3.6097572 1.10426 0 0 0 0 32.810173
4.1612673 -3.6436129 0.94226426 0 0 0 0 32.815117
3.5487905 -3.1637366 0.67865139 0 0 0 0 32.820068
4.1800232 -3.8014731 0.64820337 0 0 0 0 32.825012
4.3274341 -3.5528708 1.1133034 0 0 0 0 32.82996
4.2763715 -3.5787189 0.94731289 0 0 0 0 32.834908
4.2333136 -3.6025817 0.79132158 0 0 0 0 32.839851
3.6128252 -3.1327093 0.54370362 0 0 0 0 32.844803
4.4655175 -3.5060067 1.1273382 0 0 0 0 32.849747
4.3665009 -3.4907904 0.94637859 0 0 0 0 32.854694
4.373404 -3.5487168 0.79735929 0 0 0 0 32.859642
4.3223481 -3.5705671 0.63437068 0 0 0 0 32.86459
4.5124969 -3.4928493 0.8043983 0 0 0 0 32.879433
4.4514561 -3.5006859 0.63641876 0 0 0 0 32.884377
5.1491852 -3.7966089 0.89915156 0 0 0 0 32.899216
5.5539999 -2.9964845 1.0391221 0 0 0 0 32.748505
5.6588836 -3.065522 0.8790741 0 0 0 0 32.753448
5.5998607 -3.0523429 0.68710518 0 0 0 0 32.7584
4.5627074 -2.3469682 0.54873842 0 0 0 0 32.778183
4.6748261 -2.2640696 0.55279481 0 0 0 0 32.797974
4.0123487 -1.8271919 0.46620241 0 0 0 0 32.81776
4.0784664 -1.7402385 0.46626952 0 0 0 0 32.837547
3.7887735 -1.5249701 0.65746039 0 0 0 0 32.847443
3.8777218 -1.5520186 0.55643666 0 0 0 0 32.85239
3.9626675 -1.5790578 0.44641387 0 0 0 0 32.857338
3.9218457 -1.4771034 0.6714924 0 0 0 0 32.867233
3.9378312 -1.4700584 0.55750185 0 0 0 0 32.872177
3.8738437 -1.4379126 0.43054149 0 0 0 0 32.877125
4.012938 -1.4101826 0.67954314 0 0 0 0 32.88702
4.0419235 -1.4031523 0.5645498 0 0 0 0 32.891968
3.9649434 -1.3639902 0.43459556 0 0 0 0 32.896912
4.1320243 -1.3482953 0.6915853 0 0 0 0 32.906807
4.0920382 -1.3151788 0.56561989 0 0 0 0 32.911755
3.0533922 -0.96983838 0.32902703 0 0 0 0 32.916702
4.3250957 -1.3245724 0.84958297 0 0 0 0 32.921646
4.3590817 -1.3145413 0.72158998 0 0 0 0 32.926598
3.0714893 -0.90888298 0.41807994 0 0 0 0 32.931541
3.1144748 -0.90688491 0.33208051 0 0 0 0 32.936489
4.0582976 -1.1481973 0.78876555 0 0 0 0 32.941437
4.2112556 -1.1673185 0.68873221 0 0 0 0 32.946381
4.1292853 -1.1191516 0.55778301 0 0 0 0 32.951332
3.1635611 -0.83991617 0.33413848 0 0 0 0 32.956276
6.5847726 -1.6672107 1.0700117 0 0 0 0 32.966171
6.4348278 -1.5829262 0.86409545 0 0 0 0 32.971119
3.6345432 -0.87145466 0.38105717 0 0 0 0 32.976067
6.6629314 -1.5753592 1.2710705 0 0 0 0 32.98101
5.2442679 -1.2025104 0.84156752 0 0 0 0 32.985962
5.2152925 -1.1553954 0.69260621 0 0 0 0 32.990906
3.6556506 -0.78444791 0.3791312 0 0 0 0 32.995853
5.1714311 -1.0643764 0.82168871 0 0 0 0 33.005745
5.163455 -1.0182889 0.6787222 0 0 0 0 33.010696
5.1714692 -0.9802193 0.53474838 0 0 0 0 33.01564
5.1365805 -0.9382903 0.80979538 0 0 0 0 33.025536
6.7853308 -1.176188 0.88733852 0 0 0 0 33.030479
4.5257282 -0.74541384 0.46403712 0 0 0 0 33.035431
6.7754841 -1.0792204 1.0604175 0 0 0 0 33.045322
4.2818713 -0.64015388 0.55316734 0 0 0 0 33.05027
4.2578959 -0.59706157 0.43320212 0 0 0 0 33.055218
4.2529659 -0.58014512 0.65822983 0 0 0 0 33.065109
6.9526896 -0.874277 0.89552808 0 0 0 0 33.070061
7.0327196 -0.81526935 0.7165491 0 0 0 0 33.075005
6.9808245 -0.79235327 1.0745914 0 0 0 0 33.0849
7.0578685 -0.72234577 0.90361828 0 0 0 0 33.089844
7.1429086 -0.65334278 0.72364289 0 0 0 0 33.094795
7.0929976 -0.64442974 1.0846781 0 0 0 0 33.104687
7.1650515 -0.56441534 0.9117105 0 0 0 0 33.109634
7.2630982 -0.48942685 0.73273516 0 0 0 0 33.114582
7.269114 -0.58468693 1.3046997 0 0 0 0 33.11953
7.1931739 -0.49149048 1.0927691 0 0 0 0 33.124474
7.2872353 -0.40450099 0.92180026 0 0 0 0 33.129425
7.3932929 -0.31952083 0.74282777 0 0 0 0 33.134369
6.8623013 -0.40314656 1.2229095 0 0 0 0 33.139317
6.7653646 -0.3079333 1.0209838 0 0 0 0 33.144264
7.4054227 -0.23958112 0.9328928 0 0 0 0 33.149208
7.5084901 -0.14459665 0.75292557 0 0 0 0 33.15416
6.760468 -0.24897 1.1950419 0 0 0 0 33.159103
6.7695322 -0.15688375 1.0150925 0 0 0 0 33.164051
7.5296159 -0.067666203 0.94398701 0 0 0 0 33.168999
7.649693 0.036299352 0.76602036 0 0 0 0 33.173943
6.7926297 -0.10295241 1.1931423 0 0 0 0 33.178894
6.7706995 -0.0038309076 1.0092024 0 0 0 0 33.183838
7.5118055 0.10641149 0.93911099 0 0 0 0 33.188786
7.4168797 0.21261919 0.74118924 0 0 0 0 33.193733
6.790792 0.045206666 1.1853271 0 0 0 0 33.23756
6.9068727 0.15116876 1.0253615 0 0 0 0 33.242508
7.2649779 0.27285585 0.90435463 0 0 0 0 33.247452
7.1630497 0.37606359 0.71543181 0 0 0 0 33.252403
6.9099555 0.19612613 1.1984107 0 0 0 0 33.257347
7.047049 0.31406531 1.0414464 0 0 0 0 33.262295
7.1301441 0.43306136 0.88549346 0 0 0 0 33.267242
7.267242 0.5560019 0.72653139 0 0 0 0 33.27219
7.0061212 0.35107282 1.2085006 0 0 0 0 33.277138
7.1252227 0.47803298 1.0485438 0 0 0 0 33.282082
7.2583308 0.60897326 0.90058619 0 0 0 0 33.287033
7.3944421 0.74591613 0.74063051 0 0 0 0 33.291977
7.1202917 0.51200056 1.2215893 0 0 0 0 33.296925
7.2564054 0.65094274 1.0636345 0 0 0 0 33.301872
7.3835244 0.79389048 0.91468316 0 0 0 0 33.306816
7.5196447 0.93983412 0.75473142 0 0 0 0 33.311768
7.2394676 0.67992413 1.2356797 0 0 0 0 33.316711
7.3665895 0.82787639 1.0777305 0 0 0 0 33.321659
7.5207238 0.98579603 0.93078053 0 0 0 0 33.326607
7.5488372 1.1288574 0.75984854 0 0 0 0 33.331551
7.3596463 0.85284823 1.249772 0 0 0 0 33.336502
7.5037827 1.0157827 1.0938261 0 0 0 0 33.341446
8.5070858 1.3177795 1.0537742 0 0 0 0 33.346394
7.6410413 1.3298129 0.77195811 0 0 0 0 33.351341
7.4788313 1.033775 1.2638675 0 0 0 0 33.356289
8.493144 1.3447599 1.2358181 0 0 0 0 33.361237
8.6753225 1.5506604 1.0748838 0 0 0 0 33.36618
7.6812387 1.5278251 0.77907592 0 0 0 0 33.371132
7.640027 1.2266568 1.28596 0 0 0 0 33.376076
8.6503725 1.5716535 1.255927 0 0 0 0 33.381023
8.814558 1.7865739 1.094 0 0 0 0 33.385971
7.7332134 1.4146148 1.2970629 0 0 0 0 33.395866
8.8256092 1.8085291 1.2800363 0 0 0 0 33.40081
8.9968109 2.0414433 1.1181155 0 0 0 0 33.405758
7.736382 1.5896714 1.2931769 0 0 0 0 33.415649
8.9998541 2.0574081 1.3041506 0 0 0 0 33.420601
9.2370892 2.3232532 1.1512314 0 0 0 0 33.425545
8.9648733 2.0494096 1.4941823 0 0 0 0 33.43544
9.1811075 2.3182814 1.3302684 0 0 0 0 33.440388
9.1381149 2.300293 1.5182971 0 0 0 0 33.455231
9.3703737 2.5941489 1.3573906 0 0 0 0 33.460175
9.3003635 2.5601895 1.5424172 0 0 0 0 33.475014
6.8697715 2.0708466 0.99366909 0 0 0 0 33.479965
6.496789 2.125304 0.81677121 0 0 0 0 33.484909
6.6587052 1.9920472 1.099701 0 0 0 0 33.494804
6.5068011 2.1222768 0.94279426 0 0 0 0 33.499752
7.0211391 2.4808092 0.8868621 0 0 0 0 33.5047
7.0149732 2.2667255 1.1567886 0 0 0 0 33.514595
6.6249943 2.3292031 0.96089625 0 0 0 0 33.519539
6.5241094 2.4763706 0.82898664 0 0 0 0 33.524487
6.8460631 2.3789554 1.1269029 0 0 0 0 33.534378
6.4790864 2.4414029 0.94200575 0 0 0 0 33.53933
8.1709528 3.3197343 1.0460799 0 0 0 0 33.544273
6.528089 2.4303367 1.0730178 0 0 0 0 33.554169
8.2009525 3.3066869 1.1960949 0 0 0 0 33.559113
10.408828 4.1373982 1.7140735 0 0 0 0 33.573956
7.7429037 3.2781966 1.2732264 0 0 0 0 33.593742
7.6262794 3.7364521 0.99845773 0 0 0 0 33.603638
6.3574471 2.8596599 1.0443324 0 0 0 0 33.613533
7.5081892 3.6385608 1.1064626 0 0 0 0 33.618477
7.5351524 3.5915217 1.2394632 0 0 0 0 33.63332
7.5673985 3.8825557 1.1205877 0 0 0 0 33.638268
6.6053176 3.8746266 0.77477092 0 0 0 0 33.648163
7.5463281 3.802567 1.2425828 0 0 0 0 33.653107
6.9942741 3.7891784 1.0416827 0 0 0 0 33.658054
7.0132227 3.7301526 1.1566793 0 0 0 0 33.672897
7.182477 4.0260377 1.1868048 0 0 0 0 33.692684
6.5126538 3.8460672 1.0787228 0 0 0 0 34.237686
8.89361 6.6844759 1.5055652 0 0 0 0 34.336624
5.4362941 5.0032215 0.76845759 0 0 0 0 34.351467
5.7336421 5.5330343 0.8316322 0 0 0 0 34.371254
6.2321563 6.3056993 0.92886394 0 0 0 0 34.391045
6.140985 6.0887794 0.9818207 0 0 0 0 34.405884
7.1520195 7.5900593 1.0962167 0 0 0 0 34.410828
6.3873262 6.6336374 1.0440043 0 0 0 0 34.425671
7.548378 8.2118292 1.2624246 0 0 0 0 34.445457
6.9197569 7.3543134 1.2002298 0 0 0 0 34.4603
6.7024336 6.9194975 1.2001283 0 0 0 0 34.475143
7.7845993 8.6607332 1.3755914 0 0 0 0 34.480087
7.1959658 7.774189 1.3023828 0 0 0 0 34.494926
6.4435101 8.6897697 1.1598046 0 0 0 0 34.509769
6.2055235 8.7959728 1.1588923 0 0 0 0 34.529556
6.3084307 8.7069283 1.2038668 0 0 0 0 34.544399
5.8103776 8.660285 1.1269175 0 0 0 0 34.549347
6.0894527 8.8281183 1.1989563 0 0 0 0 34.564186
5.5373416 8.690506 1.1179825 0 0 0 0 34.569134
6.2163649 8.7510653 1.220932 0 0 0 0 34.579029
5.6822834 8.6554356 1.1559699 0 0 0 0 34.583977
5.5996475 9.2534914 1.1791828 0 0 0 0 34.588921
6.4083066 8.7189732 1.2469155 0 0 0 0 34.593872
6.0073919 8.8842478 1.2110232 0 0 0 0 34.598816
5.7545896 9.2234163 1.2121702 0 0 0 0 34.603764
8.1537457 14.214746 1.796532 0 0 0 0 34.608711
6.1562929 8.7901878 1.2199912 0 0 0 0 34.613655
5.6002202 8.706563 1.1600348 0 0 0 0 34.618607
5.5286031 9.3406029 1.207256 0 0 0 0 34.62355
7.8237743 14.408008 1.8046485 0 0 0 0 34.628498
5.7811551 8.6654825 1.1680166 0 0 0 0 34.633446
5.6595106 9.2615547 1.2072303 0 0 0 0 34.63839
8.0176353 14.290929 1.8215984 0 0 0 0 34.643341
7.4817929 14.588273 1.8117607 0 0 0 0 34.648285
5.4890885 8.6517162 1.1320679 0 0 0 0 34.653233
8.2174969 14.176857 1.8095492 0 0 0 0 34.65818
7.7066817 14.518177 1.823722 0 0 0 0 34.663128
7.1127725 14.709553 1.8128554 0 0 0 0 34.668076
5.5713921 9.2396965 1.1762699 0 0 0 0 34.673019
7.9035311 14.387111 1.7986677 0 0 0 0 34.677971
7.3316526 14.627463 1.8118135 0 0 0 0 34.682915
6.7837973 14.906799 1.8249686 0 0 0 0 34.687862
7.5555243 14.534383 1.7817682 0 0 0 0 34.697754
6.9956627 14.802718 1.8099203 0 0 0 0 34.702705
7.235929 16.944511 2.0615804 0 0 0 0 34.707649
5.9529734 12.126881 1.456989 0 0 0 0 34.463215
6.6508851 14.955309 1.8068707 0 0 0 0 34.468163
7.239006 18.104799 2.1918738 0 0 0 0 34.473106
7.4775748 14.577818 1.7116436 0 0 0 0 34.478058
5.7871513 12.509031 1.4751558 0 0 0 0 34.483002
6.3289332 15.172572 1.8119966 0 0 0 0 34.487949
6.9322062 18.577044 2.2380791 0 0 0 0 34.492897
5.7426476 11.855135 1.354951 0 0 0 0 34.497845
6.5167322 14.990512 1.7359196 0 0 0 0 34.502792
6.6911554 17.148312 2.02563 0 0 0 0 34.507736
6.5573106 18.914331 2.2702444 0 0 0 0 34.512688
5.1762261 11.34058 1.2638639 0 0 0 0 34.517632
6.1707315 15.139791 1.7230239 0 0 0 0 34.522579
6.7359571 18.529289 2.1660962 0 0 0 0 34.527527
6.2415414 19.448568 2.3264668 0 0 0 0 34.532471
5.4780955 12.777385 1.3883249 0 0 0 0 34.537422
6.5429683 17.175533 1.9236705 0 0 0 0 34.542366
6.4071302 18.978542 2.1972916 0 0 0 0 34.547314
5.8215904 19.716879 2.3506103 0 0 0 0 34.552261
5.1830893 12.898624 1.3674152 0 0 0 0 34.557209
6.1449389 17.305843 1.9097694 0 0 0 0 34.562157
6.0542617 19.372808 2.2254691 0 0 0 0 34.567101
5.9659667 22.038746 2.6243656 0 0 0 0 34.572052
5.699461 15.161273 1.5721169 0 0 0 0 34.576996
6.2238493 18.898794 2.0532942 0 0 0 0 34.581944
5.6924248 19.824074 2.2586644 0 0 0 0 34.586891
5.7065663 23.196913 2.7587767 0 0 0 0 34.591835
5.3183913 15.210567 1.5391885 0 0 0 0 34.596786
5.8679852 19.309061 2.0664749 0 0 0 0 34.60173
5.2764807 20.116375 2.2748113 0 0 0 0 34.606678
5.2066169 23.513258 2.7929347 0 0 0 0 34.611626
5.6166315 17.338369 1.7148606 0 0 0 0 34.61657
5.482089 19.677345 2.0746436 0 0 0 0 34.621521
5.5573997 23.377131 2.6248448 0 0 0 0 34.626465
4.7116961 23.881594 2.8351071 0 0 0 0 34.631413
5.178525 17.351694 1.6779219 0 0 0 0 34.63636
5.0911961 20.056625 2.085814 0 0 0 0 34.641308
5.0494361 23.682482 2.6399975 0 0 0 0 34.646255
4.1967382 24.197935 2.872262 0 0 0 0 34.651199
5.3307309 19.494591 1.8436043 0 0 0 0 34.656151
