# .PCD v0.7 - Point Cloud Data file format
VERSION 0.7
FIELDS x y z normal_x normal_y normal_z intensity curvature
SIZE 4 4 4 4 4 4 4 4
TYPE F F F F F F F F
COUNT 1 1 1 1 1 1 1 1
WIDTH 961
HEIGHT 1
VIEWPOINT 0 0 0 1 0 0 0
POINTS 961
DATA ascii
0.73442084 -1.2223725 0.25082242 0 0 0 0 28.297796
0.95251727 -1.2426041 0.27259922 0 0 0 0 28.302744
0.8784529 -1.2268693 0.2656979 0 0 0 0 28.307692
0.83046752 -1.2320426 0.26175034 0 0 0 0 28.312637
0.77945483 -1.2302246 0.25581264 0 0 0 0 28.317585
1.0025477 -1.2484443 0.28158659 0 0 0 0 28.322533
0.93151248 -1.240698 0.27467436 0 0 0 0 28.327478
0.87448341 -1.2348996 0.26674652 0 0 0 0 28.332426
0.81945795 -1.2300937 0.25881568 0 0 0 0 28.337374
1.0525709 -1.2522855 0.29057589 0 0 0 0 28.342319
0.9795301 -1.2435439 0.28166661 0 0 0 0 28.347267
0.9154802 -1.2327675 0.27075055 0 0 0 0 28.352215
0.86246914 -1.2319539 0.26281381 0 0 0 0 28.357161
1.092537 -1.2411609 0.29658976 0 0 0 0 28.362108
1.032564 -1.2503746 0.29065007 0 0 0 0 28.367056
0.96952856 -1.2435941 0.27972904 0 0 0 0 28.372002
0.90949309 -1.2368023 0.26880509 0 0 0 0 28.376949
2.0653913 -2.2389464 0.56270188 0 0 0 0 28.381897
1.0835825 -1.2532126 0.29863939 0 0 0 0 28.386843
1.0165335 -1.243443 0.28472522 0 0 0 0 28.39179
0.95951951 -1.24264 0.27379245 0 0 0 0 28.396736
2.1834927 -2.2635689 0.58560652 0 0 0 0 28.401684
2.0213392 -2.2301252 0.55480933 0 0 0 0 28.406631
1.067551 -1.2462804 0.29171455 0 0 0 0 28.411579
1.0095396 -1.2464796 0.27978176 0 0 0 0 28.416525
2.2955427 -2.2742143 0.60753077 0 0 0 0 28.421473
2.1474733 -2.2637212 0.57869732 0 0 0 0 28.426418
1.9782143 -2.2032909 0.53793323 0 0 0 0 28.431366
1.0605561 -1.2493167 0.28577107 0 0 0 0 28.436314
2.4135971 -2.2858415 0.63044816 0 0 0 0 28.441259
2.256516 -2.2733743 0.59662551 0 0 0 0 28.446207
2.123425 -2.257822 0.56378222 0 0 0 0 28.451155
1.9511387 -2.1903977 0.52002776 0 0 0 0 28.4561
2.531637 -2.2934706 0.65336949 0 0 0 0 28.461048
2.3775833 -2.288991 0.61853606 0 0 0 0 28.465996
2.235477 -2.2704649 0.58070457 0 0 0 0 28.470942
2.0973539 -2.2469249 0.54387397 0 0 0 0 28.475889
2.6697133 -2.3100362 0.68126249 0 0 0 0 28.480837
2.5006318 -2.2996018 0.6394496 0 0 0 0 28.485783
2.3495111 -2.2781026 0.59762979 0 0 0 0 28.49073
2.2104077 -2.2605631 0.55879432 0 0 0 0 28.495678
2.816802 -2.3295746 0.71114379 0 0 0 0 28.500624
2.6276782 -2.3092027 0.66236019 0 0 0 0 28.505571
2.4765759 -2.2936995 0.61753452 0 0 0 0 28.510517
2.3344767 -2.2781668 0.5757001 0 0 0 0 28.515465
2.889643 -2.284359 0.72216028 0 0 0 0 28.520412
2.7727637 -2.3287466 0.68924356 0 0 0 0 28.52536
2.6026163 -2.3023028 0.63744706 0 0 0 0 28.530306
2.4525051 -2.2847922 0.59062231 0 0 0 0 28.535254
2.9103251 -2.197315 0.72026777 0 0 0 0 28.540199
2.8857138 -2.3123975 0.70719284 0 0 0 0 28.545147
2.7446826 -2.3178539 0.65933716 0 0 0 0 28.550095
2.5875676 -2.3003631 0.60851932 0 0 0 0 28.55504
2.9430511 -2.1212332 0.72235256 0 0 0 0 28.559988
2.8993683 -2.2183747 0.70131367 0 0 0 0 28.564936
2.8867214 -2.3254089 0.682235 0 0 0 0 28.569881
2.7286212 -2.3129177 0.62841332 0 0 0 0 28.574829
3.1071248 -2.1347253 0.75722247 0 0 0 0 28.579777
2.9260657 -2.1353092 0.69841081 0 0 0 0 28.584723
2.9063828 -2.2333646 0.67534781 0 0 0 0 28.58967
2.882694 -2.3304317 0.65028977 0 0 0 0 28.594618
3.3102729 -2.1670933 0.80103618 0 0 0 0 28.599564
3.0730932 -2.1378551 0.72530794 0 0 0 0 28.604511
2.9270544 -2.1433179 0.66945726 0 0 0 0 28.609459
2.9113741 -2.2433562 0.64338881 0 0 0 0 28.614405
3.5083776 -2.1874819 0.84386623 0 0 0 0 28.619352
3.2622061 -2.1622672 0.76214302 0 0 0 0 28.624298
3.0480032 -2.1259475 0.68739891 0 0 0 0 28.629246
2.926018 -2.146327 0.63351053 0 0 0 0 28.634193
3.7296419 -2.2122278 0.89102995 0 0 0 0 28.352144
3.460438 -2.1811202 0.80133533 0 0 0 0 28.357092
3.2482686 -2.1568153 0.72157818 0 0 0 0 28.362038
3.0330484 -2.1175234 0.64483863 0 0 0 0 28.366985
3.9918289 -2.2503815 0.94977957 0 0 0 0 28.371933
3.6885793 -2.2103806 0.84612709 0 0 0 0 28.376879
3.4533761 -2.1791482 0.75739926 0 0 0 0 28.381826
3.238188 -2.1498508 0.67664987 0 0 0 0 28.386772
4.2519641 -2.2745464 1.007545 0 0 0 0 28.39172
3.94174 -2.2435613 0.89689052 0 0 0 0 28.396667
3.6724861 -2.201438 0.79620665 0 0 0 0 28.401615
3.4462914 -2.1721716 0.70846802 0 0 0 0 28.406561
4.5641637 -2.3135417 1.077245 0 0 0 0 28.411509
4.2128897 -2.272687 0.95164037 0 0 0 0 28.416454
3.932646 -2.2355931 0.84296232 0 0 0 0 28.421402
3.667393 -2.1934521 0.74227446 0 0 0 0 28.42635
4.965486 -2.3812456 1.1678298 0 0 0 0 28.431295
4.5210733 -2.3096924 1.0133462 0 0 0 0 28.436243
4.1987705 -2.259733 0.89072198 0 0 0 0 28.441191
3.9455824 -2.2365444 0.78700382 0 0 0 0 28.446136
5.0361276 -2.2800577 1.1809028 0 0 0 0 28.451084
4.9123678 -2.372427 1.0939457 0 0 0 0 28.456032
4.517962 -2.2997 0.94941413 0 0 0 0 28.460978
4.2237134 -2.2636414 0.8307488 0 0 0 0 28.465925
5.0376487 -2.1490996 1.177072 0 0 0 0 28.470873
5.0381007 -2.2940526 1.1159424 0 0 0 0 28.475819
4.9092369 -2.3594317 1.0220168 0 0 0 0 28.480766
4.536871 -2.2966254 0.88045371 0 0 0 0 28.485714
5.055203 -2.0250907 1.1792181 0 0 0 0 28.49066
5.0496259 -2.1640584 1.1111004 0 0 0 0 28.495607
5.0419674 -2.2810307 1.040006 0 0 0 0 28.500553
4.9521627 -2.3622744 0.95002705 0 0 0 0 28.505501
5.0687685 -1.9040942 1.1793646 0 0 0 0 28.510448
5.05515 -2.0330858 1.1062647 0 0 0 0 28.515396
5.0614944 -2.1510084 1.0351559 0 0 0 0 28.520342
5.0538173 -2.2649753 0.95806491 0 0 0 0 28.52529
5.0803328 -1.7821051 1.1795133 0 0 0 0 28.530235
5.0777097 -1.9100579 1.1064038 0 0 0 0 28.535183
5.074019 -2.0200107 1.0293128 0 0 0 0 28.540131
5.068325 -2.1299675 0.94922388 0 0 0 0 28.545076
5.0899053 -1.6611252 1.1816624 0 0 0 0 28.550024
5.0832543 -1.7830865 1.1025629 0 0 0 0 28.554972
5.0795426 -1.8880366 1.0224769 0 0 0 0 28.559917
5.0838423 -1.9969578 0.94137937 0 0 0 0 28.564865
5.1044908 -1.5431279 1.1838031 0 0 0 0 28.569813
5.0978217 -1.6610866 1.1017077 0 0 0 0 28.574759
5.1041007 -1.7640009 1.0206139 0 0 0 0 28.579706
5.0973639 -1.8639561 0.93453598 0 0 0 0 28.584654
5.1160817 -1.4261414 1.1859453 0 0 0 0 28.5896
5.111392 -1.5390905 1.1008528 0 0 0 0 28.594547
5.1146522 -1.6380118 1.015766 0 0 0 0 28.599495
5.1048913 -1.7319747 0.9266969 0 0 0 0 28.604441
5.131681 -1.310143 1.190082 0 0 0 0 28.609388
5.1289763 -1.4200826 1.1019907 0 0 0 0 28.614334
5.1232047 -1.5110317 1.0129204 0 0 0 0 28.619282
5.1254411 -1.6049514 0.92183971 0 0 0 0 28.624229
5.1242638 -1.1902201 1.1892443 0 0 0 0 28.629177
5.1345515 -1.2981148 1.1011424 0 0 0 0 28.634123
5.1377711 -1.3870319 1.0110654 0 0 0 0 28.639071
5.1409931 -1.4779457 0.9169867 0 0 0 0 28.644016
5.1398778 -1.0772222 1.1933769 0 0 0 0 28.648964
5.1571493 -1.1810911 1.1032721 0 0 0 0 28.653912
5.1443381 -1.2630583 1.0072176 0 0 0 0 28.658857
5.1515422 -1.3489584 0.91313988 0 0 0 0 28.663805
5.152492 -0.9632358 1.1985128 0 0 0 0 28.668753
5.1637402 -1.0621213 1.1034188 0 0 0 0 28.673698
5.1559134 -1.1400695 1.0053633 0 0 0 0 28.678646
5.1741085 -1.2239311 0.91027689 0 0 0 0 28.683594
5.1601028 -0.84826499 1.2016541 0 0 0 0 28.68854
5.1623263 -0.9411779 1.1025747 0 0 0 0 28.693487
5.1765037 -1.0200527 1.0064968 0 0 0 0 28.698435
5.1656566 -1.0940069 0.90344828 0 0 0 0 28.703381
5.1667218 -0.7342996 1.2067946 0 0 0 0 28.708328
5.1809354 -0.82516986 1.1057055 0 0 0 0 28.713276
5.1820836 -0.89708495 1.0046471 0 0 0 0 28.718222
5.181232 -0.97000414 0.90058988 0 0 0 0 28.723169
5.1853547 -0.62329513 1.2139201 0 0 0 0 28.728115
5.1905403 -0.70719296 1.1088465 0 0 0 0 28.733063
5.1896749 -0.77611238 1.004793 0 0 0 0 28.73801
5.1978078 -0.84500027 0.89973074 0 0 0 0 28.742958
5.1929817 -0.51032668 1.2190577 0 0 0 0 28.747904
5.1941524 -0.59123474 1.109991 0 0 0 0 28.752851
5.2082763 -0.65710342 1.0059257 0 0 0 0 28.757797
5.2153964 -0.72299325 0.89886725 0 0 0 0 28.762745
5.2016153 -0.3983559 1.2251928 0 0 0 0 28.767693
5.2097697 -0.47523862 1.114123 0 0 0 0 28.772638
5.2198768 -0.53711855 1.0070654 0 0 0 0 28.777586
5.2209725 -0.59702545 0.89601862 0 0 0 0 28.782534
5.2132521 -0.286376 1.2323242 0 0 0 0 28.787479
5.2213869 -0.35825729 1.1192594 0 0 0 0 28.792427
5.228477 -0.416145 1.0092084 0 0 0 0 28.797375
5.2365603 -0.47302675 0.89615768 0 0 0 0 28.80232
5.2198834 -0.17241228 1.2384621 0 0 0 0 28.807268
5.2300057 -0.24128538 1.1233981 0 0 0 0 28.812216
5.2400765 -0.29416156 1.011349 0 0 0 0 28.817162
5.2461476 -0.3480486 0.89630288 0 0 0 0 28.822109
5.2323642 -0.058746863 1.247105 0 0 0 0 28.575436
5.2434783 -0.12360904 1.1290417 0 0 0 0 28.580383
5.2565436 -0.17346834 1.0149909 0 0 0 0 28.585331
5.2525969 -0.22138238 0.89595878 0 0 0 0 28.590277
10.293046 0.10366058 2.4753263 0 0 0 0 28.595224
5.249083 -0.0056469343 1.1331869 0 0 0 0 28.60017
5.2691374 -0.052482329 1.0191321 0 0 0 0 28.605118
5.2771797 -0.09735401 0.89909118 0 0 0 0 28.610065
7.4490271 0.15547448 1.6192162 0 0 0 0 28.619959
8.1671743 0.10697475 1.5894738 0 0 0 0 28.624907
5.2877598 0.027626265 0.90123755 0 0 0 0 28.629852
7.115468 0.25544849 1.3856851 0 0 0 0 28.644693
7.4535069 0.2147029 1.2753235 0 0 0 0 28.649641
11.112183 1.1741763 2.1947277 0 0 0 0 28.704058
11.106102 1.1203877 1.9176916 0 0 0 0 28.709005
11.279412 2.8424587 2.9272921 0 0 0 0 28.812893
10.805812 3.994319 2.9459574 0 0 0 0 28.911833
10.793456 4.0085497 2.6189892 0 0 0 0 28.916779
10.787037 4.0487804 2.3140385 0 0 0 0 28.921726
10.850516 4.1222348 2.0170493 0 0 0 0 28.926674
10.641188 4.1946807 2.9323289 0 0 0 0 28.93162
10.661767 4.2320118 2.6153491 0 0 0 0 28.936567
10.691267 4.2993522 2.3193872 0 0 0 0 28.941513
10.748714 4.3827868 2.0214126 0 0 0 0 28.946461
10.643387 4.4655514 2.9695985 0 0 0 0 28.951408
10.674917 4.5169196 2.6496203 0 0 0 0 28.956356
10.753321 4.6164141 2.3606391 0 0 0 0 28.961302
10.793743 4.7047987 2.0546854 0 0 0 0 28.966249
10.639594 4.7344046 3.0038714 0 0 0 0 28.971195
10.688055 4.807826 2.6858957 0 0 0 0 28.976143
10.729465 4.9022083 2.3849461 0 0 0 0 28.981091
10.781821 5.0116305 2.0789988 0 0 0 0 28.986038
10.656767 5.0173206 3.0451343 0 0 0 0 28.990984
10.714171 5.1087694 2.7271659 0 0 0 0 28.995932
10.763515 5.2231779 2.425226 0 0 0 0 29.000877
10.809838 5.3415856 2.1122925 0 0 0 0 29.005825
10.675916 5.3112378 3.091404 0 0 0 0 29.010773
10.743266 5.4187217 2.7704399 0 0 0 0 29.015718
10.78657 5.5451126 2.4645162 0 0 0 0 29.020666
10.906731 5.7167501 2.1625569 0 0 0 0 29.025614
10.759967 5.6433487 3.1586425 0 0 0 0 29.03056
10.819263 5.7658114 2.8296988 0 0 0 0 29.035507
10.809603 5.8760443 2.5058124 0 0 0 0 29.040455
10.879776 6.0405302 2.1898954 0 0 0 0 29.045401
10.781246 5.9520354 3.2089691 0 0 0 0 29.094061
10.767607 6.0492778 2.8580742 0 0 0 0 29.099009
10.899677 6.2539382 2.5651302 0 0 0 0 29.103954
10.792359 6.265923 3.2582583 0 0 0 0 29.11385
11.88202 7.1927419 2.8450115 0 0 0 0 29.123743
11.642076 7.0992713 3.5701759 0 0 0 0 29.133636
11.632123 7.4400816 3.6225047 0 0 0 0 29.153425
11.640109 7.8049412 3.6838355 0 0 0 0 29.173214
11.71297 8.2189884 3.767143 0 0 0 0 29.193001
12.207553 10.758842 2.9439118 0 0 0 0 29.267206
12.022544 10.396502 3.7497871 0 0 0 0 29.2771
11.956404 10.819126 3.8122275 0 0 0 0 29.296888
12.078755 11.428285 3.9376392 0 0 0 0 29.316677
11.571831 11.775445 3.0174417 0 0 0 0 29.326571
12.139194 12.009261 4.0510855 0 0 0 0 29.336464
11.493295 11.801727 3.469548 0 0 0 0 29.341412
11.47556 12.247982 3.0789485 0 0 0 0 29.346359
11.412805 11.807025 3.9016378 0 0 0 0 29.356253
11.423009 12.284339 3.5420363 0 0 0 0 29.361198
11.515809 12.892908 3.1824646 0 0 0 0 29.366146
11.338341 11.813317 4.3637228 0 0 0 0 29.371094
11.358521 12.293677 3.9851131 0 0 0 0 29.37604
11.457332 12.910238 3.6565409 0 0 0 0 29.380987
11.563907 13.596844 3.3020198 0 0 0 0 29.385933
11.300075 12.298015 4.4551797 0 0 0 0 29.390881
11.389921 12.897567 4.1036005 0 0 0 0 29.395828
11.514504 13.593199 3.7820683 0 0 0 0 29.400776
11.333534 12.886904 4.5826511 0 0 0 0 29.410669
11.454145 13.569539 4.2421103 0 0 0 0 29.415615
12.442562 15.400564 4.2176809 0 0 0 0 29.420563
11.403818 13.544888 4.732142 0 0 0 0 29.430458
11.847756 14.703868 5.0486813 0 0 0 0 29.450245
11.901843 15.442783 5.2162476 0 0 0 0 29.470034
12.485059 16.985661 5.0609632 0 0 0 0 29.474979
12.40815 16.847883 5.6019201 0 0 0 0 29.48982
12.181116 17.372593 5.1015821 0 0 0 0 29.494768
12.226678 18.312447 5.3053131 0 0 0 0 29.514557
12.384606 19.58515 5.008214 0 0 0 0 29.519503
12.211503 20.483988 4.54913 0 0 0 0 29.52445
12.359752 19.437527 5.557107 0 0 0 0 29.534344
12.150955 20.242243 5.1169786 0 0 0 0 29.539291
12.659282 22.429897 4.9362864 0 0 0 0 29.544239
12.055552 19.932444 5.6278062 0 0 0 0 29.554132
12.501419 21.95887 5.4930387 0 0 0 0 29.559078
12.065929 22.628004 4.9370184 0 0 0 0 29.564026
12.058929 20.977182 5.8550868 0 0 0 0 30.27359
12.185533 22.579687 5.5931354 0 0 0 0 30.278538
11.435602 22.6992 4.9139657 0 0 0 0 30.283485
11.950695 20.564432 6.3738799 0 0 0 0 30.288433
12.296435 22.543427 6.2199831 0 0 0 0 30.293379
11.547599 22.631937 5.5537901 0 0 0 0 30.298326
10.799625 22.777447 4.8986373 0 0 0 0 30.303272
12.380598 22.41209 6.8607888 0 0 0 0 30.30822
11.675488 22.595737 6.1686211 0 0 0 0 30.313168
10.924638 22.698236 5.52244 0 0 0 0 30.318115
10.167718 22.827723 4.8772845 0 0 0 0 30.323061
11.827403 22.567568 6.8284349 0 0 0 0 30.328009
11.065549 22.648085 6.1212482 0 0 0 0 30.332954
10.316654 22.776581 5.4990835 0 0 0 0 30.337902
9.5437698 22.899019 4.8699389 0 0 0 0 30.34285
11.220459 22.614941 6.7650547 0 0 0 0 30.347795
10.471534 22.735477 6.0888844 0 0 0 0 30.352743
9.7127047 22.842945 5.4767146 0 0 0 0 30.357689
8.9348564 22.956371 4.8595676 0 0 0 0 30.362637
10.641487 22.677389 6.7106581 0 0 0 0 30.367584
9.8796148 22.781893 6.0454888 0 0 0 0 30.372532
9.1177921 22.894348 5.4513254 0 0 0 0 30.377478
8.3349133 23.029751 4.8581996 0 0 0 0 30.382425
10.070519 22.73987 6.660253 0 0 0 0 30.387371
9.2976646 22.845339 6.0140953 0 0 0 0 30.392319
8.5318794 22.948782 5.4319291 0 0 0 0 30.397266
7.742012 23.085167 4.8528109 0 0 0 0 30.402214
9.5075331 22.813375 6.616848 0 0 0 0 30.40716
8.7257338 22.901819 5.982687 0 0 0 0 30.412107
7.956944 23.014252 5.41853 0 0 0 0 30.417053
7.1541309 23.134602 4.8504128 0 0 0 0 30.422001
8.9446392 22.845901 6.5614138 0 0 0 0 30.426949
8.1687584 22.979347 5.9582787 0 0 0 0 30.431896
7.3780503 23.064722 5.4061241 0 0 0 0 30.436842
6.5732536 23.185064 4.8530087 0 0 0 0 30.44179
8.3896894 22.907446 6.5219913 0 0 0 0 30.446735
7.6028843 23.014868 5.9278488 0 0 0 0 30.451683
6.8181052 23.138247 5.3997154 0 0 0 0 30.456631
6.0003633 23.241558 4.8576007 0 0 0 0 30.461576
7.8347774 22.954004 6.4815588 0 0 0 0 30.466524
7.0399623 23.074396 5.9094334 0 0 0 0 30.471472
6.2472491 23.175758 5.3902922 0 0 0 0 30.476418
5.4194918 23.294039 4.8691978 0 0 0 0 30.481365
7.291832 23.0166 6.4471259 0 0 0 0 30.486313
6.491056 23.127974 5.8899994 0 0 0 0 30.491259
5.6873441 23.237301 5.3908749 0 0 0 0 30.496206
4.8565826 23.363571 4.884789 0 0 0 0 30.501152
6.7539191 23.067217 6.4136791 0 0 0 0 30.5061
5.9381781 23.170551 5.8705616 0 0 0 0 30.511047
5.1354527 23.292879 5.3894453 0 0 0 0 30.515995
4.2887268 23.412104 4.9003696 0 0 0 0 30.520941
6.2190084 23.117851 6.3822289 0 0 0 0 30.525888
5.3992538 23.236168 5.8611264 0 0 0 0 30.530834
4.5815635 23.350456 5.3940187 0 0 0 0 30.535782
3.7288613 23.465668 4.9169469 0 0 0 0 30.54073
5.68608 23.179497 6.3587847 0 0 0 0 30.545677
4.8593736 23.283794 5.849679 0 0 0 0 30.550623
4.0346813 23.407061 5.4015841 0 0 0 0 30.555571
3.166014 23.514233 4.9385228 0 0 0 0 30.560516
5.156199 23.220163 6.3293228 0 0 0 0 30.565464
4.3204632 23.346432 5.8442411 0 0 0 0 30.570412
3.4878259 23.452679 5.4081426 0 0 0 0 30.575357
2.6091518 23.57082 4.9640985 0 0 0 0 30.580305
4.6332726 23.283848 6.3108697 0 0 0 0 30.585253
3.7885489 23.413092 5.8437991 0 0 0 0 30.590199
2.9409459 23.511303 5.4207096 0 0 0 0 30.595146
2.0502977 23.625414 4.9916744 0 0 0 0 30.600094
4.0993748 23.337519 6.2944202 0 0 0 0 30.60504
3.2467196 23.443743 5.8383417 0 0 0 0 30.609987
2.3930616 23.57493 5.4402814 0 0 0 0 30.614933
1.4944615 23.674025 5.0212436 0 0 0 0 30.619881
3.5764918 23.384228 6.2749553 0 0 0 0 30.624828
2.7088475 23.495411 5.8408952 0 0 0 0 30.629776
1.8482347 23.613579 5.4548321 0 0 0 0 30.634722
0.93359655 23.738628 5.0598283 0 0 0 0 30.639669
3.055582 23.445946 6.2644987 0 0 0 0 30.644615
2.1769564 23.556101 5.8454485 0 0 0 0 30.649563
1.300383 23.66523 5.4753952 0 0 0 0 30.65451
0.37675595 23.793255 5.0974026 0 0 0 0 30.659458
2.5257473 23.475655 6.2500286 0 0 0 0 30.664404
1.6450633 23.620798 5.8560042 0 0 0 0 30.669352
0.75651312 23.726896 5.5009613 0 0 0 0 30.674297
-0.18007147 23.842892 5.1349726 0 0 0 0 30.679245
2.0067782 23.56839 6.2525911 0 0 0 0 30.684193
1.1102164 23.665501 5.8635497 0 0 0 0 30.689138
0.20965862 23.783566 5.5285263 0 0 0 0 30.694086
-0.74691278 23.90251 5.18156 0 0 0 0 30.699034
1.48193 23.606133 6.2421217 0 0 0 0 30.703979
0.56936795 23.714193 5.8781033 0 0 0 0 30.708927
-0.33815643 23.824244 5.5560818 0 0 0 0 30.713875
-1.3117571 23.965145 5.2311473 0 0 0 0 30.718821
0.95107138 23.651861 6.2396636 0 0 0 0 30.723768
0.026525157 23.760895 5.8926582 0 0 0 0 30.728714
-0.89799452 23.877901 5.5906577 0 0 0 0 30.733662
-1.8885528 24.00876 5.282733 0 0 0 0 30.738609
0.41519654 23.709501 6.2434626 0 0 0 0 30.511978
-0.5213517 23.822401 5.915473 0 0 0 0 30.516926
-1.4568789 23.944277 5.6304884 0 0 0 0 30.521872
-2.4634166 24.066986 5.336576 0 0 0 0 30.526819
-0.11470916 23.777187 6.2520189 0 0 0 0 30.531765
-1.0652122 23.878052 5.938035 0 0 0 0 30.536713
-2.0207334 24.006872 5.6750755 0 0 0 0 30.54166
-3.0443158 24.156536 5.4021983 0 0 0 0 30.546608
-0.65151703 23.80187 6.2505527 0 0 0 0 30.551554
-1.612057 23.927704 5.9605956 0 0 0 0 30.556501
-2.5835364 24.047483 5.7156453 0 0 0 0 30.561447
-3.6290832 24.191092 5.4617858 0 0 0 0 30.566395
-1.190438 23.879551 6.2661247 0 0 0 0 30.571342
-2.1709402 23.998331 5.995183 0 0 0 0 30.57629
-3.1554382 24.133078 5.7672563 0 0 0 0 30.581236
-4.2158599 24.230652 5.5233793 0 0 0 0 30.586184
-1.7373123 23.93922 6.282692 0 0 0 0 30.591129
-2.7287722 24.046974 6.0257535 0 0 0 0 30.596077
-3.7311945 24.157679 5.8128281 0 0 0 0 30.601025
-4.8126936 24.297197 5.5940013 0 0 0 0 30.60597
-2.2841477 23.981903 6.295248 0 0 0 0 30.610918
-3.2986257 24.108597 6.0653453 0 0 0 0 30.615866
-4.3140259 24.217268 5.8684311 0 0 0 0 30.620811
-5.4214931 24.352718 5.6696277 0 0 0 0 30.625759
-2.8410115 24.03957 6.3148241 0 0 0 0 30.630707
-3.872453 24.15922 6.1029334 0 0 0 0 30.635653
-4.9098601 24.28083 5.9300499 0 0 0 0 30.6406
-6.0352635 24.397242 5.747251 0 0 0 0 30.645546
-3.4008777 24.100237 6.3384051 0 0 0 0 30.650494
-4.4462457 24.195852 6.1405115 0 0 0 0 30.655441
-5.5096631 24.332399 5.9916649 0 0 0 0 30.660389
-6.6550512 24.45076 5.8278871 0 0 0 0 30.665335
-3.9717202 24.152887 6.3649917 0 0 0 0 30.670282
-5.031075 24.251469 6.1861138 0 0 0 0 30.675228
-6.1144605 24.382963 6.056283 0 0 0 0 30.680176
-7.2918386 24.508244 5.9175425 0 0 0 0 30.685123
-4.5465851 24.216539 6.3945894 0 0 0 0 30.690071
-5.6299038 24.310057 6.2387323 0 0 0 0 30.695017
-6.7282495 24.432518 6.1249104 0 0 0 0 30.699965
-7.2279119 22.377781 5.4730053 0 0 0 0 30.70491
-5.0688267 23.990376 6.3519373 0 0 0 0 30.709858
-6.1692023 24.120844 6.2271223 0 0 0 0 30.714806
-7.168695 23.855602 6.038938 0 0 0 0 30.719753
-7.5077696 21.524286 5.3366895 0 0 0 0 30.724699
-5.5385809 23.534386 6.2530775 0 0 0 0 30.729647
-6.5754986 23.460037 6.0980611 0 0 0 0 30.734592
-7.2982912 22.403584 5.7310648 0 0 0 0 30.73954
-7.6510854 20.406168 5.1300631 0 0 0 0 30.744488
-5.9994383 23.123417 6.1672421 0 0 0 0 30.749434
-7.0192041 22.988113 6.0211678 0 0 0 0 30.754381
-7.4816351 21.289383 5.5054812 0 0 0 0 30.759327
-8.3415318 20.759508 5.2999816 0 0 0 0 30.764275
-6.4795446 22.827391 6.1125059 0 0 0 0 30.769222
-7.4046807 22.402357 5.9141426 0 0 0 0 30.77417
-7.6411157 20.229233 5.2939153 0 0 0 0 30.779116
-6.8942108 22.32056 6.0075641 0 0 0 0 30.789009
-7.5518918 21.204275 5.6444712 0 0 0 0 30.793957
-7.7425966 19.156227 5.0722876 0 0 0 0 30.798904
-7.344245 21.986624 5.9507756 0 0 0 0 30.808798
-7.6762648 20.073236 5.3938279 0 0 0 0 30.813745
-7.5690041 21.032331 5.7273512 0 0 0 0 30.828587
-7.7908897 19.051205 5.1682529 0 0 0 0 30.833534
-7.7015371 19.957281 5.4687581 0 0 0 0 30.848373
-7.9027181 18.118164 4.9667392 0 0 0 0 30.853321
-7.8877082 16.192549 4.464448 0 0 0 0 30.858269
-8.0397768 14.790454 4.1056738 0 0 0 0 30.863214
-7.8171878 18.931259 5.2281866 0 0 0 0 30.868162
-7.9628959 15.42056 4.3160143 0 0 0 0 30.878056
-8.1442966 14.18036 4.01438 0 0 0 0 30.883003
-7.9160337 17.989264 5.0066586 0 0 0 0 30.887951
-7.9331427 16.106564 4.5184364 0 0 0 0 30.892897
-8.0342293 14.711571 4.1826215 0 0 0 0 30.897844
-8.3272152 13.758059 3.969291 0 0 0 0 30.90279
-8.0053949 15.351588 4.3600144 0 0 0 0 30.912685
-8.1709309 14.177402 4.0964127 0 0 0 0 30.917633
-8.0526838 14.606669 4.2025776 0 0 0 0 30.932472
-8.3428288 13.736138 4.0353026 0 0 0 0 30.93742
-8.0118599 15.247727 4.3609567 0 0 0 0 30.947315
-8.1994524 14.095484 4.1113968 0 0 0 0 30.952261
-9.0447178 12.848719 3.947439 0 0 0 0 30.962154
-8.0260668 14.448901 4.1774554 0 0 0 0 30.967102
-8.3954525 13.696169 4.05234 0 0 0 0 30.97205
-8.1975355 13.974736 4.0872712 0 0 0 0 30.783644
-9.0949535 12.86973 3.9954326 0 0 0 0 30.793537
-8.445693 13.663273 4.0433168 0 0 0 0 30.803432
-9.0741024 11.164111 3.6762846 0 0 0 0 30.818274
-9.1285515 12.796839 3.9744322 0 0 0 0 30.828167
-9.3685637 11.003498 3.7144856 0 0 0 0 30.83806
-9.09484 11.149231 3.6813176 0 0 0 0 30.852901
-9.1782618 12.763924 3.9344752 0 0 0 0 30.862797
-9.1575747 11.116281 3.648381 0 0 0 0 30.887531
-9.2093172 11.073376 3.5854268 0 0 0 0 30.922161
-8.6739044 8.1019564 3.1349626 0 0 0 0 30.937
-8.7691898 7.8228407 3.1208973 0 0 0 0 30.956789
-8.7107391 8.0870581 3.0980253 0 0 0 0 30.97163
-8.700242 7.4141331 3.0525846 0 0 0 0 30.976578
-8.756958 7.7650719 3.0588844 0 0 0 0 30.991417
-8.7595253 7.1251054 3.0314801 0 0 0 0 30.996365
-8.7124434 7.9892764 3.0069997 0 0 0 0 31.00626
-8.7300892 7.3912635 2.9986386 0 0 0 0 31.011206
-8.7948065 6.8301368 3.0043492 0 0 0 0 31.016153
-8.659956 8.2225037 2.9441118 0 0 0 0 31.021099
-8.7716885 7.6752615 2.9668787 0 0 0 0 31.026047
-8.7583294 7.0733171 2.9604855 0 0 0 0 31.030994
-8.8981972 6.5939994 3.0043256 0 0 0 0 31.035942
-8.7181845 7.8964972 2.8939822 0 0 0 0 31.040888
-8.7287989 7.2844934 2.8966079 0 0 0 0 31.045835
-8.7816 6.7663808 2.9243362 0 0 0 0 31.050781
-8.8994646 6.2851114 2.9721544 0 0 0 0 31.055729
-8.7253551 7.536613 2.8317811 0 0 0 0 31.060677
-8.7600613 6.9715433 2.8544626 0 0 0 0 31.065624
-8.9140272 6.5451803 2.9253528 0 0 0 0 31.07057
-8.9918718 6.051002 2.9711237 0 0 0 0 31.075518
-8.7095203 7.1687808 2.7665541 0 0 0 0 31.080463
-8.8073702 6.6805534 2.8203492 0 0 0 0 31.085411
-8.8882761 6.2183604 2.8781443 0 0 0 0 31.090359
-8.7528076 6.8638043 2.7234278 0 0 0 0 31.100252
-8.8757219 6.4105115 2.7962716 0 0 0 0 31.105198
-9.0007114 5.9952083 2.8781419 0 0 0 0 31.110146
-8.8571959 6.6116815 2.7023978 0 0 0 0 31.120041
-8.9050484 6.1215625 2.7611444 0 0 0 0 31.124987
-8.836442 6.2758551 2.645191 0 0 0 0 31.139828
-9.0425072 5.9083562 2.7631745 0 0 0 0 31.144775
-0.44181782 0.24165252 0.13300341 0 0 0 0 31.154669
-8.952878 6.044704 2.6321888 0 0 0 0 31.159616
-0.43878734 0.23666546 0.12606499 0 0 0 0 31.189299
-0.42972678 0.21068449 0.12704948 0 0 0 0 31.194244
-0.43074843 0.2266901 0.11711849 0 0 0 0 31.223927
-0.42869598 0.20569222 0.12111321 0 0 0 0 31.228874
-0.42864785 0.18669008 0.12511119 0 0 0 0 31.233822
-0.42575362 0.23070641 0.10914496 0 0 0 0 31.238768
-0.41877601 0.19571392 0.1108586 0 0 0 0 31.107258
-0.43373913 0.18467572 0.11987641 0 0 0 0 31.112206
-0.43168893 0.16567726 0.12487211 0 0 0 0 31.117153
-0.42779288 0.20669748 0.10690366 0 0 0 0 31.122099
-0.42570293 0.17570066 0.11093067 0 0 0 0 31.146833
-0.44066533 0.16466221 0.12094855 0 0 0 0 31.151781
-0.37058929 0.12382406 0.10486233 0 0 0 0 31.156729
-0.42871195 0.18169928 0.10396656 0 0 0 0 31.161674
-0.43763182 0.15667631 0.11200859 0 0 0 0 31.186409
-0.37556317 0.12081717 0.099933676 0 0 0 0 31.191357
-0.37652263 0.10681085 0.10693573 0 0 0 0 31.196304
-0.44064084 0.16267504 0.1050445 0 0 0 0 31.201252
-0.36152738 0.11085396 0.08998166 0 0 0 0 31.225986
-0.37849575 0.10281115 0.10100355 0 0 0 0 31.230934
-0.37345645 0.087819472 0.10499904 0 0 0 0 31.23588
-0.36853251 0.11584237 0.085021012 0 0 0 0 31.240828
-0.35946143 0.091860019 0.088046014 0 0 0 0 31.265562
-0.37242895 0.082826644 0.098063335 0 0 0 0 31.27051
-0.36839217 0.069831543 0.10406114 0 0 0 0 31.275455
-0.37146768 0.097837426 0.084091023 0 0 0 0 31.280403
-0.35839733 0.07386329 0.087112181 0 0 0 0 31.305138
-0.37236616 0.065827534 0.098131172 0 0 0 0 31.310085
-0.3653307 0.052839231 0.10312604 0 0 0 0 31.315033
-0.3643994 0.076854609 0.081149355 0 0 0 0 31.319979
-0.35333499 0.055875372 0.085174516 0 0 0 0 31.344715
-0.37330198 0.047826361 0.098199591 0 0 0 0 31.349661
-0.35927093 0.035853568 0.1011881 0 0 0 0 31.354609
-0.36333612 0.058857903 0.080215722 0 0 0 0 31.359554
-0.3522734 0.038877849 0.085241646 0 0 0 0 31.384291
-0.3722406 0.030829309 0.09826678 0 0 0 0 31.389236
-0.36720884 0.019836089 0.104265 0 0 0 0 31.394184
-0.3592746 0.040867858 0.078279272 0 0 0 0 31.399132
-0.35421249 0.021874204 0.085311964 0 0 0 0 31.423866
-0.37317991 0.013828168 0.09833616 0 0 0 0 31.428814
-0.37114838 0.0038276352 0.10633805 0 0 0 0 31.43376
-0.3522138 0.02288368 0.076339968 0 0 0 0 31.438707
-0.3591533 0.0058640349 0.086386077 0 0 0 0 31.463442
-0.37212193 -0.0021689313 0.098404288 0 0 0 0 31.46839
-0.37708962 -0.011185224 0.10941387 0 0 0 0 31.473335
-0.36015171 0.0058668898 0.078416541 0 0 0 0 31.478283
-0.35209677 -0.010120938 0.085448258 0 0 0 0 31.503017
-0.38005954 -0.019185653 0.10148107 0 0 0 0 31.507965
-0.3780295 -0.02818675 0.11048365 0 0 0 0 31.512913
-0.35009632 -0.010111648 0.076475732 0 0 0 0 31.517859
-0.36503193 -0.028148377 0.089529611 0 0 0 0 31.542595
-0.3889949 -0.037204556 0.10555845 0 0 0 0 31.547541
-0.38496509 -0.046201698 0.11455908 0 0 0 0 31.552488
-0.37302759 -0.029159782 0.082566619 0 0 0 0 31.557434
-0.37666875 -0.046162296 0.094564497 0 0 0 0 32.061302
-0.38963553 -0.056190796 0.10758241 0 0 0 0 32.066246
-0.38061422 -0.062179454 0.1155801 0 0 0 0 32.071194
-0.37766623 -0.048158582 0.084594063 0 0 0 0 32.076141
-0.36162034 -0.062134698 0.091620073 0 0 0 0 32.100876
-0.3705917 -0.070155717 0.10363501 0 0 0 0 32.105824
-0.3705658 -0.077161118 0.11464135 0 0 0 0 32.110771
-0.36661428 -0.065138817 0.083653226 0 0 0 0 32.115715
-0.3555705 -0.078123659 0.090684921 0 0 0 0 32.140453
-0.3705357 -0.088155858 0.105705 0 0 0 0 32.145401
-0.38050365 -0.097179212 0.11972052 0 0 0 0 32.150345
-0.35356835 -0.080115229 0.080711529 0 0 0 0 32.155293
-0.36250967 -0.098136596 0.094761126 0 0 0 0 32.180027
-0.37647617 -0.10816628 0.10878026 0 0 0 0 32.184975
-0.37545395 -0.11316992 0.11978667 0 0 0 0 32.189922
-0.36550343 -0.10213683 0.085791871 0 0 0 0 32.19487
-0.36045596 -0.11613321 0.095829397 0 0 0 0 32.219604
-0.37841907 -0.12716997 0.11185217 0 0 0 0 32.224552
-0.39737591 -0.14020966 0.13087501 0 0 0 0 32.2295
-0.361451 -0.12012974 0.085858166 0 0 0 0 32.234444
-0.40935737 -0.15321849 0.11194038 0 0 0 0 32.259178
-0.41332918 -0.1602314 0.12595098 0 0 0 0 32.264126
-0.40830889 -0.16422851 0.13695391 0 0 0 0 32.269073
-0.411349 -0.16021575 0.10096882 0 0 0 0 32.274021
-0.40829721 -0.17521666 0.11500823 0 0 0 0 32.298756
-0.42125985 -0.18624499 0.13202609 0 0 0 0 32.303703
-0.41024801 -0.18623176 0.14102487 0 0 0 0 32.308651
-0.40729013 -0.18220876 0.10303371 0 0 0 0 32.313599
-0.43920228 -0.21426883 0.12710074 0 0 0 0 32.338333
-0.45316324 -0.22529921 0.1461197 0 0 0 0 32.343277
-0.45413506 -0.23130797 0.16212784 0 0 0 0 32.348225
-0.43619671 -0.22125718 0.1141243 0 0 0 0 32.353172
-0.45112225 -0.24728858 0.13517718 0 0 0 0 32.377907
-0.4620876 -0.25631353 0.15319413 0 0 0 0 32.382854
-2.8181076 -1.6003429 1.0649731 0 0 0 0 32.387802
-0.45910284 -0.26229468 0.12420827 0 0 0 0 32.39275
-2.7152328 -1.5991101 0.94590193 0 0 0 0 32.402641
-2.6941302 -1.6091119 1.0328869 0 0 0 0 32.407589
-2.6114616 -1.5838462 0.7448253 0 0 0 0 32.412537
-2.6103413 -1.6028804 0.83582628 0 0 0 0 32.417484
-2.5942497 -1.6088878 0.91781819 0 0 0 0 32.422432
-2.5721576 -1.6138871 1.0018044 0 0 0 0 32.42738
-2.4944656 -1.5976353 0.72374362 0 0 0 0 32.432323
-2.4853637 -1.6076554 0.80974078 0 0 0 0 32.437271
-2.4752743 -1.6136712 0.88973874 0 0 0 0 32.442219
-2.4691687 -1.6256961 0.97673804 0 0 0 0 32.447166
-2.3804729 -1.6084319 0.70366651 0 0 0 0 32.452114
-2.3713813 -1.6144503 0.78566545 0 0 0 0 32.457062
-2.369288 -1.6224787 0.86667067 0 0 0 0 32.462006
-2.3601966 -1.628497 0.94866967 0 0 0 0 32.466953
-2.267488 -1.6142324 0.68359262 0 0 0 0 32.471901
-2.2713866 -1.6262709 0.7666021 0 0 0 0 32.476849
-2.2683022 -1.6302965 0.84460813 0 0 0 0 32.481796
-2.260216 -1.6343155 0.92460907 0 0 0 0 32.48674
-2.143528 -1.6060175 0.65951395 0 0 0 0 32.491688
-2.1574192 -1.6230706 0.74253136 0 0 0 0 32.496635
-2.1583357 -1.6281013 0.81854105 0 0 0 0 32.501583
-2.1602461 -1.6341352 0.89855123 0 0 0 0 32.506531
-2.1314113 -1.6809843 0.66951156 0 0 0 0 32.511478
-2.1323268 -1.6840168 0.74952221 0 0 0 0 32.516426
-2.1422343 -1.6930619 0.82853925 0 0 0 0 32.52137
-2.1521337 -1.704109 0.9125554 0 0 0 0 32.526318
-2.1391904 -1.7732654 0.68689942 0 0 0 0 32.25206
-2.1460979 -1.7793118 0.76991463 0 0 0 0 32.257008
-2.1530116 -1.7833563 0.84993076 0 0 0 0 32.261955
-2.1609182 -1.7894044 0.93394703 0 0 0 0 32.266903
-2.134042 -1.8602446 0.70189649 0 0 0 0 32.271851
-2.1429536 -1.8632942 0.78591526 0 0 0 0 32.276794
-2.1518681 -1.8663424 0.866934 0 0 0 0 32.281742
-2.1687593 -1.8784072 0.95695657 0 0 0 0 32.28669
-2.0390542 -1.8660675 0.68684161 0 0 0 0 32.291637
-2.0509651 -1.8701214 0.76986289 0 0 0 0 32.296585
-2.0688708 -1.8781841 0.85188836 0 0 0 0 32.301529
-2.0837739 -1.8852437 0.93791127 0 0 0 0 32.306477
-1.9500612 -1.8739029 0.67379177 0 0 0 0 32.311424
-1.9629757 -1.8769572 0.75481462 0 0 0 0 32.316372
-1.9838798 -1.8860244 0.83684272 0 0 0 0 32.32132
-1.9997909 -1.8900839 0.91986811 0 0 0 0 32.326267
-1.8560843 -1.8727313 0.65874118 0 0 0 0 32.331215
-1.8739958 -1.8777933 0.73976815 0 0 0 0 32.336159
-1.9028932 -1.8918723 0.82080197 0 0 0 0 32.341106
-1.9168094 -1.8939277 0.90182632 0 0 0 0 32.346054
-1.7780812 -1.8845893 0.64970064 0 0 0 0 32.351002
-1.7950031 -1.8856478 0.7267285 0 0 0 0 32.355949
-1.8229047 -1.8977244 0.80676234 0 0 0 0 32.360893
-1.8448147 -1.903792 0.88779294 0 0 0 0 32.365841
-1.6980897 -1.890445 0.63866097 0 0 0 0 32.370789
-1.7200084 -1.8935109 0.715693 0 0 0 0 32.375736
-1.743922 -1.9005792 0.7917251 0 0 0 0 32.380684
-1.7658386 -1.9036458 0.8707571 0 0 0 0 32.385632
-1.6220961 -1.8963094 0.62962532 0 0 0 0 32.390575
-1.6440169 -1.8993741 0.70465732 0 0 0 0 32.395523
-1.6699357 -1.9044443 0.77869242 0 0 0 0 32.400471
-1.6948503 -1.9095147 0.85672659 0 0 0 0 32.405418
-1.5530915 -1.9081869 0.62259394 0 0 0 0 32.410366
-1.5740221 -1.906249 0.69562727 0 0 0 0 32.415314
-1.6009403 -1.91232 0.76866299 0 0 0 0 32.420258
-1.6288546 -1.9183941 0.84569979 0 0 0 0 32.425205
-1.4800988 -1.9130594 0.61456192 0 0 0 0 32.430153
-1.5120122 -1.9211388 0.68960178 0 0 0 0 32.435101
-1.5329506 -1.9171981 0.75763601 0 0 0 0 32.440048
-1.5558805 -1.9162623 0.82967091 0 0 0 0 32.444992
-1.4140993 -1.9219443 0.607535 0 0 0 0 32.44994
-1.4420247 -1.924016 0.67957366 0 0 0 0 32.454887
-1.4639666 -1.9190758 0.74560934 0 0 0 0 32.459835
-1.4998721 -1.9311613 0.82265151 0 0 0 0 32.464783
-1.3441128 -1.9228241 0.59950781 0 0 0 0 32.46973
-1.3740377 -1.9258982 0.67054802 0 0 0 0 32.474678
-1.4079562 -1.9339774 0.74058998 0 0 0 0 32.479622
-1.4358841 -1.9350477 0.811629 0 0 0 0 32.48457
-1.2781183 -1.9277124 0.59348279 0 0 0 0 32.489517
-1.3100439 -1.931788 0.66252458 0 0 0 0 32.494465
-1.3409745 -1.9338611 0.72956628 0 0 0 0 32.499413
-1.3689073 -1.9329305 0.79860622 0 0 0 0 32.504356
-1.2260929 -1.9496251 0.59346431 0 0 0 0 32.509304
-1.2550318 -1.9466949 0.65950626 0 0 0 0 32.514252
-1.2859659 -1.9477665 0.7245484 0 0 0 0 32.519199
-1.3149039 -1.9448361 0.79159033 0 0 0 0 32.524147
-1.157118 -1.9435103 0.5844413 0 0 0 0 32.529095
-1.1950363 -1.952594 0.65348697 0 0 0 0 32.534039
-1.2289674 -1.9556699 0.71853125 0 0 0 0 32.538986
-1.2618942 -1.9597453 0.78657413 0 0 0 0 32.543934
-1.0941296 -1.9444069 0.57842118 0 0 0 0 32.548882
-1.1340462 -1.9554926 0.64646804 0 0 0 0 32.553829
-1.1719717 -1.9625739 0.71151465 0 0 0 0 32.558777
-1.201913 -1.9586433 0.77655798 0 0 0 0 32.563721
-1.0371283 -1.9523147 0.57540399 0 0 0 0 32.568668
-1.0740595 -1.9553944 0.64045131 0 0 0 0 32.573616
-1.1129842 -1.9644759 0.70349813 0 0 0 0 32.578564
-1.1509091 -1.9705572 0.77054518 0 0 0 0 32.583511
-0.98112452 -1.9612256 0.57338738 0 0 0 0 32.588455
-1.017066 -1.9593021 0.635436 0 0 0 0 32.593403
-1.0549985 -1.9643809 0.69648349 0 0 0 0 32.598351
-1.0959178 -1.9744662 0.76353192 0 0 0 0 32.603298
-0.924133 -1.9631354 0.56937289 0 0 0 0 32.608246
-0.96206975 -1.9652139 0.63042176 0 0 0 0 32.613194
-1.0010023 -1.9702935 0.69147032 0 0 0 0 32.618141
-1.0409304 -1.9763757 0.75551951 0 0 0 0 32.623085
-0.8671391 -1.9660467 0.56635797 0 0 0 0 32.628033
-0.9080717 -1.9711291 0.62740862 0 0 0 0 32.63298
-0.94601154 -1.9732056 0.68545753 0 0 0 0 32.637928
-0.98893648 -1.982291 0.74850845 0 0 0 0 32.642876
-0.81413621 -1.9739656 0.56534493 0 0 0 0 32.64782
-0.85407889 -1.9740449 0.62339675 0 0 0 0 32.652767
-0.89401841 -1.9771234 0.68044728 0 0 0 0 32.657715
-0.93096381 -1.9751979 0.73849684 0 0 0 0 32.662663
-0.76014006 -1.9778838 0.56333268 0 0 0 0 32.66761
-0.80208373 -1.977965 0.62038648 0 0 0 0 32.672554
-0.84202147 -1.9830427 0.67643613 0 0 0 0 32.677502
-0.88096935 -1.9801192 0.7334882 0 0 0 0 32.682449
-0.70714533 -1.9808047 0.56132174 0 0 0 0 32.687397
-0.75207978 -1.9868898 0.61937612 0 0 0 0 32.692345
-0.78903639 -1.9819609 0.67042702 0 0 0 0 32.697292
-0.82998246 -1.9810393 0.72648031 0 0 0 0 32.70224
-0.65714043 -1.9897313 0.56131136 0 0 0 0 32.707184
-0.69909126 -1.9868103 0.61536652 0 0 0 0 32.712132
-0.74003768 -1.9878874 0.66841894 0 0 0 0 32.717079
-0.78397322 -1.9939698 0.72547233 0 0 0 0 32.722027
-0.60504752 -1.9927078 0.5597207 0 0 0 0 32.468227
-0.64799833 -1.9907948 0.6127764 0 0 0 0 32.473175
-0.69193882 -1.995883 0.66582996 0 0 0 0 32.478123
-0.73189765 -1.989964 0.71688443 0 0 0 0 32.48307
-0.55404371 -1.9996289 0.56071007 0 0 0 0 32.488014
-0.59999257 -1.9997194 0.61276788 0 0 0 0 32.492962
-0.64095145 -1.9958005 0.66082251 0 0 0 0 32.49791
-0.68489784 -1.996888 0.71387786 0 0 0 0 32.502857
-0.50404936 -2.0015516 0.55970275 0 0 0 0 32.507805
-0.54900223 -1.9996397 0.61076051 0 0 0 0 32.512753
-0.59395123 -2.0017266 0.65981644 0 0 0 0 32.5177
-0.63690364 -2.0008109 0.70987171 0 0 0 0 32.522644
-0.45305264 -2.0044744 0.55969393 0 0 0 0 32.527592
-0.50000501 -2.0035646 0.60975331 0 0 0 0 32.532539
-0.54495752 -2.0046501 0.65680969 0 0 0 0 32.537487
-0.58991092 -2.0037365 0.70586705 0 0 0 0 32.542435
-0.35645777 -1.775303 0.49474216 0 0 0 0 32.547379
-0.44902825 -1.9954861 0.60574943 0 0 0 0 32.552326
-0.49696434 -2.0065765 0.65480441 0 0 0 0 32.557274
-0.54391336 -2.0086651 0.70386243 0 0 0 0 32.562222
-0.31543353 -1.792245 0.4997367 0 0 0 0 32.567169
-0.35741231 -1.7803223 0.53879571 0 0 0 0 32.572113
-0.43806288 -1.9564806 0.63581097 0 0 0 0 32.577061
-0.49691695 -2.013593 0.7008568 0 0 0 0 32.582008
-0.27243128 -1.7961837 0.50173503 0 0 0 0 32.586956
-0.31739083 -1.7962657 0.54279172 0 0 0 0 32.591904
-0.35637984 -1.7813355 0.575849 0 0 0 0 32.596851
-0.42512873 -1.9004688 0.65787774 0 0 0 0 32.601799
-0.229421 -1.8051237 0.50473112 0 0 0 0 32.606743
-0.27538684 -1.8022058 0.54379028 0 0 0 0 32.611691
-0.31735712 -1.7982806 0.57984567 0 0 0 0 32.616638
-0.35834491 -1.783353 0.61390495 0 0 0 0 32.621586
-0.18641512 -1.8110646 0.50772864 0 0 0 0 32.626534
-0.23337673 -1.8111476 0.54678738 0 0 0 0 32.631477
-0.27635702 -1.8022221 0.57984608 0 0 0 0 32.636425
-0.32031962 -1.8023001 0.61790186 0 0 0 0 32.641373
-0.14340797 -1.8180063 0.51072562 0 0 0 0 32.64632
-0.19039139 -1.8060867 0.54478973 0 0 0 0 32.651268
-0.23535325 -1.8081648 0.58084565 0 0 0 0 32.656216
-0.28031787 -1.8082428 0.61690235 0 0 0 0 32.66116
-0.09261772 -1.6949224 0.47777078 0 0 0 0 32.666107
-0.14837255 -1.820031 0.54978478 0 0 0 0 32.671055
-0.19435094 -1.8131084 0.58184558 0 0 0 0 32.676003
-0.24031661 -1.8131869 0.61690336 0 0 0 0 32.68095
-0.10249715 -1.7489597 0.52881223 0 0 0 0 32.690842
-0.15334362 -1.8210533 0.58384424 0 0 0 0 32.695789
-0.19931783 -1.8171301 0.61590379 0 0 0 0 32.700737
-0.0085046645 -1.1627464 0.32899854 0 0 0 0 32.705685
-0.10259038 -1.6789647 0.53689665 0 0 0 0 32.715576
-0.1593181 -1.8210757 0.61590523 0 0 0 0 32.720524
0.018499663 -1.1637135 0.33101282 0 0 0 0 32.725471
-0.014473557 -1.1667682 0.35305572 0 0 0 0 32.730419
-0.11053205 -1.6989923 0.57295078 0 0 0 0 32.740314
0.046507683 -1.1666801 0.3340252 0 0 0 0 32.745262
0.011514568 -1.158735 0.35107481 0 0 0 0 32.750206
-0.018447965 -1.169785 0.37311128 0 0 0 0 32.755154
0.074514307 -1.1686472 0.33703804 0 0 0 0 32.765049
0.038533963 -1.1687039 0.35608527 0 0 0 0 32.769997
0.0065666013 -1.1777556 0.37612468 0 0 0 0 32.77494
-0.023432439 -1.1668024 0.39117041 0 0 0 0 32.779888
0.10252985 -1.1766154 0.34104833 0 0 0 0 32.784836
0.066539526 -1.1706709 0.35809812 0 0 0 0 32.789783
0.033559777 -1.1727222 0.37514147 0 0 0 0 32.794731
0.00055984687 -1.1617723 0.38919023 0 0 0 0 32.799675
0.1305337 -1.1765835 0.34406203 0 0 0 0 32.804623
0.093538783 -1.1686393 0.3591136 0 0 0 0 32.80957
0.059551746 -1.1666909 0.37415966 0 0 0 0 32.814518
0.026568355 -1.1667415 0.39020386 0 0 0 0 32.819466
0.15853524 -1.1755519 0.3460761 0 0 0 0 32.824413
0.12155415 -1.1766082 0.36312398 0 0 0 0 32.829361
0.086561188 -1.1716599 0.37617227 0 0 0 0 32.834305
0.053577781 -1.1717101 0.3922165 0 0 0 0 32.839252
0.18753912 -1.1755201 0.34908873 0 0 0 0 32.8442
0.14855699 -1.176578 0.36513865 0 0 0 0 32.849148
0.11356048 -1.1696291 0.37718776 0 0 0 0 32.854095
0.079578638 -1.17168 0.39223218 0 0 0 0 32.859039
0.21655272 -1.1814895 0.35409889 0 0 0 0 32.863987
0.17656341 -1.1785476 0.36815146 0 0 0 0 32.868935
0.1405708 -1.1745995 0.38020036 0 0 0 0 32.873882
0.10658535 -1.1746496 0.39424562 0 0 0 0 32.87883
0.24555881 -1.1824591 0.35811111 0 0 0 0 32.883778
0.20557462 -1.1835169 0.37216207 0 0 0 0 32.888721
0.16858332 -1.1805698 0.3842116 0 0 0 0 32.893669
0.13258848 -1.1756209 0.3952609 0 0 0 0 32.898617
0.27657577 -1.1904275 0.36411846 0 0 0 0 32.903564
0.23559408 -1.1934862 0.37816966 0 0 0 0 32.908512
0.19658864 -1.1825397 0.38622445 0 0 0 0 32.91346
0.16059759 -1.1805905 0.39727253 0 0 0 0 32.918404
0.30658403 -1.1923975 0.36912927 0 0 0 0 32.923351
0.263587 -1.1864568 0.37918612 0 0 0 0 32.928299
0.22459494 -1.1845106 0.38923725 0 0 0 0 32.933247
0.18760166 -1.1815619 0.39928681 0 0 0 0 32.938194
0.33558813 -1.1894042 0.37238914 0 0 0 0 33.058479
0.29260179 -1.190461 0.38444325 0 0 0 0 33.063423
0.25360546 -1.1865114 0.39249521 0 0 0 0 33.068371
0.21460919 -1.1825615 0.40054715 0 0 0 0 33.073318
0.36860296 -1.1953741 0.37939537 0 0 0 0 33.078266
0.32361224 -1.1944323 0.38945228 0 0 0 0 33.083214
0.28261393 -1.1904839 0.39550629 0 0 0 0 33.088161
0.24462451 -1.191533 0.40455532 0 0 0 0 33.093109
0.40161768 -1.201345 0.38640156 0 0 0 0 33.098053
0.35462493 -1.200404 0.39446056 0 0 0 0 33.103001
0.31262547 -1.1954565 0.40051594 0 0 0 0 33.107948
0.27161938 -1.1865069 0.40457183 0 0 0 0 33.112896
0.43362567 -1.2033166 0.39141032 0 0 0 0 33.117844
0.38462842 -1.1993774 0.39847249 0 0 0 0 33.122787
0.34162799 -1.1944302 0.4035289 0 0 0 0 33.127735
0.30062991 -1.1914805 0.40858251 0 0 0 0 33.132683
0.46664006 -1.2082889 0.39941695 0 0 0 0 33.13763
0.41663969 -1.2033496 0.40448052 0 0 0 0 33.142578
0.37264058 -1.2004029 0.40853718 0 0 0 0 33.147522
0.33063817 -1.1954533 0.41159257 0 0 0 0 33.152473
0.50165451 -1.2142593 0.40642118 0 0 0 0 33.157417
0.44964984 -1.207321 0.40948752 0 0 0 0 33.162365
0.40465075 -1.2043751 0.41354522 0 0 0 0 33.167313
0.36165062 -1.2014263 0.41660088 0 0 0 0 33.17226
0.53766757 -1.2182295 0.4144251 0 0 0 0 33.177208
0.48366308 -1.2122928 0.41649315 0 0 0 0 33.182152
0.43665758 -1.2063475 0.41755399 0 0 0 0 33.187099
0.39065209 -1.2004008 0.41861382 0 0 0 0 33.192047
0.56866753 -1.213205 0.41943744 0 0 0 0 33.196995
0.51767623 -1.2172651 0.42349878 0 0 0 0 33.201942
0.46766219 -1.2063217 0.42156449 0 0 0 0 33.206886
0.42165896 -1.2023746 0.42262357 0 0 0 0 33.211834
0.61270106 -1.2311696 0.43242815 0 0 0 0 33.216782
0.54867411 -1.2112403 0.42751145 0 0 0 0 33.221729
0.50167537 -1.212294 0.42756978 0 0 0 0 33.226677
0.453668 -1.2063479 0.42663163 0 0 0 0 33.231621
0.65071589 -1.2351403 0.44243008 0 0 0 0 33.236572
0.5897032 -1.2272078 0.43850595 0 0 0 0 33.241516
0.53568417 -1.2142668 0.43357649 0 0 0 0 33.246464
0.48567155 -1.2063215 0.4296411 0 0 0 0 33.251411
0.68872648 -1.2371113 0.45043275 0 0 0 0 33.256359
0.62671494 -1.2301792 0.4465093 0 0 0 0 33.261307
0.57069707 -1.2192396 0.44058111 0 0 0 0 33.266251
0.52068776 -1.214294 0.43664467 0 0 0 0 33.271198
0.72874117 -1.2410816 0.46043262 0 0 0 0 33.276146
0.66472971 -1.2351506 0.45551088 0 0 0 0 33.281094
0.60771102 -1.2252109 0.44758335 0 0 0 0 33.286041
0.55268806 -1.2112688 0.43965518 0 0 0 0 33.290985
0.76674843 -1.240054 0.4684363 0 0 0 0 33.295933
0.70374137 -1.2381214 0.46351212 0 0 0 0 33.30088
0.64572376 -1.2291824 0.4555853 0 0 0 0 33.305828
0.59271145 -1.224238 0.44865191 0 0 0 0 33.310776
0.81277239 -1.2490208 0.48242831 0 0 0 0 33.315723
0.7417497 -1.238094 0.47151548 0 0 0 0 33.320671
0.68373537 -1.2331541 0.46258724 0 0 0 0 33.325615
0.6307283 -1.2322097 0.45665243 0 0 0 0 33.330563
0.85378063 -1.2479919 0.49142891 0 0 0 0 33.33551
0.77775192 -1.2340688 0.47752222 0 0 0 0 33.340458
0.72375101 -1.2391253 0.47158644 0 0 0 0 33.345406
0.66673368 -1.2321831 0.46165782 0 0 0 0 33.350349
0.90180439 -1.2569584 0.5054189 0 0 0 0 33.355297
0.8267808 -1.2480335 0.49150944 0 0 0 0 33.360245
0.76476347 -1.2430956 0.47958529 0 0 0 0 33.365192
0.70574516 -1.2361549 0.46865875 0 0 0 0 33.37014
0.94982272 -1.2619255 0.51841027 0 0 0 0 33.375084
0.87380236 -1.256001 0.50450081 0 0 0 0 33.380035
0.79675454 -1.2310745 0.48259884 0 0 0 0 33.384979
0.74475455 -1.2381274 0.47566035 0 0 0 0 33.389927
0.99884111 -1.2658926 0.53240097 0 0 0 0 33.394875
0.91981769 -1.2599697 0.51549459 0 0 0 0 33.399822
0.84979022 -1.2500372 0.49858037 0 0 0 0 33.40477
0.78776896 -1.244097 0.48365653 0 0 0 0 33.409714
1.0478543 -1.2658604 0.54539299 0 0 0 0 33.414661
0.96583188 -1.2619395 0.52748907 0 0 0 0 33.419609
0.89179748 -1.2490091 0.50657988 0 0 0 0 33.424557
0.82978022 -1.2470685 0.49165472 0 0 0 0 33.429504
1.9593073 -2.2611246 1.0011694 0 0 0 0 33.434448
1.0188541 -1.269904 0.54147428 0 0 0 0 33.439396
0.93881381 -1.2539779 0.51757228 0 0 0 0 33.444344
0.87379152 -1.2500389 0.49965087 0 0 0 0 33.449291
2.0743606 -2.2870452 1.0380876 0 0 0 0 33.454239
1.0588523 -1.2598803 0.54947889 0 0 0 0 33.459183
0.98782897 -1.2579457 0.52856296 0 0 0 0 33.464134
0.92281055 -1.258006 0.5106402 0 0 0 0 33.469078
2.1813953 -2.2989745 1.0710185 0 0 0 0 33.474026
1.9983085 -2.2711389 1.0152267 0 0 0 0 33.478973
1.0398481 -1.2639122 0.54154992 0 0 0 0 33.483921
0.97182667 -1.2629744 0.52163064 0 0 0 0 33.488869
2.299439 -2.3158965 1.1079365 0 0 0 0 33.493813
2.1173639 -2.3000586 1.0521398 0 0 0 0 33.49876
1.9432538 -2.2552097 0.98934418 0 0 0 0 33.503708
1.0208397 -1.2659432 0.53162163 0 0 0 0 33.508656
2.4114699 -2.3218257 1.1428643 0 0 0 0 33.513603
2.2193837 -2.3029933 1.0790788 0 0 0 0 33.518547
2.0583029 -2.2821326 1.022262 0 0 0 0 33.523495
1.0608352 -1.2559198 0.5366261 0 0 0 0 33.528442
2.5412321 -2.3394403 1.1859452 0 0 0 0 34.052979
2.3381445 -2.3205647 1.1161708 0 0 0 0 34.057926
2.1690617 -2.2976675 1.053362 0 0 0 0 34.062874
2.0059736 -2.2667654 0.99054927 0 0 0 0 34.067818
2.6782787 -2.3563876 1.2308443 0 0 0 0 34.072765
2.4581771 -2.3315191 1.1510888 0 0 0 0 34.077713
2.2810881 -2.3086243 1.0822885 0 0 0 0 34.082661
2.1240132 -2.2927179 1.0224656 0 0 0 0 34.087608
2.8063123 -2.3603425 1.2717559 0 0 0 0 34.092552
2.5912194 -2.348469 1.1919922 0 0 0 0 34.0975
2.3991182 -2.3205805 1.1142083 0 0 0 0 34.102448
2.2380407 -2.3066745 1.0503892 0 0 0 0 34.107395
2.8272367 -2.272356 1.2638009 0 0 0 0 34.112343
2.736268 -2.3694148 1.236882 0 0 0 0 34.11729
2.5331602 -2.3405302 1.1531099 0 0 0 0 34.122238
2.3510628 -2.3146334 1.0773154 0 0 0 0 34.127182
2.849165 -2.1863699 1.2568436 0 0 0 0 34.13213
2.8182511 -2.332396 1.2538511 0 0 0 0 34.137077
2.6621912 -2.3494847 1.1880193 0 0 0 0 34.142025
2.4770937 -2.3285875 1.1092266 0 0 0 0 34.146973
2.9351573 -2.1503518 1.2798077 0 0 0 0 34.151917
2.8311667 -2.2364137 1.2399055 0 0 0 0 34.156864
2.8112366 -2.3694313 1.2309053 0 0 0 0 34.161812
2.6111288 -2.3445401 1.1441292 0 0 0 0 34.166759
3.1292415 -2.1862803 1.3486429 0 0 0 0 34.171707
2.8651083 -2.161422 1.2369328 0 0 0 0 34.176651
2.8321586 -2.2794449 1.2189498 0 0 0 0 34.181599
2.7561667 -2.3624892 1.1810198 0 0 0 0 34.186546
3.3283236 -2.2172101 1.4194742 0 0 0 0 34.191494
3.0221579 -2.1733696 1.2868119 0 0 0 0 34.196442
2.850081 -2.1884608 1.2059972 0 0 0 0 34.201389
2.8331378 -2.3164744 1.1899959 0 0 0 0 34.206337
3.5394094 -2.2461374 1.4952939 0 0 0 0 34.211281
3.2062268 -2.1993072 1.3476601 0 0 0 0 34.216228
2.9360659 -2.1504438 1.2219615 0 0 0 0 34.221176
2.845052 -2.2194927 1.1720507 0 0 0 0 34.226124
3.7725053 -2.279058 1.5790898 0 0 0 0 34.231071
3.4183111 -2.2332346 1.4194773 0 0 0 0 34.236015
3.133142 -2.1853759 1.284794 0 0 0 0 34.240963
2.8849947 -2.1454985 1.1670707 0 0 0 0 34.245911
4.017602 -2.3059773 1.6678747 0 0 0 0 34.250858
3.637393 -2.2621622 1.4922887 0 0 0 0 34.255806
3.3151989 -2.2023182 1.3396463 0 0 0 0 34.26075
3.0620511 -2.1694407 1.2169265 0 0 0 0 34.265701
4.2897124 -2.3388882 1.7666304 0 0 0 0 34.270645
3.8744817 -2.2890856 1.573082 0 0 0 0 34.275593
3.5462878 -2.2422411 1.4134429 0 0 0 0 34.28054
3.2611177 -2.1983759 1.2747583 0 0 0 0 34.285488
4.623858 -2.3907757 1.8903178 0 0 0 0 34.290436
4.1395836 -2.3230007 1.6638447 0 0 0 0 34.29538
3.7813711 -2.2711663 1.4882376 0 0 0 0 34.300327
3.4691837 -2.2233105 1.3345821 0 0 0 0 34.305275
4.9119616 -2.4026899 1.995062 0 0 0 0 34.310223
4.4497075 -2.3678999 1.7705586 0 0 0 0 34.31517
4.0284548 -2.2960906 1.5660211 0 0 0 0 34.320114
3.7122674 -2.259233 1.4063671 0 0 0 0 34.325062
4.9378848 -2.2827246 1.9931058 0 0 0 0 34.330009
4.8418784 -2.4387691 1.9101821 0 0 0 0 34.334957
4.329567 -2.338995 1.6627448 0 0 0 0 34.339905
3.962347 -2.2871571 1.4791468 0 0 0 0 34.344852
4.947803 -2.1577671 1.9861666 0 0 0 0 34.3498
4.9338412 -2.3487744 1.930151 0 0 0 0 34.354744
4.6827044 -2.3928828 1.7794123 0 0 0 0 34.359692
4.2464423 -2.3220706 1.5638899 0 0 0 0 34.364639
4.9527211 -2.0308118 1.9782324 0 0 0 0 34.369587
4.9477553 -2.2208142 1.9202081 0 0 0 0 34.374535
4.9327655 -2.3808203 1.8552006 0 0 0 0 34.379478
4.5845613 -2.3689666 1.6665745 0 0 0 0 34.384426
4.9696522 -1.9118521 1.9762834 0 0 0 0 34.389374
4.95367 -2.0908582 1.9092731 0 0 0 0 34.394321
4.9556823 -2.2548561 1.8452476 0 0 0 0 34.399269
4.9466853 -2.4128585 1.776235 0 0 0 0 34.404213
4.982585 -1.7928945 1.973338 0 0 0 0 34.409164
4.9645929 -1.9669006 1.9013312 0 0 0 0 34.414108
4.9625945 -2.1218998 1.8323121 0 0 0 0 34.419056
4.9445829 -2.2709048 1.754311 0 0 0 0 34.424004
5.0005245 -1.6769354 1.9733862 0 0 0 0 34.428951
4.9845243 -1.8469397 1.8963785 0 0 0 0 34.433899
4.9765148 -1.9949405 1.8213673 0 0 0 0 34.438843
4.9695034 -2.1439404 1.7443552 0 0 0 0 34.44379
5.0104637 -1.55998 1.9714422 0 0 0 0 34.448738
4.9894533 -1.7239853 1.8884413 0 0 0 0 34.453686
4.9904404 -1.869982 1.8124216 0 0 0 0 34.458633
4.9804196 -2.0119827 1.7304142 0 0 0 0 34.463577
5.018405 -1.4440255 1.9684995 0 0 0 0 34.468525
5.0133958 -1.6070243 1.8884827 0 0 0 0 34.473473
5.006372 -1.7470233 1.8054727 0 0 0 0 34.47842
