# .PCD v0.7 - Point Cloud Data file format
VERSION 0.7
FIELDS x y z normal_x normal_y normal_z intensity curvature
SIZE 4 4 4 4 4 4 4 4
TYPE F F F F F F F F
COUNT 1 1 1 1 1 1 1 1
WIDTH 976
HEIGHT 1
VIEWPOINT 0 0 0 1 0 0 0
POINTS 976
DATA ascii
6.4667311 -3.0205405 6.1758051 0 0 0 0 30.127703
7.0843658 -3.1705923 6.2259851 0 0 0 0 30.132647
5.3910174 -2.6378756 6.0856991 0 0 0 0 30.137594
5.948535 -2.7552252 6.113759 0 0 0 0 30.142542
6.5180097 -2.8685217 6.1538363 0 0 0 0 30.14749
7.1355367 -2.9945948 6.1980038 0 0 0 0 30.152437
5.4434757 -2.5278139 6.0827556 0 0 0 0 30.157385
5.9989071 -2.624193 6.1018004 0 0 0 0 30.162329
6.569293 -2.7165053 6.1338682 0 0 0 0 30.167276
7.2057261 -2.8275042 6.1890602 0 0 0 0 30.172224
5.4829345 -2.4118207 6.0677867 0 0 0 0 30.177172
6.0452795 -2.4901843 6.0858331 0 0 0 0 30.182119
6.6225762 -2.5654802 6.1219044 0 0 0 0 30.187067
7.2559142 -2.6535161 6.1680779 0 0 0 0 30.192011
5.516398 -2.2938592 6.0488062 0 0 0 0 30.196959
6.090662 -2.3581817 6.0738654 0 0 0 0 30.201906
6.6808691 -2.4174325 6.1169505 0 0 0 0 30.206854
7.3071113 -2.4815245 6.1530991 0 0 0 0 30.211802
5.5608692 -2.1818438 6.0448475 0 0 0 0 30.216749
6.1360407 -2.2251809 6.0658979 0 0 0 0 30.221693
6.7161665 -2.2615018 6.0939527 0 0 0 0 30.226641
7.3553104 -2.3075504 6.1371145 0 0 0 0 30.231588
5.5993404 -2.0668602 6.0368776 0 0 0 0 30.236536
6.1694303 -2.0882421 6.0459075 0 0 0 0 30.241484
6.7614632 -2.1085224 6.0839748 0 0 0 0 30.246428
7.3885145 -2.1296508 6.1141024 0 0 0 0 30.251375
5.6288195 -1.9479237 6.0178905 0 0 0 0 30.256323
6.2048268 -1.9532943 6.0319223 0 0 0 0 30.261271
6.7957716 -1.9525993 6.0649767 0 0 0 0 30.266218
7.4137321 -1.9507912 6.0870767 0 0 0 0 30.271166
5.6602979 -1.8299779 6.0059075 0 0 0 0 30.27611
6.2382188 -1.815358 6.016933 0 0 0 0 30.281057
6.8240871 -1.795706 6.0449686 0 0 0 0 30.286005
7.4609456 -1.7768263 6.0810924 0 0 0 0 30.290953
5.6957812 -1.7140138 5.9999328 0 0 0 0 30.2959
6.2636232 -1.6774609 5.9999294 0 0 0 0 30.300848
6.8544006 -1.6388037 6.0309644 0 0 0 0 30.305792
7.4701834 -1.5960445 6.0490394 0 0 0 0 30.31074
5.7232747 -1.5950907 5.9849434 0 0 0 0 30.315687
6.2890382 -1.540565 5.9839277 0 0 0 0 30.320635
6.8767309 -1.4819404 6.0129466 0 0 0 0 30.325583
7.2365632 -1.370414 5.8255482 0 0 0 0 30.33053
5.7477674 -1.4761817 5.9739494 0 0 0 0 30.335474
6.3174505 -1.4036554 5.9739308 0 0 0 0 30.340422
6.9020729 -1.3280631 6.000936 0 0 0 0 30.345369
7.2288561 -1.1957023 5.7894721 0 0 0 0 30.350317
5.7762647 -1.3572558 5.964963 0 0 0 0 30.355265
6.3358774 -1.2657938 5.9579177 0 0 0 0 30.360209
6.7025747 -1.1332437 5.7965226 0 0 0 0 30.365156
7.2491422 -1.0268582 5.7784472 0 0 0 0 30.370104
5.7847848 -1.2354251 5.938941 0 0 0 0 30.375051
6.3563023 -1.1269236 5.9449081 0 0 0 0 30.379999
6.6639905 -0.97365832 5.7374029 0 0 0 0 30.384947
7.2564359 -0.85507458 5.7614007 0 0 0 0 30.389891
5.8162842 -1.1174862 5.938961 0 0 0 0 30.394838
6.2848229 -0.97548205 5.8487368 0 0 0 0 30.399786
6.6833663 -0.82280135 5.7293878 0 0 0 0 30.404734
7.2607455 -0.68430477 5.74335 0 0 0 0 30.409681
5.8328023 -0.99661887 5.9249544 0 0 0 0 30.414629
6.1394277 -0.81637591 5.6884389 0 0 0 0 30.419573
6.6887636 -0.67200863 5.7143493 0 0 0 0 30.42452
7.2540755 -0.51458395 5.7222819 0 0 0 0 30.429468
5.8443241 -0.87377489 5.9079394 0 0 0 0 30.434416
6.1528978 -0.68353027 5.6784234 0 0 0 0 30.439363
6.7191362 -0.52210206 5.721355 0 0 0 0 30.444311
7.2334228 -0.34392515 5.6941915 0 0 0 0 30.449255
5.7539725 -0.73939759 5.7907491 0 0 0 0 30.454203
6.167367 -0.54968029 5.6714101 0 0 0 0 30.45915
6.6835923 -0.36949477 5.677248 0 0 0 0 30.464098
7.2267728 -0.17620164 5.6781263 0 0 0 0 30.469046
5.6416712 -0.60811281 5.6555238 0 0 0 0 30.473989
6.1668606 -0.415898 5.6543727 0 0 0 0 30.478937
6.6900005 -0.21869586 5.6712141 0 0 0 0 30.483885
7.205143 -0.0085432716 5.6560383 0 0 0 0 30.488832
5.6579809 -0.48920199 5.6515365 0 0 0 0 30.3897
6.1700873 -0.2809785 5.6433749 0 0 0 0 30.394648
6.7071085 -0.068642341 5.6762533 0 0 0 0 30.399595
7.1791954 0.15937969 5.6320138 0 0 0 0 30.404543
5.6635327 -0.37237704 5.637516 0 0 0 0 30.409491
6.1635799 -0.14722337 5.6243258 0 0 0 0 30.414434
7.167542 0.32508469 5.6249418 0 0 0 0 30.42433
5.6740685 -0.25352851 5.6315041 0 0 0 0 30.429277
6.1530809 -0.013485249 5.6052713 0 0 0 0 30.434225
7.1728659 0.4928678 5.6318998 0 0 0 0 30.444117
5.6656456 -0.13576716 5.6084614 0 0 0 0 30.449064
6.1545668 0.12030882 5.5992384 0 0 0 0 30.454012
6.5755472 0.37607506 5.557898 0 0 0 0 30.45896
7.058403 0.64911056 5.5486579 0 0 0 0 30.463907
5.6612158 -0.016986759 5.5904255 0 0 0 0 30.468855
6.1360908 0.25301319 5.5781727 0 0 0 0 30.473799
7.1176419 0.82114035 5.60671 0 0 0 0 30.483694
5.6667767 0.099840358 5.5874085 0 0 0 0 30.488642
6.116621 0.38571474 5.5581064 0 0 0 0 30.493589
5.6603537 0.21961316 5.5713711 0 0 0 0 30.508429
6.100153 0.51743174 5.5440474 0 0 0 0 30.513376
6.5359025 0.818232 5.5417151 0 0 0 0 30.518324
5.6539412 0.33738711 5.5583353 0 0 0 0 30.528219
6.0796919 0.6501326 5.5279827 0 0 0 0 30.533163
6.4764566 0.95875031 5.5025806 0 0 0 0 30.538111
6.913105 1.2885343 5.4962401 0 0 0 0 30.543058
5.6445298 0.45614916 5.5462956 0 0 0 0 30.548006
6.0552487 0.78081775 5.5109124 0 0 0 0 30.552954
6.4529481 1.1034299 5.4955077 0 0 0 0 30.557898
7.072124 1.4869971 5.6464567 0 0 0 0 30.562845
5.6271386 0.5748769 5.5262432 0 0 0 0 30.567793
6.0328012 0.91251391 5.498847 0 0 0 0 30.572741
6.3945141 1.2419605 5.4643793 0 0 0 0 30.577688
7.0175972 1.6455281 5.6293278 0 0 0 0 30.582636
5.6157403 0.69363254 5.5152025 0 0 0 0 30.58758
5.9844189 1.0390998 5.4647417 0 0 0 0 30.592527
6.3380871 1.379504 5.4362569 0 0 0 0 30.597475
6.9550958 1.8010292 5.610188 0 0 0 0 30.602423
5.599349 0.81336772 5.5011539 0 0 0 0 30.60737
5.9589887 1.1697876 5.4536748 0 0 0 0 30.612318
6.2966347 1.5191153 5.4231601 0 0 0 0 30.617262
6.9225307 1.963662 5.6180978 0 0 0 0 30.62221
5.5769825 0.9300791 5.4840975 0 0 0 0 30.627157
5.9295692 1.2994611 5.443603 0 0 0 0 30.632105
6.4497013 1.7105544 5.5823727 0 0 0 0 30.637053
6.8470807 2.1131165 5.5939431 0 0 0 0 30.642
5.5576077 1.0488048 5.4710469 0 0 0 0 30.646944
5.8941731 1.4271111 5.4285235 0 0 0 0 30.651892
6.4401612 1.8632997 5.6033278 0 0 0 0 30.656839
6.7736278 2.2635844 5.5747929 0 0 0 0 30.661787
5.5372372 1.1675282 5.4599962 0 0 0 0 30.666735
5.8408222 1.5506891 5.4004169 0 0 0 0 30.671679
6.3857408 2.0028589 5.5882139 0 0 0 0 30.676626
6.6842365 2.4049916 5.5446215 0 0 0 0 30.681574
5.5038977 1.2841992 5.4389262 0 0 0 0 30.686522
5.7914705 1.6742872 5.3773193 0 0 0 0 30.691469
6.3163552 2.1393604 5.5640788 0 0 0 0 30.696417
6.5948491 2.5464048 5.5174527 0 0 0 0 30.701361
5.4825325 1.4039223 5.4308763 0 0 0 0 30.706308
5.7959723 1.8151114 5.4083061 0 0 0 0 30.711256
6.2489848 2.2728748 5.5429497 0 0 0 0 30.716204
6.5144486 2.6888609 5.5013008 0 0 0 0 30.721151
5.4511933 1.5216061 5.415812 0 0 0 0 30.726099
5.8782568 1.9832532 5.5144129 0 0 0 0 30.731043
6.1905851 2.4114304 5.532836 0 0 0 0 30.735991
6.4330626 2.8293185 5.4861498 0 0 0 0 30.740938
5.4108853 1.6362556 5.3927355 0 0 0 0 30.745886
5.8797574 2.1280625 5.5483956 0 0 0 0 30.750834
6.1202302 2.542942 5.5167069 0 0 0 0 30.755781
6.3357372 2.9607174 5.4599776 0 0 0 0 30.760725
5.3755665 1.7519288 5.3786683 0 0 0 0 30.765673
5.8134532 2.2495992 5.521277 0 0 0 0 30.77062
6.0299468 2.6653786 5.4825501 0 0 0 0 30.775568
6.2443976 3.094147 5.4428182 0 0 0 0 30.780516
5.3322654 1.8665726 5.3595901 0 0 0 0 30.78546
5.7491441 2.3721483 5.4991627 0 0 0 0 30.790407
5.9625974 2.7969124 5.4724298 0 0 0 0 30.795355
6.1470876 3.2235587 5.4216518 0 0 0 0 30.800303
5.3148947 1.9903222 5.3675528 0 0 0 0 30.80525
5.6958098 2.4987452 5.4880681 0 0 0 0 30.810198
5.8852849 2.9234116 5.4562979 0 0 0 0 30.815142
6.0368314 3.3439262 5.3924694 0 0 0 0 30.820089
5.3892341 2.153435 5.4726524 0 0 0 0 30.825037
5.6225457 2.6152678 5.4609451 0 0 0 0 30.829985
5.8019953 3.0468924 5.4371586 0 0 0 0 30.834932
5.4692259 3.1945188 4.9506249 0 0 0 0 30.83988
5.3877983 2.2902467 5.5026398 0 0 0 0 30.844824
5.5602436 2.7378383 5.4478407 0 0 0 0 30.849771
5.7187228 3.1673789 5.4190226 0 0 0 0 30.854719
5.3231802 3.273777 4.8854027 0 0 0 0 30.859667
5.3456264 2.4044404 5.4908342 0 0 0 0 31.335783
5.4934125 2.850832 5.429009 0 0 0 0 31.340731
5.6312151 3.2801933 5.3981714 0 0 0 0 31.345678
5.195775 3.3538239 4.8365951 0 0 0 0 31.350626
5.3004136 2.5241194 5.4827795 0 0 0 0 31.355574
5.4222302 2.96843 5.412921 0 0 0 0 31.360518
5.5280957 3.3876934 5.3670425 0 0 0 0 31.365465
5.0926619 3.4543407 4.8154712 0 0 0 0 31.370413
5.2332606 2.6347363 5.4546986 0 0 0 0 31.37536
5.3490624 3.0840273 5.3958325 0 0 0 0 31.380308
5.445919 3.507262 5.3579435 0 0 0 0 31.385256
5.0114875 3.5679288 4.8163776 0 0 0 0 31.3902
5.1840615 2.7544107 5.4466419 0 0 0 0 31.395147
5.2749014 3.198626 5.3807449 0 0 0 0 31.400095
5.3458018 3.6147835 5.3348236 0 0 0 0 31.405043
4.9183536 3.6734872 4.8092713 0 0 0 0 31.40999
5.123899 2.8680558 5.429574 0 0 0 0 31.414938
5.1897759 3.3071978 5.3566461 0 0 0 0 31.419882
5.2556634 3.72734 5.3227196 0 0 0 0 31.424829
4.8411732 3.7900972 4.8191876 0 0 0 0 31.429777
5.0587473 2.980691 5.4115009 0 0 0 0 31.434725
5.1076465 3.4167833 5.338553 0 0 0 0 31.439672
5.1495771 3.8298569 5.2965975 0 0 0 0 31.44462
4.7958817 3.9328029 4.8641462 0 0 0 0 31.449564
4.9926076 3.0913272 5.3934288 0 0 0 0 31.454512
5.0315003 3.5303915 5.3294697 0 0 0 0 31.459459
5.0504751 3.9354 5.2804861 0 0 0 0 31.464407
5.064425 4.3483949 5.2384973 0 0 0 0 31.469355
4.9344416 3.2089901 5.3863688 0 0 0 0 31.474298
4.9483814 3.6389847 5.3153801 0 0 0 0 31.479246
4.9523807 4.0389524 5.2683792 0 0 0 0 31.484194
4.9493542 4.4479008 5.2263708 0 0 0 0 31.489141
4.8593297 3.3156099 5.3652897 0 0 0 0 31.494089
4.8572969 3.740561 5.2942824 0 0 0 0 31.499037
4.8542867 4.1435108 5.258275 0 0 0 0 31.503981
4.831305 4.5424056 5.2122436 0 0 0 0 31.508928
4.7812319 3.4202261 5.3422093 0 0 0 0 31.513876
4.777174 3.8511732 5.2892013 0 0 0 0 31.518824
4.746233 4.2390475 5.2401609 0 0 0 0 31.523771
4.7033005 4.6268907 5.1891065 0 0 0 0 31.528719
4.7101097 3.5308661 5.3311391 0 0 0 0 31.533663
4.6761274 3.945734 5.2620959 0 0 0 0 31.53861
4.6312151 4.3265734 5.2150407 0 0 0 0 31.543558
4.5882492 4.7224188 5.1829891 0 0 0 0 31.548506
4.6379924 3.6415081 5.3210692 0 0 0 0 31.553453
4.5820622 4.0443196 5.2460017 0 0 0 0 31.558401
4.530148 4.4261432 5.2079401 0 0 0 0 31.563345
4.4552803 4.7979064 5.1578517 0 0 0 0 31.568293
4.5499353 3.7391129 5.2949834 0 0 0 0 31.57324
4.4959636 4.1519322 5.2429199 0 0 0 0 31.578188
4.4221101 4.5187006 5.1968341 0 0 0 0 31.583136
4.3273048 4.8744159 5.1397233 0 0 0 0 31.588079
4.4718394 3.8467488 5.2839108 0 0 0 0 31.593027
4.3939347 4.2435088 5.2218208 0 0 0 0 31.597975
4.3071084 4.6032472 5.1777215 0 0 0 0 31.602922
4.2023191 4.9539404 5.1266017 0 0 0 0 31.60787
4.3807893 3.9443564 5.2618256 0 0 0 0 31.612818
4.2909131 4.3330894 5.2027235 0 0 0 0 31.617762
4.1960979 4.6898108 5.165617 0 0 0 0 31.622709
4.0793362 5.0324779 5.117485 0 0 0 0 31.627657
4.2967253 4.0459871 5.2477498 0 0 0 0 31.632605
4.197854 4.4327011 5.1986403 0 0 0 0 31.637552
4.0811033 4.7723713 5.1525097 0 0 0 0 31.6425
3.9483898 5.1020036 5.1003613 0 0 0 0 31.647444
4.2156434 4.1526313 5.242681 0 0 0 0 31.652391
4.0928402 4.5222893 5.1825452 0 0 0 0 31.657339
3.962136 4.847929 5.1354003 0 0 0 0 31.662287
3.8174551 5.1675367 5.0852408 0 0 0 0 31.667234
4.1186233 4.2452407 5.2205949 0 0 0 0 31.672182
3.9838569 4.6038737 5.1614475 0 0 0 0 31.677126
3.8441656 4.9254966 5.120295 0 0 0 0 31.682074
3.6905074 5.2370882 5.0761271 0 0 0 0 31.687021
4.0275817 4.3438706 5.208518 0 0 0 0 31.691969
3.8758607 4.6894674 5.1473536 0 0 0 0 31.696917
3.7291892 5.0040789 5.112196 0 0 0 0 31.70186
3.5565994 5.2956305 5.0590086 0 0 0 0 31.706808
3.9285731 4.4344873 5.189435 0 0 0 0 31.711756
3.7678692 4.7740684 5.1352625 0 0 0 0 31.716703
3.6022687 5.0676398 5.0910854 0 0 0 0 31.721651
3.426682 5.3561902 5.0488968 0 0 0 0 31.726599
3.8305571 4.5281124 5.1753545 0 0 0 0 31.731543
3.6569004 4.8526683 5.1201701 0 0 0 0 31.73649
3.4853067 5.1432323 5.0839887 0 0 0 0 31.741438
3.2937889 5.4097514 5.0347848 0 0 0 0 31.746386
3.7285604 4.616734 5.1592727 0 0 0 0 31.751333
3.54792 4.9352803 5.111083 0 0 0 0 31.756281
3.3653684 5.2118244 5.0748911 0 0 0 0 31.761225
3.1628842 5.4673252 5.0256777 0 0 0 0 31.766172
3.6295531 4.7093692 5.1491961 0 0 0 0 31.77112
3.4319708 5.0098825 5.0949898 0 0 0 0 31.776068
3.2394588 5.2724104 5.0597897 0 0 0 0 31.781015
3.0359669 5.527916 5.0245776 0 0 0 0 31.785963
3.5185976 4.7879834 5.1261082 0 0 0 0 31.790907
3.3160284 5.0824924 5.0808992 0 0 0 0 31.795855
3.1145506 5.3330069 5.0466914 0 0 0 0 31.800802
2.9001129 5.5694947 5.0084696 0 0 0 0 31.80575
3.4069231 4.8722892 5.1095252 0 0 0 0 31.547117
3.1942904 5.1506944 5.0642686 0 0 0 0 31.552065
2.9897118 5.4001241 5.0410237 0 0 0 0 31.557013
2.764251 5.6155014 4.9977555 0 0 0 0 31.56196
3.3058832 4.9658971 5.1064372 0 0 0 0 31.566904
3.0783119 5.2262702 5.0571661 0 0 0 0 31.571852
2.8588343 5.4456687 5.0219064 0 0 0 0 31.576799
2.6323617 5.6620517 4.9916396 0 0 0 0 31.581747
3.1929042 5.0444803 5.0903382 0 0 0 0 31.586695
2.9563861 5.2878385 5.0400591 0 0 0 0 31.591639
2.7319224 5.5012312 5.0117965 0 0 0 0 31.596586
2.4479139 5.586473 4.882463 0 0 0 0 31.601534
3.0759485 5.1170607 5.0712361 0 0 0 0 31.606482
2.8374376 5.3554215 5.0319581 0 0 0 0 31.611429
2.6020477 5.5457945 4.9966855 0 0 0 0 31.616377
2.2684772 5.50492 4.7712951 0 0 0 0 31.621321
2.9629674 5.1966577 5.0621414 0 0 0 0 31.626268
2.7164981 5.4210072 5.0238576 0 0 0 0 31.631216
2.4483621 5.5373054 4.9375482 0 0 0 0 31.636164
2.1465671 5.5535226 4.7771993 0 0 0 0 31.641111
2.8450155 5.2692494 5.0470438 0 0 0 0 31.646059
2.5866268 5.4675775 5.0017481 0 0 0 0 31.651003
2.2560272 5.42873 4.7913666 0 0 0 0 31.655951
2.0167298 5.5811143 4.7680964 0 0 0 0 31.660898
2.7260644 5.341846 5.0349474 0 0 0 0 31.665846
2.4587409 5.5181613 4.9856443 0 0 0 0 31.670794
2.133148 5.4713378 4.7842712 0 0 0 0 31.675741
1.8859138 5.6027107 4.7549949 0 0 0 0 31.680685
2.6051271 5.4104452 5.022851 0 0 0 0 31.685633
2.2475433 5.3715515 4.7944422 0 0 0 0 31.69058
2.0062876 5.5079432 4.7751741 0 0 0 0 31.695528
1.7580665 5.6323218 4.7528992 0 0 0 0 31.700476
2.4831831 5.4820495 5.0137563 0 0 0 0 31.70542
2.1216819 5.412159 4.7763457 0 0 0 0 31.710367
1.8824093 5.5505638 4.7710824 0 0 0 0 31.715315
1.6282685 5.6469374 4.7408028 0 0 0 0 31.720263
2.2670071 5.3294396 4.80655 0 0 0 0 31.72521
2.0037508 5.4727926 4.7792611 0 0 0 0 31.730158
1.7545726 5.5801826 4.7599888 0 0 0 0 31.735102
1.4994595 5.6645622 4.7327108 0 0 0 0 31.740049
2.1460843 5.392065 4.7974615 0 0 0 0 31.744997
1.8768818 5.5154133 4.7681684 0 0 0 0 31.749945
1.6257572 5.602807 4.7458963 0 0 0 0 31.754892
1.3706445 5.6831956 4.7286205 0 0 0 0 31.75984
2.0231802 5.4486928 4.7873731 0 0 0 0 31.764784
1.7490394 5.5500388 4.7520761 0 0 0 0 31.769732
1.498912 5.6344438 4.7408085 0 0 0 0 31.774679
1.2418511 5.6948366 4.7205329 0 0 0 0 31.779627
1.898283 5.5043244 4.7762847 0 0 0 0 31.784575
1.6241626 5.5946794 4.7479911 0 0 0 0 31.789522
1.3710968 5.6560864 4.7307215 0 0 0 0 31.794466
1.1120844 5.697484 4.7074456 0 0 0 0 31.799414
1.7713977 5.5559587 4.7651963 0 0 0 0 31.804361
1.4963152 5.630321 4.7379041 0 0 0 0 31.809309
1.2422899 5.6747346 4.7206359 0 0 0 0 31.814257
0.98627621 5.7121477 4.707366 0 0 0 0 31.819201
1.6425257 5.6035962 4.753109 0 0 0 0 31.824148
1.3674756 5.6629682 4.7288189 0 0 0 0 31.829096
1.1134781 5.6943908 4.7135525 0 0 0 0 31.834044
0.8585043 5.7148147 4.6992855 0 0 0 0 31.838991
1.5126685 5.6462402 4.7400227 0 0 0 0 31.843939
1.2386376 5.6946235 4.721736 0 0 0 0 31.848883
0.98468286 5.7080545 4.7044711 0 0 0 0 31.85383
0.730739 5.7144895 4.6912069 0 0 0 0 31.858778
1.3828015 5.6918917 4.7319384 0 0 0 0 31.863726
1.1058341 5.7152781 4.7066503 0 0 0 0 31.868673
0.85688066 5.7237287 4.6983933 0 0 0 0 31.873621
0.60595834 5.7181787 4.6891346 0 0 0 0 31.878565
1.249962 5.7285447 4.718853 0 0 0 0 31.883512
0.97501981 5.7389455 4.6965694 0 0 0 0 31.88846
0.72807282 5.7404079 4.6963167 0 0 0 0 31.893408
0.48018858 5.7178736 4.6850629 0 0 0 0 31.898355
1.1161224 5.7652044 4.7077699 0 0 0 0 31.903303
0.84519714 5.7646222 4.6914921 0 0 0 0 31.908247
0.59929973 5.7450962 4.6862421 0 0 0 0 31.913195
0.35345122 5.7055745 4.6739917 0 0 0 0 31.918142
0.98127735 5.8028698 4.7016878 0 0 0 0 31.92309
0.71337909 5.7883034 4.6874156 0 0 0 0 31.928038
0.47052979 5.7477922 4.6771693 0 0 0 0 31.932981
0.22968376 5.7022886 4.6729264 0 0 0 0 31.937929
0.84446239 5.8305397 4.6886058 0 0 0 0 31.942877
0.57959533 5.7999883 4.6753383 0 0 0 0 31.947824
0.34173411 5.7584953 4.6770992 0 0 0 0 31.952772
0.1059325 5.6930103 4.6678624 0 0 0 0 31.95772
0.70764267 5.8592172 4.6795263 0 0 0 0 31.962664
0.44678342 5.8206835 4.673265 0 0 0 0 31.967611
0.21298264 5.7532067 4.6660309 0 0 0 0 31.972559
-0.017815575 5.6807404 4.6648002 0 0 0 0 31.977507
0.5708195 5.8889041 4.6734495 0 0 0 0 31.982454
0.31301498 5.8253851 4.6611919 0 0 0 0 31.987402
0.085221484 5.7499285 4.6599655 0 0 0 0 31.992346
-0.14059542 5.6794782 4.670742 0 0 0 0 31.997293
0.43101975 5.9095931 4.6633711 0 0 0 0 32.002243
0.18022352 5.8370962 4.6581221 0 0 0 0 32.007187
-0.042569648 5.7566571 4.6639028 0 0 0 0 32.012138
-0.26130936 5.6532292 4.6596866 0 0 0 0 32.017082
0.28834698 5.9306512 4.654448 0 0 0 0 31.776743
0.042600855 5.8460798 4.6521835 0 0 0 0 31.781691
-0.17310891 5.7435799 4.6529531 0 0 0 0 31.786634
-0.38681558 5.6370883 4.6577258 0 0 0 0 31.791582
0.14756991 5.9403024 4.6423573 0 0 0 0 31.79653
-0.090169683 5.8487568 4.6461043 0 0 0 0 31.801477
-0.3008498 5.732276 4.6458807 0 0 0 0 31.806425
-0.51584417 5.7107863 4.7336569 0 0 0 0 31.811373
0.0057764235 5.9549594 4.6352687 0 0 0 0 31.816317
-0.22491556 5.8424382 4.636024 0 0 0 0 31.821264
-0.43280545 5.7879691 4.6968083 0 0 0 0 31.826212
-0.63758594 5.6945109 4.7365947 0 0 0 0 31.83116
-0.13501072 5.9666271 4.6291838 0 0 0 0 31.836107
-0.36178011 5.8741217 4.6569462 0 0 0 0 31.841055
-0.56568527 5.8196683 4.7307367 0 0 0 0 31.845999
-0.75929904 5.6682429 4.7325344 0 0 0 0 31.850946
-0.27782467 5.986299 4.6320992 0 0 0 0 31.855894
-0.50378096 5.949801 4.716867 0 0 0 0 31.860842
-0.69440162 5.7983861 4.7226691 0 0 0 0 31.865789
-0.88002795 5.6449842 4.735477 0 0 0 0 31.870737
-0.42889777 6.0919585 4.7040124 0 0 0 0 31.875681
-0.64152515 5.9415002 4.7117915 0 0 0 0 31.880629
-0.82415926 5.7891088 4.7276034 0 0 0 0 31.885576
-1.0007454 5.617733 4.7344213 0 0 0 0 31.890524
-0.57463771 6.0866423 4.6929293 0 0 0 0 31.895472
-0.77928162 5.9362082 4.7117181 0 0 0 0 31.900415
-0.95186651 5.7618442 4.720541 0 0 0 0 31.905363
-1.115396 5.566503 4.7163725 0 0 0 0 31.910311
-0.72240466 6.0893307 4.690846 0 0 0 0 31.915258
-0.91701543 5.9219241 4.7076468 0 0 0 0 31.920206
-1.0745127 5.7125993 4.697485 0 0 0 0 31.925154
-0.87219644 6.1000233 4.6967645 0 0 0 0 31.935045
-0.96937627 5.4328461 4.3286376 0 0 0 0 31.939993
-1.1945077 5.8983774 4.7105088 0 0 0 0 31.95978
-1.4776635 5.5098133 4.758224 0 0 0 0 31.969675
-1.3271797 5.85813 4.6944475 0 0 0 0 31.97957
-1.2342349 4.7773671 3.9834864 0 0 0 0 31.984518
-1.5832691 5.4366307 4.7291894 0 0 0 0 31.989462
-1.3133572 6.0481739 4.6715374 0 0 0 0 31.99441
-1.2080489 4.8144412 3.8725739 0 0 0 0 31.999357
-1.6989777 5.3974328 4.7311492 0 0 0 0 32.009254
-1.4661318 6.0478969 4.6814613 0 0 0 0 32.014198
-1.2804002 4.6423302 3.7505622 0 0 0 0 32.019142
-1.7091488 5.5814385 4.711216 0 0 0 0 32.024094
-1.8106683 5.3502502 4.7281137 0 0 0 0 32.029037
-1.6219161 6.0496221 4.6973858 0 0 0 0 32.033989
-1.8318377 5.5372381 4.7051711 0 0 0 0 32.043877
-1.9233843 5.3100719 4.7340794 0 0 0 0 32.048828
-1.7544833 5.9694061 4.651329 0 0 0 0 32.053772
-1.8659788 5.7202039 4.6702156 0 0 0 0 32.058723
-1.9515142 5.4860511 4.6971302 0 0 0 0 32.063667
-2.0330653 5.2559066 4.7290483 0 0 0 0 32.068619
-1.9102598 5.9651499 4.6682572 0 0 0 0 32.073563
-2.0077455 5.7059784 4.6881576 0 0 0 0 32.078506
-2.071198 5.4358716 4.6910911 0 0 0 0 32.083458
-2.1377351 5.1957574 4.7200236 0 0 0 0 32.088402
-2.0539303 5.9189281 4.6551967 0 0 0 0 32.093353
-2.1394236 5.6567812 4.6801085 0 0 0 0 32.098297
-2.2009585 5.4126782 4.7100463 0 0 0 0 32.103241
-2.2494569 5.1526012 4.7289944 0 0 0 0 32.108192
-2.200624 5.8797088 4.6501355 0 0 0 0 32.113136
-2.272114 5.6105905 4.6760607 0 0 0 0 32.118088
-2.3206532 5.3625135 4.7100105 0 0 0 0 32.123032
-2.3541403 5.0934649 4.7249727 0 0 0 0 32.127983
-2.3483286 5.8424964 4.6500759 0 0 0 0 32.132927
-2.4068284 5.571404 4.6810136 0 0 0 0 32.137871
-2.4413495 5.3113537 4.7099757 0 0 0 0 32.142822
-2.4648635 5.0473232 4.7349467 0 0 0 0 32.147766
-2.5040743 5.8192778 4.6650124 0 0 0 0 32.152718
-2.5355043 5.5152364 4.6739721 0 0 0 0 32.157661
-2.5570359 5.2542095 4.7069459 0 0 0 0 32.162605
-2.5735807 4.9971919 4.7429252 0 0 0 0 32.167557
-2.6467476 5.7650928 4.6579604 0 0 0 0 32.172501
-2.6762457 5.4820542 4.6909242 0 0 0 0 32.177452
-2.6757407 5.2020674 4.7109165 0 0 0 0 32.182396
-2.6772802 4.938076 4.7449079 0 0 0 0 32.18734
-2.7914312 5.7129126 4.6549087 0 0 0 0 32.192291
-2.8029172 5.4189062 4.6848879 0 0 0 0 32.197235
-2.804487 5.1639147 4.7308803 0 0 0 0 32.202187
-2.777972 4.8739724 4.7438946 0 0 0 0 32.20713
-2.9361196 5.6597414 4.6548591 0 0 0 0 32.212082
-2.9346132 5.3637571 4.6868491 0 0 0 0 32.217026
-2.9101405 5.0868101 4.7168632 0 0 0 0 32.22197
-2.8656149 4.7888975 4.7228923 0 0 0 0 32.226921
-3.0767887 5.5955858 4.6498137 0 0 0 0 32.231865
-3.0592904 5.2976274 4.6838179 0 0 0 0 32.236816
-3.0268447 5.0276923 4.7218385 0 0 0 0 32.24176
-2.9884124 4.761766 4.7628651 0 0 0 0 32.246704
-3.1631429 5.4369226 4.5692973 0 0 0 0 32.352409
-3.1959445 5.2518768 4.7002654 0 0 0 0 32.357353
-3.1385062 4.9619727 4.7232976 0 0 0 0 32.362305
-3.0801005 4.6860676 4.7563319 0 0 0 0 32.367249
-3.2305944 5.2589202 4.4713073 0 0 0 0 32.3722
-3.2995627 5.1478157 4.6692538 0 0 0 0 32.377144
-3.2522202 4.8978915 4.728282 0 0 0 0 32.382088
-3.1828291 4.6240001 4.7653246 0 0 0 0 32.387039
-3.2940648 5.0829272 4.3773208 0 0 0 0 32.391983
-3.3630717 4.9898224 4.5882707 0 0 0 0 32.396935
-3.3689437 4.8348122 4.738266 0 0 0 0 32.401878
-3.2765405 4.5519514 4.7653255 0 0 0 0 32.40683
-3.3525507 4.9089456 4.284339 0 0 0 0 32.411774
-3.4256048 4.8378344 4.513289 0 0 0 0 32.416718
-3.4686251 4.7507658 4.727262 0 0 0 0 32.421669
-3.3732624 4.481904 4.7693248 0 0 0 0 32.426613
-3.427114 4.7659426 4.2203479 0 0 0 0 32.431564
-3.4791341 4.6778631 4.4333129 0 0 0 0 32.436508
-3.5352223 4.6227736 4.6762805 0 0 0 0 32.441452
-3.4750078 4.4198546 4.7843227 0 0 0 0 32.446404
-3.4876611 4.6099639 4.1453667 0 0 0 0 32.451347
-3.5266767 4.5199032 4.3533425 0 0 0 0 32.456299
-3.5847914 4.4778109 4.6073108 0 0 0 0 32.461243
-3.5637224 4.3408303 4.7833295 0 0 0 0 32.466187
-3.5382121 4.4500031 4.0673928 0 0 0 0 32.471138
-3.5932934 4.3919182 4.3043609 0 0 0 0 32.476082
-3.6414001 4.3468409 4.5533371 0 0 0 0 32.481033
-3.6574516 4.2658038 4.7883339 0 0 0 0 32.485977
-3.5998132 4.3090291 4.0094128 0 0 0 0 32.490929
-3.6488969 4.2529526 4.2453866 0 0 0 0 32.495872
-3.692014 4.213881 4.4973679 0 0 0 0 32.500816
-3.7361572 4.1768036 4.7793493 0 0 0 0 32.505768
-3.6564224 4.1680651 3.9494367 0 0 0 0 32.510712
-3.6965053 4.1120009 4.1834178 0 0 0 0 32.515663
-3.7446475 4.0859222 4.4473982 0 0 0 0 32.520607
-3.7988336 4.0708299 4.7513752 0 0 0 0 32.525551
-3.7110467 4.0291066 3.8934627 0 0 0 0 32.530502
-3.7581611 3.9900329 4.1414413 0 0 0 0 32.535446
-3.7962992 3.9629669 4.4024296 0 0 0 0 32.540398
-3.8414762 3.9448867 4.7004137 0 0 0 0 32.545341
-3.7646899 3.8951528 3.84249 0 0 0 0 32.550293
-3.8048041 3.8570876 4.0884748 0 0 0 0 32.555237
-3.8419507 3.8350227 4.3534646 0 0 0 0 32.560181
-3.8931561 3.8329337 4.6664476 0 0 0 0 32.565132
-3.8233545 3.7671952 3.7985146 0 0 0 0 32.570076
-3.8544688 3.7301409 4.0435066 0 0 0 0 32.575027
-3.8926299 3.7170739 4.3154979 0 0 0 0 32.579971
-3.9358296 3.713995 4.6244874 0 0 0 0 32.584915
-3.8760283 3.6392481 3.7555437 0 0 0 0 32.589867
-3.9051497 3.6071959 4.0025387 0 0 0 0 32.59481
-3.9363091 3.5951371 4.2725358 0 0 0 0 32.599762
-3.9805219 3.6000559 4.5895262 0 0 0 0 32.604706
-3.9307203 3.5163009 3.7185721 0 0 0 0 32.60965
-3.9548438 3.4862542 3.9655716 0 0 0 0 32.614601
-3.9870143 3.4821939 4.2405696 0 0 0 0 32.619545
-4.0212183 3.4851243 4.5515676 0 0 0 0 32.624496
-3.9804153 3.3903632 3.6786039 0 0 0 0 32.62944
-3.9995439 3.3643212 3.927608 0 0 0 0 32.634392
-4.0347261 3.3682568 4.2096057 0 0 0 0 32.639336
-4.0619287 3.3731947 4.5186095 0 0 0 0 32.644279
-4.023118 3.2634356 3.6386406 0 0 0 0 32.649231
-4.056273 3.253377 3.9026372 0 0 0 0 32.654175
-4.0824504 3.2573225 4.1806421 0 0 0 0 32.659126
-4.1046529 3.2642651 4.4896507 0 0 0 0 32.66407
-4.0808506 3.148494 3.6136684 0 0 0 0 32.669014
-4.1070056 3.1404424 3.8766708 0 0 0 0 32.673965
-4.1261792 3.1443951 4.150681 0 0 0 0 32.678909
-4.1574035 3.1653261 4.4746866 0 0 0 0 32.683861
-4.1285853 3.0295656 3.5847027 0 0 0 0 32.688805
-4.1497393 3.0235195 3.8457096 0 0 0 0 32.693756
-4.1779318 3.0404611 4.1327162 0 0 0 0 32.6987
-4.1951418 3.056407 4.4457307 0 0 0 0 32.703644
-4.177331 2.9126391 3.5587366 0 0 0 0 32.708595
-4.1994934 2.9135907 3.8247442 0 0 0 0 32.713539
-4.218679 2.9285414 4.1067576 0 0 0 0 32.718491
-4.2378964 2.9524841 4.4247723 0 0 0 0 32.723434
-4.2330971 2.8027077 3.5417669 0 0 0 0 32.728378
-4.2462544 2.8026679 3.803781 0 0 0 0 32.73333
-4.2624378 2.8196213 4.083797 0 0 0 0 32.738274
-4.2846665 2.8525593 4.4108124 0 0 0 0 32.743225
-4.271853 2.6817963 3.5138068 0 0 0 0 32.748169
-4.29002 2.6897507 3.7818196 0 0 0 0 32.753113
-4.3102145 2.7166989 4.0698347 0 0 0 0 32.758064
-4.3234348 2.7486453 4.3898568 0 0 0 0 32.763008
-4.3256369 2.5728722 3.5008388 0 0 0 0 32.76796
-4.3398046 2.5838299 3.7688551 0 0 0 0 32.772903
-4.3509898 2.6077864 4.0498762 0 0 0 0 32.777855
-4.3622117 2.644733 4.371901 0 0 0 0 32.782799
-4.3704195 2.4579594 3.4828758 0 0 0 0 32.787743
-4.3825884 2.4729183 3.7508943 0 0 0 0 32.792694
-4.3947802 2.5038724 4.0369167 0 0 0 0 32.797638
-4.4090071 2.5468154 4.3639412 0 0 0 0 32.802589
-4.4172153 2.3460469 3.4699118 0 0 0 0 32.807533
-4.430388 2.366004 3.740931 0 0 0 0 32.812477
-4.4445834 2.402956 4.029954 0 0 0 0 32.817429
-4.4558105 2.4499002 4.3579812 0 0 0 0 32.822372
-4.4602532 2.2372158 3.4603584 0 0 0 0 33.331406
-4.4763508 2.2631543 3.7363834 0 0 0 0 33.336357
-4.4874506 2.3030879 4.0244155 0 0 0 0 33.341301
-4.4915638 2.3520086 4.3474541 0 0 0 0 33.346252
-4.5151567 2.1303446 3.4573915 0 0 0 0 33.351196
-4.5322533 2.1612818 3.7374179 0 0 0 0 33.356148
-4.5303464 2.1992164 4.0164557 0 0 0 0 33.361092
-4.537457 2.2551348 4.3444953 0 0 0 0 33.366035
-4.5610657 2.0194767 3.4504273 0 0 0 0 33.370987
-4.5671563 2.0494146 3.7224586 0 0 0 0 33.375931
-4.5812521 2.1003454 4.0184937 0 0 0 0 33.380882
-4.576355 2.1552641 4.3365388 0 0 0 0 33.385826
-4.6119843 1.9096106 3.4494612 0 0 0 0 33.39077
-4.6230741 1.9475466 3.7284935 0 0 0 0 33.395721
-4.6221614 1.9954784 4.0115342 0 0 0 0 33.400665
-4.6182613 2.0563951 4.3335814 0 0 0 0 33.405617
-4.6609097 1.8007469 3.4494963 0 0 0 0 33.410561
-4.666995 1.8396825 3.7255313 0 0 0 0 33.415512
-4.6580772 1.8886133 4.0035763 0 0 0 0 33.420456
-4.664175 1.9595279 4.3356223 0 0 0 0 33.4254
-4.7098427 1.6898859 3.4505308 0 0 0 0 33.430351
-4.7089233 1.7318203 3.7225697 0 0 0 0 33.435295
-4.7130046 1.7897493 4.0126123 0 0 0 0 33.440247
-4.7060943 1.8606628 4.3356647 0 0 0 0 33.44519
-4.7537823 1.5780261 3.4515667 0 0 0 0 33.450134
-4.7608614 1.6259599 3.7306046 0 0 0 0 33.455086
-4.7479343 1.6838882 4.0066547 0 0 0 0 33.46003
-4.7500205 1.7618004 4.3377056 0 0 0 0 33.464981
-4.8077321 1.4691695 3.4605997 0 0 0 0 33.469925
-4.7998037 1.5161016 3.7296438 0 0 0 0 33.474869
-4.7968745 1.5810283 4.0156922 0 0 0 0 33.47982
-4.7899532 1.6629388 4.3407488 0 0 0 0 33.484764
-4.8656898 1.3593155 3.4746308 0 0 0 0 33.489716
-4.8457546 1.4092451 3.7366807 0 0 0 0 33.494659
-4.8458214 1.479171 4.0257301 0 0 0 0 33.499611
-4.837894 1.5650802 4.3507891 0 0 0 0 33.504555
-4.9017167 1.3023916 3.7537138 0 0 0 0 33.51445
-4.8927755 1.3763156 4.0367689 0 0 0 0 33.519394
-4.8758397 1.4632233 4.3528318 0 0 0 0 33.524345
-0.33581743 0.075974435 0.2380521 0 0 0 0 33.529289
-4.9456825 1.1925395 3.7627506 0 0 0 0 33.534233
-4.9347358 1.2694622 4.0438075 0 0 0 0 33.539185
-4.9227939 1.3643683 4.3658719 0 0 0 0 33.544128
-4.9906559 1.0816895 3.7737863 0 0 0 0 33.554024
-4.9877052 1.1656116 4.0628433 0 0 0 0 33.558968
-4.9687548 1.2635162 4.3779111 0 0 0 0 33.563919
-0.33579424 0.05899027 0.23514721 0 0 0 0 33.568863
-5.0466399 0.97284251 3.7978191 0 0 0 0 33.573814
-5.0286794 1.0577621 4.0728817 0 0 0 0 33.578758
-5.0077214 1.1606643 4.3869529 0 0 0 0 33.58371
-5.0966301 0.8619976 3.8168528 0 0 0 0 33.593597
-5.0756626 0.94991487 4.0909181 0 0 0 0 33.598549
-5.0566974 1.0588162 4.4059911 0 0 0 0 33.603493
-0.33577305 0.043005764 0.23324245 0 0 0 0 33.608444
-5.1446276 0.74715459 3.835886 0 0 0 0 33.613388
-5.1286545 0.84207118 4.1149521 0 0 0 0 33.618332
-5.1016788 0.95496953 4.4230299 0 0 0 0 33.623283
-5.2246394 0.63632166 3.8819098 0 0 0 0 33.633179
-5.1686516 0.73122716 4.1289902 0 0 0 0 33.638123
-5.151669 0.85112602 4.4460673 0 0 0 0 33.643074
-0.34675628 0.028024141 0.24033424 0 0 0 0 33.648018
-5.2266593 0.62138867 4.1620221 0 0 0 0 33.657913
-5.2026663 0.74628502 4.4711037 0 0 0 0 33.662857
-0.36474946 0.027032841 0.27039155 0 0 0 0 33.672752
-5.2796745 0.50855231 4.1900539 0 0 0 0 33.677696
-5.2476707 0.63844448 4.4931407 0 0 0 0 33.682648
-0.35574174 0.011043273 0.24542598 0 0 0 0 33.687592
-5.3396993 0.39472032 4.2260838 0 0 0 0 33.697487
-5.3016844 0.52960914 4.5231743 0 0 0 0 33.702431
-0.36173296 0.010047816 0.26848719 0 0 0 0 33.712326
-5.3927312 0.27788815 4.2591147 0 0 0 0 33.717278
-5.3527045 0.41977489 4.5532088 0 0 0 0 33.722221
-0.36672896 -0.0049359812 0.25251758 0 0 0 0 33.727173
-5.4447713 0.15905736 4.2941451 0 0 0 0 33.737061
-5.4077344 0.30794391 4.589242 0 0 0 0 33.742012
-0.35671729 -0.0059381947 0.26458347 0 0 0 0 33.751907
-5.5068226 0.038233709 4.3371716 0 0 0 0 33.756851
-5.455771 0.19311273 4.6202745 0 0 0 0 33.761795
-0.35471481 -0.021925785 0.24561524 0 0 0 0 33.766747
-5.6169343 -0.22348267 4.1341014 0 0 0 0 33.77169
-5.5558791 -0.083593711 4.3732014 0 0 0 0 33.776642
-5.5118179 0.076287687 4.6583052 0 0 0 0 33.781586
-5.622951 -0.21041064 4.4252243 0 0 0 0 33.796425
-5.5718741 -0.041533951 4.7033339 0 0 0 0 33.801376
-0.33885869 -0.037021067 0.23402043 0 0 0 0 33.533989
-0.32985619 -0.028027121 0.24503982 0 0 0 0 33.53894
-5.6775589 -0.34135088 4.4669433 0 0 0 0 33.543884
-5.621573 -0.16443992 4.7390547 0 0 0 0 33.548836
-0.3378436 -0.053007018 0.23511545 0 0 0 0 33.57357
-0.44387764 -0.05899103 0.33008784 0 0 0 0 33.578514
-0.45287883 -0.046994906 0.35810211 0 0 0 0 33.583466
-0.45487073 -0.042991366 0.38516715 0 0 0 0 33.6082
-0.42786276 -0.08797016 0.3011716 0 0 0 0 33.613144
-0.43286255 -0.077974044 0.32418656 0 0 0 0 33.618088
-0.43786132 -0.065978274 0.34820235 0 0 0 0 33.623039
-0.43285593 -0.049986064 0.36722314 0 0 0 0 33.627983
-0.41985291 -0.10795429 0.2992681 0 0 0 0 33.652718
-0.42785159 -0.096956693 0.32328263 0 0 0 0 33.657669
-0.43384936 -0.084960245 0.34729826 0 0 0 0 33.662613
-0.42784125 -0.067967921 0.36331978 0 0 0 0 33.667564
-0.42284939 -0.12993541 0.30535984 0 0 0 0 33.692299
-0.42784554 -0.11793827 0.3263759 0 0 0 0 33.697243
-0.42683917 -0.10394388 0.34439465 0 0 0 0 33.702187
-0.42282921 -0.08595074 0.360416 0 0 0 0 33.707138
-0.4268496 -0.15291639 0.31345063 0 0 0 0 33.731873
-0.42984384 -0.13992012 0.33346784 0 0 0 0 33.736816
-0.41782966 -0.12092935 0.34049192 0 0 0 0 33.741768
-0.40981731 -0.10293793 0.35251445 0 0 0 0 33.746712
-4.4659715 -1.8430371 3.3267295 0 0 0 0 33.771446
-0.42584243 -0.16090439 0.33556157 0 0 0 0 33.776398
-0.41182473 -0.13991477 0.33958694 0 0 0 0 33.781342
-0.39980748 -0.11892504 0.34661177 0 0 0 0 33.786293
-4.3410292 -1.9119917 3.2688119 0 0 0 0 33.791237
-4.2190886 -1.9759523 3.2138929 0 0 0 0 33.811028
-4.3390636 -1.865929 3.4609289 0 0 0 0 33.815971
-0.40982401 -0.15989922 0.34268001 0 0 0 0 33.820915
-0.3988044 -0.13790901 0.34870496 0 0 0 0 33.825867
-4.0881433 -2.031924 3.1509771 0 0 0 0 33.830811
-4.2371321 -1.9378809 3.414 0 0 0 0 33.835762
-4.0022292 -2.1068795 3.1250393 0 0 0 0 33.850601
-4.1211929 -1.9988462 3.356077 0 0 0 0 33.855545
-0.40382427 -0.17888674 0.34377411 0 0 0 0 33.860497
-0.39480245 -0.15589546 0.34979895 0 0 0 0 33.86544
-3.8912997 -2.1648545 3.0801129 0 0 0 0 33.870392
-4.0132613 -2.0608139 3.3051496 0 0 0 0 33.875336
-4.1562204 -1.9527606 3.5491836 0 0 0 0 33.88028
-3.7663608 -2.2108448 3.0241926 0 0 0 0 33.890175
-3.9403541 -2.1367674 3.2842052 0 0 0 0 33.895126
-4.0532889 -2.0157256 3.4952531 0 0 0 0 33.90007
-0.38780218 -0.17388444 0.3488932 0 0 0 0 33.905014
-3.6204047 -2.2398548 2.9502821 0 0 0 0 33.909966
-3.803405 -2.176765 3.2102892 0 0 0 0 33.914909
-3.9943902 -2.09867 3.4803026 0 0 0 0 33.919861
-3.9972157 -1.8956962 3.6034124 0 0 0 0 33.924805
-3.5294895 -2.2968373 2.9213448 0 0 0 0 33.929749
-3.6714563 -2.2127674 3.1403716 0 0 0 0 33.9347
-3.8684471 -2.1446612 3.4083805 0 0 0 0 33.939644
-3.991348 -2.0016077 3.6284397 0 0 0 0 33.944595
-3.4515893 -2.3618176 2.9053991 0 0 0 0 33.949539
-3.5735347 -2.2657542 3.0994365 0 0 0 0 33.954491
-3.7665217 -2.1996429 3.356447 0 0 0 0 33.959435
-3.9584692 -2.0955389 3.6314764 0 0 0 0 33.964378
-3.3847005 -2.4317946 2.8984473 0 0 0 0 33.96933
-3.4776151 -2.3167462 3.0615001 0 0 0 0 33.974274
-3.6145551 -2.2206659 3.2615364 0 0 0 0 33.979225
-3.8365283 -2.1415324 3.5535505 0 0 0 0 33.984169
-3.357856 -2.5317478 2.9274726 0 0 0 0 33.989113
-3.413727 -2.3877211 3.0515466 0 0 0 0 33.994064
-3.5276425 -2.2776508 3.2245948 0 0 0 0 33.999008
-3.7346027 -2.1945193 3.4946153 0 0 0 0 34.00396
-3.3084204 -2.6168635 2.9396508 0 0 0 0 33.750908
-3.3613513 -2.4678497 3.0537148 0 0 0 0 33.755859
-3.4392951 -2.332824 3.1857669 0 0 0 0 33.760803
-3.6102884 -2.2307668 3.4147797 0 0 0 0 33.765747
-3.6528859 -3.0286658 3.3104477 0 0 0 0 33.770699
-3.3284695 -2.5617959 3.0757508 0 0 0 0 33.775642
-3.3813829 -2.4047749 3.1768198 0 0 0 0 33.780594
-3.5103407 -2.2797275 3.3588552 0 0 0 0 33.785538
-3.5790033 -3.1076293 3.3115005 0 0 0 0 33.790482
-3.359509 -2.5057163 3.2048492 0 0 0 0 33.800377
-3.4404173 -2.3436823 3.3329146 0 0 0 0 33.805328
-3.4981191 -3.1806004 3.3065557 0 0 0 0 33.810272
-3.3166223 -2.5906692 3.2148898 0 0 0 0 33.820168
-3.3825095 -2.4166362 3.3199654 0 0 0 0 33.825111
-3.0498476 -2.9027419 2.9498534 0 0 0 0 33.830063
-3.4601021 -3.0565515 3.3817008 0 0 0 0 33.835007
-3.359637 -2.5145783 3.3429952 0 0 0 0 33.844902
-2.9609373 -2.9487338 2.930917 0 0 0 0 33.849846
-3.3752093 -3.1195314 3.3667586 0 0 0 0 33.854797
-3.3327696 -2.612525 3.3640249 0 0 0 0 33.864693
-2.8590136 -2.979738 2.9009883 0 0 0 0 33.869637
-3.2983286 -3.1885126 3.36081 0 0 0 0 33.874588
-2.7731092 -3.0247402 2.8870478 0 0 0 0 33.889427
-3.2174473 -3.2535014 3.351862 0 0 0 0 33.894371
-2.6912107 -3.0717452 2.8771038 0 0 0 0 33.90921
-3.1495867 -3.3314888 3.3589036 0 0 0 0 33.914162
-2.5992999 -3.1057611 2.8571658 0 0 0 0 33.929001
-3.0677123 -3.3944888 3.3519533 0 0 0 0 33.933945
-2.522413 -3.1567748 2.8552153 0 0 0 0 33.948792
-2.6603703 -3.0786705 2.9812384 0 0 0 0 33.953735
-3.0516663 -3.2694228 3.3850896 0 0 0 0 33.958687
-2.4415195 -3.199795 2.8482676 0 0 0 0 33.968575
-2.5654547 -3.1076934 2.9533012 0 0 0 0 33.973526
-2.9798019 -3.3384228 3.3831317 0 0 0 0 33.97847
-2.3566215 -3.2368228 2.8373215 0 0 0 0 33.988365
-2.4795506 -3.1437159 2.9343569 0 0 0 0 33.993309
-2.9059403 -3.4064288 3.3801732 0 0 0 0 33.99826
-2.2787368 -3.2818527 2.8363688 0 0 0 0 34.008156
-2.3986585 -3.1867416 2.9234071 0 0 0 0 34.0131
-2.8310833 -3.4744418 3.3792126 0 0 0 0 34.018044
-2.2008536 -3.325887 2.8354151 0 0 0 0 34.027939
-2.3137577 -3.2207737 2.90646 0 0 0 0 34.03289
-2.6710837 -3.4325104 3.2743163 0 0 0 0 34.037834
-2.8510332 -3.3583448 3.4133379 0 0 0 0 34.042786
-2.1179643 -3.3629303 2.8304634 0 0 0 0 34.047729
-2.2368746 -3.2658074 2.9015052 0 0 0 0 34.052673
-2.3958597 -3.2256575 3.0215139 0 0 0 0 34.057625
-2.7731719 -3.4213634 3.4023778 0 0 0 0 34.062569
-2.0471003 -3.4169714 2.8415005 0 0 0 0 34.06752
-2.1579874 -3.3058465 2.8935511 0 0 0 0 34.072464
-2.2859156 -3.2267098 2.9685845 0 0 0 0 34.077408
-2.6893022 -3.4753911 3.3854213 0 0 0 0 34.082359
-1.9692234 -3.4590216 2.8435426 0 0 0 0 34.087303
-2.0791032 -3.3458912 2.8875957 0 0 0 0 34.092255
-2.2110374 -3.2737463 2.9616263 0 0 0 0 34.097198
-2.6384997 -3.5744023 3.4114368 0 0 0 0 34.10215
-1.8903476 -3.5000782 2.8465836 0 0 0 0 34.107094
-2.0042288 -3.3909392 2.8886352 0 0 0 0 34.112038
-2.1261425 -3.3067946 2.9436743 0 0 0 0 34.116989
-2.3011229 -3.2686088 3.0606849 0 0 0 0 34.121933
-1.8134774 -3.5431385 2.8526218 0 0 0 0 34.126884
-1.924347 -3.4289951 2.8826773 0 0 0 0 34.131828
-2.0452545 -3.342845 2.9297187 0 0 0 0 34.136772
-2.2042086 -3.2886636 3.0217404 0 0 0 0 34.141724
-1.7346026 -3.5812056 2.8566608 0 0 0 0 34.146667
-1.8464711 -3.4690554 2.8817167 0 0 0 0 34.151619
-1.9713838 -3.3888958 2.9267559 0 0 0 0 34.156563
-2.1143053 -3.3147199 2.9927907 0 0 0 0 34.161507
-1.6527231 -3.6142802 2.8587012 0 0 0 0 34.166458
-1.7736111 -3.5181179 2.8897493 0 0 0 0 34.171402
-1.8905026 -3.425957 2.9157963 0 0 0 0 34.176353
-2.0304165 -3.3487766 2.9718342 0 0 0 0 34.181297
-1.5748574 -3.6553574 2.8667355 0 0 0 0 34.186249
-1.6947389 -3.5571897 2.8897858 0 0 0 0 34.191193
-1.8136331 -3.4690218 2.9138319 0 0 0 0 34.196136
-1.9515437 -3.3918357 2.9598715 0 0 0 0 34.201088
-1.4959897 -3.6934409 2.8747697 0 0 0 0 34.206032
-1.6158645 -3.593266 2.8898222 0 0 0 0 34.210983
-1.7337571 -3.506093 2.9068689 0 0 0 0 34.215927
-1.8696617 -3.4269021 2.9439111 0 0 0 0 34.220871
-1.4132715 -3.7234724 2.8788986 0 0 0 0 34.266037
-1.5391574 -3.6362793 2.8969479 0 0 0 0 34.270981
-1.6580429 -3.5500917 2.9079981 0 0 0 0 34.275925
-1.7909358 -3.4688885 2.9350455 0 0 0 0 34.280876
-1.3364201 -3.7675717 2.8949246 0 0 0 0 34.28582
-1.4602917 -3.6733718 2.8999789 0 0 0 0 34.290771
-1.5761696 -3.5841806 2.901032 0 0 0 0 34.295715
-1.715081 -3.5159667 2.9320734 0 0 0 0 34.300667
-1.2545497 -3.7986786 2.9009559 0 0 0 0 34.305611
-1.3794249 -3.7084725 2.9030094 0 0 0 0 34.310555
-1.5043331 -3.6392691 2.9140527 0 0 0 0 34.315506
-1.6342189 -3.5570552 2.9241033 0 0 0 0 34.32045
-1.1716765 -3.8267927 2.9079874 0 0 0 0 34.325401
-1.3015754 -3.7525768 2.9130332 0 0 0 0 34.330345
-1.4244715 -3.6773677 2.9130809 0 0 0 0 34.335289
-1.5533532 -3.5941484 2.9161332 0 0 0 0 34.34024
-1.0908198 -3.8639121 2.9210122 0 0 0 0 34.345184
-1.2197049 -3.7826889 2.9160633 0 0 0 0 34.350136
-1.3426071 -3.7124739 2.9111092 0 0 0 0 34.35508
-1.4775153 -3.6462445 2.9201534 0 0 0 0 34.360031
-1.0089568 -3.8960373 2.933038 0 0 0 0 34.364975
-1.1388497 -3.8208072 2.9240873 0 0 0 0 34.369919
-1.2637587 -3.755585 2.9181316 0 0 0 0 34.37487
-1.3976701 -3.6923504 2.9211752 0 0 0 0 34.379814
-0.92609036 -3.925169 2.9440641 0 0 0 0 34.384766
-1.0579969 -3.8589318 2.9351094 0 0 0 0 34.389709
-1.1839144 -3.7997026 2.9251516 0 0 0 0 34.394653
-1.3158156 -3.7314632 2.9191992 0 0 0 0 34.399605
-0.8422237 -3.9533081 2.9560888 0 0 0 0 34.404549
-0.97714251 -3.8950617 2.9461308 0 0 0 0 34.4095
-1.1010571 -3.8348284 2.9281747 0 0 0 0 34.414444
-1.2339705 -3.7745821 2.9192193 0 0 0 0 34.419388
-0.75936216 -3.9834523 2.9711111 0 0 0 0 34.424339
-0.89227593 -3.9232006 2.9511552 0 0 0 0 34.429283
-1.0192195 -3.8799624 2.9401906 0 0 0 0 34.434235
-1.1531334 -3.8207068 2.9242361 0 0 0 0 34.439178
-0.67348593 -4.0046034 2.9791362 0 0 0 0 34.44413
-0.80942363 -3.9583452 2.964174 0 0 0 0 34.449074
-0.93536633 -3.9151011 2.9452105 0 0 0 0 34.454018
-1.0692991 -3.8668427 2.9302506 0 0 0 0 34.458969
-0.5896309 -4.0367613 2.997154 0 0 0 0 34.463913
-0.72356415 -3.9884984 2.9731936 0 0 0 0 34.468864
-0.85051519 -3.9502482 2.9522285 0 0 0 0 34.473808
-0.98445636 -3.9069841 2.9332669 0 0 0 0 34.478752
-0.50477564 -4.0679278 3.0171704 0 0 0 0 34.483704
-0.63871175 -4.0216579 2.9872103 0 0 0 0 34.488647
-0.76567549 -3.9904027 2.9632421 0 0 0 0 34.493599
-0.89761412 -3.9461348 2.9372823 0 0 0 0 34.498543
-0.41890877 -4.0920987 3.0321889 0 0 0 0 34.503487
-0.55285549 -4.0518236 2.9992266 0 0 0 0 34.508438
-0.67782462 -4.0235662 2.9712577 0 0 0 0 34.513382
-0.80977607 -3.9862936 2.9422948 0 0 0 0 34.518333
-0.33305824 -4.1242795 3.0552013 0 0 0 0 34.523277
-0.46599892 -4.080997 3.0122418 0 0 0 0 34.528229
-0.58896798 -4.0527368 2.9772739 0 0 0 0 34.533173
-0.72295374 -4.0334597 2.9543018 0 0 0 0 34.538116
-0.24620922 -4.1564684 3.0792122 0 0 0 0 34.543068
-0.37814569 -4.1111794 3.0272548 0 0 0 0 34.548012
-0.50112456 -4.0879135 2.9892845 0 0 0 0 34.552963
-0.63312423 -4.075635 2.9633093 0 0 0 0 34.557907
-0.15835187 -4.1836634 3.1012237 0 0 0 0 34.562851
-0.29030767 -4.1483703 3.0492618 0 0 0 0 34.567802
-0.41229856 -4.131103 3.009289 0 0 0 0 34.572746
-0.54127342 -4.1058173 2.9663219 0 0 0 0 34.577698
-0.068541162 -4.2338781 3.1412203 0 0 0 0 34.582642
-0.20046163 -4.1805696 3.0682697 0 0 0 0 34.587593
-0.32043925 -4.1562958 3.0153019 0 0 0 0 34.592537
-0.44945416 -4.1510119 2.9813242 0 0 0 0 34.597481
0.020275334 -4.2800965 3.1802173 0 0 0 0 34.602432
-0.109623 -4.2157798 3.091274 0 0 0 0 34.607376
-0.22860123 -4.1914997 3.031307 0 0 0 0 34.612328
-0.35461515 -4.185214 2.9893305 0 0 0 0 34.617271
0.11211204 -4.3153234 3.2122185 0 0 0 0 34.622215
-0.017792102 -4.2539988 3.1182749 0 0 0 0 34.627167
-0.13476487 -4.2267151 3.0493102 0 0 0 0 34.632111
-0.25978416 -4.2224245 3.0003333 0 0 0 0 34.637062
0.20691651 -4.3655686 3.2562089 0 0 0 0 34.642006
0.075051442 -4.2852244 3.1412778 0 0 0 0 34.64695
-0.039926216 -4.2599378 3.0663126 0 0 0 0 34.651901
-0.16195905 -4.2616491 3.0153325 0 0 0 0 34.656845
0.33669037 -4.9131207 3.6738951 0 0 0 0 34.661797
0.17085831 -4.3334703 3.1782682 0 0 0 0 34.66674
0.055898499 -4.2991729 3.0903091 0 0 0 0 34.671692
-0.063117273 -4.2918787 3.0243351 0 0 0 0 34.676636
0.44355428 -4.9273944 3.6968994 0 0 0 0 34.68158
0.26963559 -4.3947353 3.2252483 0 0 0 0 34.686531
0.1547149 -4.3414226 3.1163018 0 0 0 0 34.691475
0.036699817 -4.3331223 3.043329 0 0 0 0 34.696426
0.54844534 -4.9286656 3.7109098 0 0 0 0 34.70137
0.37142092 -4.4510121 3.271229 0 0 0 0 34.706314
0.25455731 -4.370676 3.1363001 0 0 0 0 34.711266
0.13852565 -4.3693757 3.0603235 0 0 0 0 34.716209
0.6523751 -4.9119325 3.7119293 0 0 0 0 34.721161
0.52224076 -4.9556108 3.6489265 0 0 0 0 34.726105
0.35638094 -4.4079437 3.1612914 0 0 0 0 34.731049
0.24233903 -4.4106436 3.0833127 0 0 0 0 34.736
0.76027524 -4.9483223 3.7554998 0 0 0 0 35.273705
0.62819523 -4.9528499 3.654552 0 0 0 0 35.278648
0.45951629 -4.4640055 3.2029746 0 0 0 0 35.283592
0.3465158 -4.4435863 3.1010389 0 0 0 0 35.288544
0.75182128 -5.0473313 3.7344587 0 0 0 0 35.298439
0.56925803 -4.5204105 3.2459173 0 0 0 0 35.303383
0.45530906 -4.4809713 3.1239965 0 0 0 0 35.308327
0.86275423 -5.0337238 3.7364461 0 0 0 0 35.318222
0.68099827 -4.5768313 3.2918568 0 0 0 0 35.323174
0.56707454 -4.5273767 3.1539443 0 0 0 0 35.328117
0.98157024 -5.0611725 3.7713988 0 0 0 0 35.338013
0.7957651 -4.6232638 3.3308003 0 0 0 0 35.342957
0.68085897 -4.5667939 3.1808939 0 0 0 0 35.347908
1.1023796 -5.0906372 3.8083467 0 0 0 0 35.357803
1.0159742 -5.2003312 3.755306 0 0 0 0 35.362747
0.79961598 -4.6152415 3.2168329 0 0 0 0 35.367691
1.1388534 -5.2037911 3.7692702 0 0 0 0 35.382538
0.9213531 -4.6697102 3.2577636 0 0 0 0 35.387482
1.2627451 -5.2032604 3.7812347 0 0 0 0 35.402321
1.0510416 -4.7402248 3.3146763 0 0 0 0 35.407272
1.3965304 -5.2387924 3.8231661 0 0 0 0 35.422112
1.1847475 -4.8037558 3.3655899 0 0 0 0 35.427055
1.5412391 -5.2993851 3.8850708 0 0 0 0 35.441902
1.462872 -5.3860621 3.784044 0 0 0 0 35.446846
1.6810383 -4.738831 3.8124382 0 0 0 0 35.45179
1.634447 -4.9006605 3.7713404 0 0 0 0 35.456741
1.6047136 -5.4006248 3.8089821 0 0 0 0 35.466637
1.7899727 -4.7322912 3.8404076 0 0 0 0 35.471581
1.6978341 -4.7428703 3.6754456 0 0 0 0 35.476532
1.6563745 -4.8596897 3.6013794 0 0 0 0 35.481476
1.7525117 -5.429225 3.8449039 0 0 0 0 35.48642
1.9019055 -4.7267704 3.8703732 0 0 0 0 35.491371
1.8068027 -4.7243242 3.6894231 0 0 0 0 35.496315
1.7445754 -4.7640238 3.5534256 0 0 0 0 35.501266
1.6723845 -4.7916818 3.4094419 0 0 0 0 35.50621
2.0327084 -4.7643514 3.9382949 0 0 0 0 35.511154
1.9306804 -4.7358556 3.7283685 0 0 0 0 35.516106
1.8555789 -4.7334805 3.5554094 0 0 0 0 35.521049
1.7933433 -4.7741752 3.4164114 0 0 0 0 35.526001
2.1734655 -4.816988 4.0221972 0 0 0 0 35.530945
2.0674746 -4.7744589 3.7902846 0 0 0 0 35.535889
1.9983491 -4.7781005 3.6143181 0 0 0 0 35.54084
1.9172851 -4.7626915 3.429373 0 0 0 0 35.545784
2.3202217 -4.8696561 4.1080942 0 0 0 0 35.550735
2.2271502 -4.8511786 3.887157 0 0 0 0 35.555679
2.1560533 -4.8437986 3.6942005 0 0 0 0 35.560631
2.0660601 -4.8043361 3.4832788 0 0 0 0 35.565575
2.4838965 -4.9484148 4.2199593 0 0 0 0 35.570518
2.4077296 -4.958005 4.0109925 0 0 0 0 35.57547
2.319756 -4.9095297 3.7760766 0 0 0 0 35.580414
2.2436805 -4.8941221 3.5741291 0 0 0 0 35.585365
2.5879707 -4.8998885 4.2269511 0 0 0 0 35.590309
2.5287235 -4.9335485 4.0329571 0 0 0 0 35.595253
2.4874747 -4.9702878 3.8589509 0 0 0 0 35.600204
2.4412155 -5.0100107 3.6889451 0 0 0 0 35.605148
2.7755699 -5.0027742 4.3657789 0 0 0 0 35.6101
2.698451 -4.9933314 4.1248279 0 0 0 0 35.615044
2.6413109 -4.9939837 3.9148583 0 0 0 0 35.619995
2.5722284 -4.9775858 3.6979089 0 0 0 0 35.624939
2.95029 -5.0676055 4.4786401 0 0 0 0 35.629883
2.8851118 -5.0742059 4.2396698 0 0 0 0 35.634834
2.8270004 -5.0638394 4.0117097 0 0 0 0 35.639778
2.7688656 -5.0614815 3.7967434 0 0 0 0 35.64473
3.1320095 -5.1324754 4.5934935 0 0 0 0 35.649673
3.0767884 -5.1501122 4.3555093 0 0 0 0 35.654617
3.0216827 -5.135745 4.1145506 0 0 0 0 35.659569
2.9725046 -5.1444192 3.8985708 0 0 0 0 35.664513
3.2709744 -5.1211481 4.6454272 0 0 0 0 35.669464
3.2585688 -5.193975 4.4483757 0 0 0 0 35.674408
3.2392838 -5.2327695 4.2433548 0 0 0 0 35.679352
3.1881468 -5.226418 4.0053883 0 0 0 0 35.684303
3.4686739 -5.1931129 4.7762599 0 0 0 0 35.689247
3.4194846 -5.1967468 4.5102835 0 0 0 0 35.694199
3.4181371 -5.2526155 4.3132386 0 0 0 0 35.699142
3.4824224 -5.4188008 4.2030683 0 0 0 0 35.704094
3.8197122 -5.4698291 5.103837 0 0 0 0 35.709038
3.7744963 -5.4764624 4.8178549 0 0 0 0 35.713982
3.7433197 -5.4761682 4.5568714 0 0 0 0 35.718933
3.722059 -5.5019326 4.3228612 0 0 0 0 35.723877
4.5262837 -5.6952434 5.5703917 0 0 0 0 35.510948
4.7451234 -5.7262673 5.6962481 0 0 0 0 35.530739
5.0815907 -5.881824 5.9549456 0 0 0 0 35.550522
5.13518 -5.9498396 5.6718612 0 0 0 0 35.555473
6.1484194 -7.109046 6.402451 0 0 0 0 35.560417
5.4201093 -6.0204043 6.2056489 0 0 0 0 35.570312
5.4747367 -6.0724049 5.8945751 0 0 0 0 35.575256
5.6011834 -6.1877356 5.676415 0 0 0 0 35.580208
5.6171498 -5.9883699 6.2915511 0 0 0 0 35.590096
5.8472462 -6.2111335 6.1452522 0 0 0 0 35.595047
5.9239092 -6.2532277 5.8471727 0 0 0 0 35.599991
6.9982448 -7.353663 6.4837451 0 0 0 0 35.604942
5.7235022 -5.855938 6.2735763 0 0 0 0 35.609886
6.1739783 -6.2786741 6.3370023 0 0 0 0 35.614838
6.4311099 -6.4885488 6.1916938 0 0 0 0 35.619781
6.5745673 -6.5909224 5.9315295 0 0 0 0 35.624725
5.8358464 -5.7295427 6.2655931 0 0 0 0 35.629677
6.3003664 -6.1363401 6.324018 0 0 0 0 35.634621
6.800838 -6.5562844 6.3914108 0 0 0 0 35.639572
7.0729551 -6.7632084 6.2210917 0 0 0 0 35.644516
5.9402094 -5.5991201 6.2526159 0 0 0 0 35.64946
6.4187822 -5.9879813 6.3060422 0 0 0 0 35.654411
6.9562435 -6.4100914 6.3894072 0 0 0 0 35.659355
7.5016427 -6.8422117 6.4387565 0 0 0 0 35.664307
6.0296292 -5.4536386 6.2266583 0 0 0 0 35.66925
6.5521712 -5.8516984 6.3050475 0 0 0 0 35.674202
7.0857406 -6.2387943 6.3674359 0 0 0 0 35.679146
7.6521907 -6.6540098 6.4147816 0 0 0 0 35.68409
6.1379948 -5.3282514 6.2236733 0 0 0 0 35.689041
6.6586399 -5.693305 6.282084 0 0 0 0 35.693985
7.2032762 -6.0584536 6.3364787 0 0 0 0 35.698936
