# .PCD v0.7 - Point Cloud Data file format
VERSION 0.7
FIELDS x y z normal_x normal_y normal_z intensity curvature
SIZE 4 4 4 4 4 4 4 4
TYPE F F F F F F F F
COUNT 1 1 1 1 1 1 1 1
WIDTH 945
HEIGHT 1
VIEWPOINT 0 0 0 1 0 0 0
POINTS 945
DATA ascii
4.1363311 11.21932 1.0945954 0 0 0 0 55.617901
6.7709737 14.369321 1.3024042 0 0 0 0 55.622852
4.8282571 11.352818 1.0571264 0 0 0 0 55.627796
4.3338642 11.307981 1.0790526 0 0 0 0 55.63274
5.1228843 14.975312 1.4418558 0 0 0 0 55.637691
4.8290873 10.887584 0.97087955 0 0 0 0 55.642635
4.5874076 11.516635 1.0530485 0 0 0 0 55.647587
4.0489693 11.344848 1.0723815 0 0 0 0 55.652531
4.5733376 14.470189 1.3931582 0 0 0 0 55.657475
4.7603087 11.43498 0.98904163 0 0 0 0 55.662426
4.1794457 11.247147 1.010537 0 0 0 0 55.66737
4.7818623 14.458419 1.3412985 0 0 0 0 55.672321
3.8162496 13.126486 1.2665366 0 0 0 0 55.677265
4.5144768 11.59518 0.97482276 0 0 0 0 55.682209
5.2108021 15.09409 1.3167284 0 0 0 0 55.68716
4.0809598 13.379064 1.2337743 0 0 0 0 55.692104
3.3021717 12.428867 1.2013463 0 0 0 0 55.697056
4.1218438 11.338415 0.92976648 0 0 0 0 55.702
4.651217 14.539668 1.2496624 0 0 0 0 55.706951
3.5889683 12.811839 1.1750351 0 0 0 0 55.711895
2.8377581 11.760999 1.1403635 0 0 0 0 55.716839
4.9152298 14.568826 1.1483752 0 0 0 0 55.72179
3.900208 13.243864 1.1241989 0 0 0 0 55.726734
3.0862341 12.085152 1.1021928 0 0 0 0 55.731686
2.419136 11.16997 1.0847199 0 0 0 0 55.736629
4.2223024 13.532321 1.0419221 0 0 0 0 55.741573
3.3756301 12.522782 1.0482664 0 0 0 0 55.746525
2.6549461 11.507482 1.0447459 0 0 0 0 55.751469
2.0523148 10.657529 1.0385287 0 0 0 0 55.75642
3.7261946 12.999451 0.97495103 0 0 0 0 55.761364
2.8987215 11.832446 0.97854793 0 0 0 0 55.766308
2.2588756 10.939954 0.9888804 0 0 0 0 55.771259
1.724769 10.243003 1.001147 0 0 0 0 55.776203
3.2111287 12.25917 0.89859498 0 0 0 0 55.781155
2.4804831 11.25656 0.91824162 0 0 0 0 55.786098
1.913559 10.491012 0.9444567 0 0 0 0 55.79105
1.4211124 9.8239384 0.96287394 0 0 0 0 55.795994
2.7530959 11.606402 0.82996297 0 0 0 0 55.800938
2.1044264 10.732545 0.86462921 0 0 0 0 55.805889
1.5887951 10.023614 0.89875859 0 0 0 0 55.810833
1.1387467 9.4183226 0.92713159 0 0 0 0 55.815784
2.348069 11.040219 0.76999843 0 0 0 0 55.820728
1.7713604 10.294351 0.81956947 0 0 0 0 55.825672
1.2967505 9.6303101 0.86021888 0 0 0 0 55.830624
0.88589823 9.0778999 0.89729625 0 0 0 0 55.835567
1.9863832 10.532851 0.71791661 0 0 0 0 55.840519
1.463968 9.885499 0.77748138 0 0 0 0 55.845463
1.0304911 9.2713175 0.82577914 0 0 0 0 55.850414
0.64824682 8.7461205 0.86781371 0 0 0 0 55.855358
1.667967 10.122321 0.67366993 0 0 0 0 55.860302
1.1781803 9.461112 0.73620552 0 0 0 0 55.865253
0.78136915 8.9188957 0.79265988 0 0 0 0 55.870197
0.4302659 8.4437981 0.84225166 0 0 0 0 55.875149
1.3651812 9.697401 0.63020188 0 0 0 0 55.880093
0.91979283 9.0969687 0.70069468 0 0 0 0 55.885036
0.55319208 8.606925 0.76274812 0 0 0 0 55.889988
0.22462939 8.1561842 0.81716716 0 0 0 0 55.894932
1.0900842 9.3027449 0.59075332 0 0 0 0 55.899883
0.68051964 8.7803221 0.66854858 0 0 0 0 55.904827
0.34256744 8.3194609 0.73661369 0 0 0 0 55.909771
0.036859855 7.9060683 0.79618996 0 0 0 0 55.914722
0.8404879 8.9723778 0.55715555 0 0 0 0 55.919666
0.45931339 8.4672222 0.63766026 0 0 0 0 55.924618
0.14386494 8.0287418 0.70950437 0 0 0 0 55.929562
-0.14011678 7.6476984 0.77510351 0 0 0 0 55.934513
0.60601771 8.6476545 0.52383667 0 0 0 0 55.939457
0.25245461 8.1697302 0.60929424 0 0 0 0 55.944401
-0.039858125 7.7805643 0.68760067 0 0 0 0 55.949352
-0.30829653 7.4230962 0.75593948 0 0 0 0 55.954296
0.38912487 8.3484364 0.49432155 0 0 0 0 55.959248
0.06051372 7.9118075 0.58505869 0 0 0 0 55.964191
-0.2132809 7.5451441 0.66610914 0 0 0 0 55.969135
-0.46624404 7.2092009 0.73913789 0 0 0 0 55.974087
0.18668781 8.0688505 0.46643186 0 0 0 0 55.979031
-0.11936943 7.6565995 0.56100154 0 0 0 0 55.983982
-0.37746087 7.3204803 0.64597023 0 0 0 0 55.988926
-0.61484081 7.0100842 0.72279185 0 0 0 0 55.99387
-0.0014961058 7.8008738 0.4409664 0 0 0 0 55.998821
-0.28969604 7.4251399 0.53862554 0 0 0 0 56.003765
-0.53156728 7.0995526 0.62701726 0 0 0 0 56.008717
-0.75817788 6.8227944 0.70878661 0 0 0 0 56.01366
-0.17741512 7.5445809 0.41690707 0 0 0 0 56.018612
-0.45049921 7.2164044 0.51890689 0 0 0 0 56.023556
-0.67989576 6.9114637 0.60993719 0 0 0 0 56.0285
-0.88982099 6.6222763 0.692559 0 0 0 0 56.033451
-0.34639844 7.3280745 0.39590621 0 0 0 0 56.038395
-0.60137326 7.0054078 0.50022298 0 0 0 0 56.043346
-0.81669664 6.7041006 0.59248149 0 0 0 0 56.04829
-1.0188879 6.44665 0.67897367 0 0 0 0 56.053234
-0.50173509 7.0972414 0.3746745 0 0 0 0 56.058186
-0.74589443 6.8092623 0.48196682 0 0 0 0 56.063129
-0.94703346 6.5165591 0.57658082 0 0 0 0 56.068081
-1.1407322 6.2808261 0.66670078 0 0 0 0 56.073025
-0.65508938 6.9052753 0.353012 0 0 0 0 55.830517
-0.88226581 6.6138039 0.46249294 0 0 0 0 55.835468
-1.0756502 6.3498397 0.55999976 0 0 0 0 55.840412
-1.2591622 6.1197867 0.65244788 0 0 0 0 55.845364
-0.79652077 6.7110224 0.33489469 0 0 0 0 55.850307
-1.0133692 6.4342523 0.44683966 0 0 0 0 55.855251
-1.1963525 6.1879869 0.54688734 0 0 0 0 55.860203
-1.3699088 5.9566693 0.64039928 0 0 0 0 55.865147
-0.92897356 6.5165319 0.31785333 0 0 0 0 55.870098
-1.1363863 6.2585101 0.43135473 0 0 0 0 55.875042
-1.3147355 6.0400577 0.53513724 0 0 0 0 55.879986
-1.47813 5.8164449 0.63093978 0 0 0 0 55.884937
-1.0589538 6.3419881 0.3013244 0 0 0 0 55.889881
-1.2567821 6.1096592 0.41855916 0 0 0 0 55.894833
-1.4233344 5.8829222 0.52224934 0 0 0 0 55.899776
-1.5814207 5.6731305 0.62044543 0 0 0 0 55.904728
-1.1817232 6.1772242 0.2871052 0 0 0 0 55.909672
-1.3686346 5.9416308 0.40436333 0 0 0 0 55.914616
-1.5249767 5.7245965 0.51039511 0 0 0 0 55.919567
-1.682463 5.540741 0.61123955 0 0 0 0 55.924511
-1.3003803 6.017365 0.27304164 0 0 0 0 55.929462
-1.4771059 5.7904744 0.39261591 0 0 0 0 55.934406
-1.6319102 5.5963783 0.50023073 0 0 0 0 55.93935
-1.7784268 5.4122066 0.60317546 0 0 0 0 55.944302
-1.4093131 5.8462749 0.25878841 0 0 0 0 55.949245
-1.5852349 5.6533403 0.38021404 0 0 0 0 55.954197
-1.7300453 5.4599509 0.48994443 0 0 0 0 55.959141
-1.8695561 5.2765837 0.59397614 0 0 0 0 55.964092
-1.5194895 5.7071939 0.24631512 0 0 0 0 55.969036
-1.6864309 5.5140166 0.36882147 0 0 0 0 55.97398
-1.8232499 5.3204327 0.47862357 0 0 0 0 55.978931
-1.9621934 5.1619763 0.58628058 0 0 0 0 55.983875
-1.6247563 5.5649729 0.23480621 0 0 0 0 55.988827
-1.7770233 5.3584385 0.35712335 0 0 0 0 55.993771
-1.9160699 5.1978583 0.46972454 0 0 0 0 55.998714
-2.0442882 5.028141 0.577205 0 0 0 0 56.003666
-1.7222255 5.4145665 0.22316456 0 0 0 0 56.00861
-1.8766714 5.2430348 0.34833175 0 0 0 0 56.013561
-2.0030425 5.0691457 0.46072507 0 0 0 0 56.018505
-2.1280835 4.9073257 0.56943154 0 0 0 0 56.023449
-1.8220217 5.2922211 0.21219525 0 0 0 0 56.0284
-1.9676321 5.1144485 0.33829191 0 0 0 0 56.033344
-2.0888994 4.9454093 0.45185491 0 0 0 0 56.038296
-2.2106526 4.7964578 0.56291437 0 0 0 0 56.04324
-1.9160917 5.1587396 0.2009982 0 0 0 0 56.048191
-2.0488679 4.974628 0.32806355 0 0 0 0 56.053135
-2.1735296 4.8316212 0.44424099 0 0 0 0 56.058079
-2.2912269 4.6855454 0.55641043 0 0 0 0 56.06303
-2.0032041 5.0240669 0.1908364 0 0 0 0 56.067974
-2.1403642 4.8660369 0.31950682 0 0 0 0 56.072926
-2.2561169 4.7197871 0.43669099 0 0 0 0 56.077869
-2.3667831 4.5755134 0.5499745 0 0 0 0 56.082813
-2.0920408 4.9014149 0.18195215 0 0 0 0 56.087765
-2.2221355 4.746212 0.31076205 0 0 0 0 56.092709
-2.3318951 4.5998149 0.42800012 0 0 0 0 56.09766
-2.4451349 4.4745283 0.54473144 0 0 0 0 56.102604
-2.1797128 4.785738 0.17324874 0 0 0 0 56.107548
-2.3066537 4.6374326 0.30326059 0 0 0 0 56.112499
-2.4141865 4.5009546 0.4217675 0 0 0 0 56.117443
-2.5186279 4.3674521 0.53837919 0 0 0 0 56.122395
-2.2605031 4.6649218 0.16348052 0 0 0 0 56.127338
-2.3852172 4.526536 0.29476121 0 0 0 0 56.13229
-2.4886549 4.3949065 0.41542944 0 0 0 0 56.137234
-2.5909903 4.266326 0.53318322 0 0 0 0 56.142178
-2.3450153 4.5561752 0.15497157 0 0 0 0 56.147129
-2.4627225 4.418591 0.28734136 0 0 0 0 56.152073
-2.5621419 4.2878623 0.40806991 0 0 0 0 56.157024
-2.6613333 4.1661534 0.52802658 0 0 0 0 56.161968
-2.4236422 4.4432616 0.14741285 0 0 0 0 56.166912
-2.5363071 4.3075533 0.27987814 0 0 0 0 56.171864
-2.6373994 4.1908398 0.40193942 0 0 0 0 56.176807
-2.7325826 4.0700059 0.52295649 0 0 0 0 56.181759
-2.5002012 4.3333011 0.13994408 0 0 0 0 56.186703
-2.6155388 4.2116327 0.27373224 0 0 0 0 56.191654
-2.7097354 4.0907488 0.39575621 0 0 0 0 56.196598
-2.8047135 3.9788837 0.51799858 0 0 0 0 56.201542
-2.5805192 4.2334366 0.1326851 0 0 0 0 56.206493
-2.685987 4.1065245 0.26643971 0 0 0 0 56.211437
-2.7838655 3.9996793 0.39077723 0 0 0 0 56.216389
-2.8797114 3.8938096 0.51415879 0 0 0 0 56.221333
-2.6530504 4.1253576 0.12629412 0 0 0 0 56.226276
-2.7622278 4.0105362 0.26031178 0 0 0 0 56.231228
-2.8540983 3.9045169 0.38572991 0 0 0 0 56.236172
-2.9439607 3.7984734 0.51016665 0 0 0 0 56.241123
-2.7284031 4.0243778 0.11904696 0 0 0 0 56.246067
-2.8373508 3.9195242 0.25431612 0 0 0 0 56.251011
-2.9271877 3.8154285 0.38080108 0 0 0 0 56.255962
-3.0120661 3.7092352 0.5062831 0 0 0 0 56.260906
-2.8055394 3.9324448 0.11200479 0 0 0 0 56.265858
-2.9027505 3.8172753 0.24813209 0 0 0 0 56.270802
-2.9905183 3.7161274 0.37470993 0 0 0 0 56.275753
-3.0781655 3.619976 0.50141448 0 0 0 0 56.280697
-2.8807395 3.8384418 0.10592517 0 0 0 0 56.285641
-2.9710307 3.7201002 0.2420408 0 0 0 0 56.290592
-3.0586169 3.6269214 0.36981985 0 0 0 0 56.295536
-3.1442652 3.5316687 0.49856561 0 0 0 0 56.300488
-2.9454017 3.7304387 0.098331541 0 0 0 0 56.054813
-3.0490489 3.6374133 0.2359844 0 0 0 0 56.059757
-3.1277819 3.5370054 0.36470699 0 0 0 0 56.064701
-3.202508 3.4365242 0.49246785 0 0 0 0 56.069653
-3.0195127 3.639394 0.092362218 0 0 0 0 56.074596
-3.1133614 3.5381279 0.22990634 0 0 0 0 56.079548
-3.1938653 3.4477367 0.35985953 0 0 0 0 56.084492
-3.2714446 3.3542733 0.48976457 0 0 0 0 56.089443
-3.0887506 3.5432332 0.086309448 0 0 0 0 56.094387
-3.1707392 3.4366496 0.22484022 0 0 0 0 56.099331
-3.2589524 3.3584466 0.35501665 0 0 0 0 56.104282
-3.3413117 3.2750487 0.4871228 0 0 0 0 56.109226
-3.1539941 3.4469774 0.080290474 0 0 0 0 56.114178
-3.2437267 3.3515573 0.22001837 0 0 0 0 56.119122
-3.3220549 3.2690852 0.35118783 0 0 0 0 56.124065
-3.3926058 3.1774213 0.48220554 0 0 0 0 56.129017
-3.2260547 3.3588665 0.075400427 0 0 0 0 56.133961
-3.3107688 3.2643218 0.21519953 0 0 0 0 56.138912
-3.3792739 3.1746073 0.34628591 0 0 0 0 56.143856
-3.4565794 3.0940573 0.47951096 0 0 0 0 56.1488
-3.2892823 3.263567 0.069415718 0 0 0 0 56.153751
-3.3729379 3.1719699 0.21029726 0 0 0 0 56.158695
-3.4491863 3.0934188 0.34258175 0 0 0 0 56.163647
-3.5156453 3.0066006 0.47575912 0 0 0 0 56.168591
-3.3525486 3.1672459 0.064399622 0 0 0 0 56.173542
-3.4390118 3.0837164 0.20545232 0 0 0 0 56.178486
-3.5053997 2.999896 0.33870438 0 0 0 0 56.18343
-3.5766513 2.9221687 0.47305873 0 0 0 0 56.188381
-3.4235864 3.0801446 0.05852928 0 0 0 0 56.193325
-3.4972634 2.9882734 0.20050237 0 0 0 0 56.198277
-3.5693946 2.9155674 0.33497277 0 0 0 0 56.20322
-3.6425619 2.8418605 0.4704062 0 0 0 0 56.208164
-0.29139608 0.24016038 0.050668843 0 0 0 0 56.232906
-0.30748856 0.24125087 0.062543213 0 0 0 0 56.23785
-0.31573066 0.23614749 0.074343093 0 0 0 0 56.242794
-0.32888377 0.23513976 0.087195456 0 0 0 0 56.247746
-0.29092908 0.21715134 0.05018327 0 0 0 0 56.27248
-0.3109715 0.22033973 0.06206888 0 0 0 0 56.277424
-0.32803944 0.22245456 0.073958568 0 0 0 0 56.282375
-0.32248309 0.20900942 0.085691534 0 0 0 0 56.287319
-0.29931372 0.20036161 0.049760357 0 0 0 0 56.312054
-0.32132044 0.20462476 0.060651846 0 0 0 0 56.317005
-0.33152434 0.20154397 0.07348188 0 0 0 0 56.321949
-0.31802422 0.18495248 0.08321739 0 0 0 0 56.326893
-0.30964988 0.18562104 0.049367186 0 0 0 0 56.351627
-0.33068165 0.18886051 0.060242575 0 0 0 0 56.356579
-0.33988637 0.18575478 0.073082127 0 0 0 0 56.361523
-0.32834795 0.17118523 0.08384826 0 0 0 0 56.366474
-0.34272233 0.18147266 0.048001189 0 0 0 0 56.391209
-0.34401813 0.17419596 0.059817422 0 0 0 0 56.396152
-0.34531403 0.16691914 0.071633577 0 0 0 0 56.401104
-0.34163651 0.1585184 0.083473735 0 0 0 0 56.406048
-0.36793187 0.17210551 0.047583967 0 0 0 0 56.430782
-0.37716204 0.16800036 0.060396925 0 0 0 0 56.435726
-0.36556184 0.15640174 0.072239175 0 0 0 0 56.440678
-0.36188495 0.14800039 0.084078908 0 0 0 0 56.445621
-0.44999558 0.17479849 0.060884897 0 0 0 0 56.475307
-0.45427403 0.16951801 0.075720683 0 0 0 0 56.480251
-0.40299973 0.14395347 0.086626716 0 0 0 0 56.485203
-0.45687234 0.17336217 0.045801997 0 0 0 0 56.490147
-0.44063979 0.14757335 0.06037366 0 0 0 0 56.514881
-0.42207912 0.13477285 0.073258892 0 0 0 0 56.519825
-0.42929709 0.13159107 0.087116353 0 0 0 0 56.524776
-0.42191431 0.13644801 0.044763763 0 0 0 0 56.279018
-0.39465824 0.11044381 0.05744949 0 0 0 0 56.303753
-0.39986432 0.10723957 0.070328638 0 0 0 0 56.308704
-0.39614725 0.10081403 0.083220072 0 0 0 0 56.313648
-0.40060747 0.10692798 0.044324473 0 0 0 0 56.318592
-0.3762542 0.0849934 0.057082012 0 0 0 0 56.343334
-0.39735684 0.086183384 0.069904469 0 0 0 0 56.348278
-0.3776741 0.077412046 0.080904163 0 0 0 0 56.353222
-0.37924004 0.080378756 0.044960171 0 0 0 0 56.358173
-0.36671555 0.064787582 0.05575243 0 0 0 0 56.382908
-0.36791345 0.061508529 0.067671157 0 0 0 0 56.387852
-0.35514444 0.055933449 0.077678688 0 0 0 0 56.392803
-0.37171152 0.060197707 0.044609711 0 0 0 0 56.397747
-0.3492167 0.043356881 0.055475056 0 0 0 0 56.422482
-0.36235082 0.042400502 0.066325717 0 0 0 0 56.427433
-0.35851577 0.04002117 0.077320315 0 0 0 0 56.432377
-0.35821158 0.038867146 0.044291817 0 0 0 0 56.437321
-0.3516137 0.026421169 0.055099767 0 0 0 0 56.462055
-0.37372023 0.026688846 0.065885857 0 0 0 0 56.467007
-0.36591169 0.023209708 0.076894455 0 0 0 0 56.471951
-0.36063355 0.020933017 0.043889988 0 0 0 0 56.476902
-0.35601145 0.0095356945 0.054702833 0 0 0 0 56.501637
-0.38515109 0.0089538312 0.066391937 0 0 0 0 56.50658
-0.37130979 0.0063489168 0.076486878 0 0 0 0 56.511532
-0.36206812 0.0029484539 0.044496071 0 0 0 0 56.516476
-0.36240989 -0.0072992854 0.054284114 0 0 0 0 56.54121
-0.38555205 -0.0080306474 0.066032797 0 0 0 0 56.546154
-0.38068306 -0.0094118183 0.076063365 0 0 0 0 56.551105
-0.38151172 -0.015558702 0.043894071 0 0 0 0 56.556049
-0.36083749 -0.025333671 0.053918079 0 0 0 0 56.580784
-0.39100224 -0.026888328 0.065569803 0 0 0 0 56.585735
-0.38510913 -0.027295867 0.075636342 0 0 0 0 56.590679
-0.39198503 -0.035289355 0.043354236 0 0 0 0 56.595631
-0.38031933 -0.044865038 0.054286454 0 0 0 0 56.620365
-0.39445475 -0.04579575 0.065125041 0 0 0 0 56.625309
-0.38753748 -0.045229763 0.075227685 0 0 0 0 56.630253
-0.40248486 -0.056018401 0.042786144 0 0 0 0 56.635204
-0.3958185 -0.065468945 0.053666987 0 0 0 0 56.659939
-0.4140026 -0.068297453 0.064412542 0 0 0 0 56.664883
-0.4090707 -0.066708259 0.075520717 0 0 0 0 56.669834
-0.42308247 -0.080492049 0.042010363 0 0 0 0 56.674778
-0.41539279 -0.088968657 0.052926224 0 0 0 0 56.699512
-0.43056422 -0.090898953 0.064727239 0 0 0 0 56.704464
-0.42260876 -0.0883867 0.07589189 0 0 0 0 56.709408
-0.44675589 -0.1078862 0.041122802 0 0 0 0 56.714359
-0.45014909 -0.11910913 0.052847039 0 0 0 0 56.739094
-0.45524976 -0.1182937 0.064827278 0 0 0 0 56.744038
-0.45026842 -0.11470702 0.075987794 0 0 0 0 56.748981
-0.46513796 -0.13621993 0.042958725 0 0 0 0 57.660938
-0.46552378 -0.14653111 0.0547272 0 0 0 0 57.685673
-0.47265419 -0.14667003 0.066657551 0 0 0 0 57.690617
-0.47370902 -0.14396895 0.07873299 0 0 0 0 57.695568
-0.47789901 -0.16587377 0.042087525 0 0 0 0 57.700512
-0.50149661 -0.18360074 0.054392822 0 0 0 0 57.725246
-0.50355124 -0.18087354 0.06645751 0 0 0 0 57.73019
-0.50055593 -0.17627959 0.078629687 0 0 0 0 57.735142
-4.2861509 -1.6360757 -0.053582843 0 0 0 0 57.740086
-4.3300109 -1.6229625 0.058317393 0 0 0 0 57.745037
-4.3726549 -1.6056086 0.16034187 0 0 0 0 57.749981
-4.4395137 -1.5937806 0.26794612 0 0 0 0 57.754925
-4.22366 -1.7307159 -0.052474614 0 0 0 0 57.759876
-4.2037601 -1.691151 0.055859517 0 0 0 0 57.76482
-4.2361813 -1.6669595 0.15418299 0 0 0 0 57.769772
-4.3322825 -1.665279 0.25818032 0 0 0 0 57.774715
-4.0498343 -1.7753003 -0.048754647 0 0 0 0 57.779667
-4.0975671 -1.7608427 0.054134116 0 0 0 0 57.784611
-4.1633449 -1.7507169 0.14969844 0 0 0 0 57.789555
-4.2583618 -1.7469835 0.2507613 0 0 0 0 57.794506
-3.8829296 -1.8167094 -0.045025345 0 0 0 0 57.79945
-3.9639709 -1.8152635 0.053132009 0 0 0 0 57.804401
-4.020566 -1.800245 0.14393052 0 0 0 0 57.809345
-4.1023645 -1.7906976 0.23929749 0 0 0 0 57.814289
-3.843492 -1.912753 -0.044220708 0 0 0 0 57.819241
-3.8586266 -1.8789425 0.051558848 0 0 0 0 57.824184
-3.9192019 -1.8647102 0.13828896 0 0 0 0 57.829136
-3.9614522 -1.837046 0.2285928 0 0 0 0 57.83408
-3.7594745 -1.9869791 -0.042321742 0 0 0 0 57.839031
-3.7724345 -1.9481188 0.049618486 0 0 0 0 57.843975
-3.8278999 -1.9309405 0.13348493 0 0 0 0 57.848919
-3.873142 -1.9041164 0.22073083 0 0 0 0 57.85387
-3.7240574 -2.0838938 -0.042592946 0 0 0 0 57.858814
-3.7339294 -2.0420895 0.048462305 0 0 0 0 57.863766
-3.7811668 -2.0170755 0.13063391 0 0 0 0 57.86871
-3.8070199 -1.9776293 0.21344101 0 0 0 0 57.873653
-3.6958368 -2.1876462 -0.042135205 0 0 0 0 57.878605
-3.7340007 -2.1570659 0.047293365 0 0 0 0 57.883549
-3.7486827 -2.1128066 0.12635641 0 0 0 0 57.8885
-3.7662809 -2.0645261 0.20749727 0 0 0 0 57.893444
-3.6818504 -2.3000219 -0.042078152 0 0 0 0 57.898388
-3.7117863 -2.2616065 0.045656312 0 0 0 0 57.903339
-3.7131624 -2.2066472 0.12316171 0 0 0 0 57.908283
-3.7550547 -2.1696954 0.20271775 0 0 0 0 57.913235
-3.6927438 -2.3720913 0.044817235 0 0 0 0 57.92313
-3.710207 -2.3206789 0.12104326 0 0 0 0 57.928074
-3.727618 -2.2672684 0.19732493 0 0 0 0 57.933018
-3.7256444 -2.3812203 0.19319202 0 0 0 0 57.952808
-3.227308 -3.3134089 -0.029131904 0 0 0 0 58.096272
-3.2796056 -3.2597728 0.035756394 0 0 0 0 58.101215
-3.2684898 -3.4030862 0.034882817 0 0 0 0 58.121006
-3.2701542 -3.2943916 0.086859941 0 0 0 0 58.12595
-3.2481 -3.3081663 0.1346399 0 0 0 0 57.839237
-1.7998211 -4.3423662 0.023948323 0 0 0 0 58.101429
-1.7962077 -4.3477855 0.036758568 0 0 0 0 58.126163
-1.7872243 -4.3449593 0.035851073 0 0 0 0 58.150898
-1.7862401 -4.3456683 0.025750596 0 0 0 0 58.175632
-0.36755136 -5.4459119 0.090988345 0 0 0 0 58.118046
-0.37111896 -5.4407053 0.050971631 0 0 0 0 58.14278
-0.37013653 -5.4582276 -0.0036253119 0 0 0 0 58.167515
-0.24052599 -5.3965974 -0.0045190821 0 0 0 0 58.187305
-0.37344146 -5.4533257 -0.068658896 0 0 0 0 58.192249
-0.24397996 -5.3986092 -0.072743274 0 0 0 0 58.21204
0.6271742 -5.3846292 0.1355269 0 0 0 0 58.276348
0.75717068 -5.417326 0.14205481 0 0 0 0 58.296139
0.62663674 -5.3906832 0.065233894 0 0 0 0 58.301083
0.89777732 -5.5013704 0.14928363 0 0 0 0 58.315929
0.7531724 -5.4051495 0.067225605 0 0 0 0 58.320873
0.63001168 -5.3675036 -0.016208878 0 0 0 0 58.325817
1.0230498 -5.486897 0.15506604 0 0 0 0 58.335712
0.89646035 -5.5031276 0.069096021 0 0 0 0 58.340664
0.75932616 -5.3919339 -0.018461794 0 0 0 0 58.345608
0.62927836 -5.3528996 -0.10894107 0 0 0 0 58.350559
1.1757944 -5.6023374 0.16356441 0 0 0 0 58.355503
1.0228332 -5.4865737 0.070948988 0 0 0 0 58.360447
0.90367007 -5.4898024 -0.021579085 0 0 0 0 58.365398
0.76202327 -5.400311 -0.1157935 0 0 0 0 58.370342
1.3445945 -5.752274 0.17328869 0 0 0 0 58.375294
1.1722348 -5.5797577 0.07402315 0 0 0 0 58.380238
1.032757 -5.4852386 -0.023027103 0 0 0 0 58.385181
0.9020673 -5.4739246 -0.12328959 0 0 0 0 58.390133
1.5059516 -5.844934 0.18151514 0 0 0 0 58.395077
1.3465487 -5.750649 0.076223493 0 0 0 0 58.400028
1.1814409 -5.5702376 -0.025736937 0 0 0 0 58.404972
1.0315117 -5.4572878 -0.12739684 0 0 0 0 58.409916
1.6706514 -5.9246926 0.19013852 0 0 0 0 58.414867
1.5045381 -5.8220525 0.078999355 0 0 0 0 58.419811
1.3577666 -5.7430167 -0.029570997 0 0 0 0 58.424763
1.183183 -5.5451994 -0.13615589 0 0 0 0 58.429707
1.8569096 -6.057127 0.20054568 0 0 0 0 58.434658
1.6702946 -5.901701 0.082635991 0 0 0 0 58.439602
1.5178776 -5.8123107 -0.032714296 0 0 0 0 58.444546
1.3659253 -5.7429299 -0.14861681 0 0 0 0 58.449497
2.0549574 -6.1969175 0.21188299 0 0 0 0 58.454441
1.8593355 -6.0450158 0.085767873 0 0 0 0 58.459393
1.6837834 -5.8887973 -0.034990396 0 0 0 0 58.464336
1.5206327 -5.7919378 -0.15625927 0 0 0 0 58.46928
2.2804217 -6.3945451 0.22492422 0 0 0 0 58.474232
2.0575812 -6.1805892 0.089220226 0 0 0 0 58.479176
1.86294 -5.9936213 -0.038904052 0 0 0 0 58.484127
1.6913759 -5.8773599 -0.16573149 0 0 0 0 58.489071
2.5086136 -6.5652299 0.23774473 0 0 0 0 58.494022
2.2833614 -6.3699756 0.093488738 0 0 0 0 58.498966
2.0743461 -6.1633568 -0.043256354 0 0 0 0 58.50391
1.8808975 -6.0082974 -0.1762574 0 0 0 0 58.508862
2.711246 -6.6351719 0.24907205 0 0 0 0 58.260517
2.5191114 -6.5477934 0.098186821 0 0 0 0 58.265469
2.3094018 -6.3680239 -0.047342844 0 0 0 0 58.270412
2.0866926 -6.149014 -0.18793356 0 0 0 0 58.275364
2.7257156 -6.6335373 0.10212108 0 0 0 0 58.285252
2.5382044 -6.5241899 -0.051103655 0 0 0 0 58.290203
2.3186169 -6.3420033 -0.20168017 0 0 0 0 58.295147
2.7526455 -6.6189518 -0.05433128 0 0 0 0 58.309986
2.5589945 -6.5182037 -0.21586822 0 0 0 0 58.314938
2.771795 -6.6026993 -0.22683343 0 0 0 0 58.334728
6.1177378 -10.100208 0.45375413 0 0 0 0 58.399036
4.7967157 -8.9639711 -0.36841854 0 0 0 0 58.413876
3.3917632 -5.3226962 0.27388427 0 0 0 0 58.418827
3.3207529 -5.4214263 0.11522943 0 0 0 0 58.423771
4.3925242 -7.7586827 -0.32063514 0 0 0 0 58.433666
3.4415739 -5.1419978 0.2744543 0 0 0 0 58.43861
3.362184 -5.2174964 0.11634767 0 0 0 0 58.443562
3.3176911 -5.3349099 -0.043523572 0 0 0 0 58.448505
3.5363443 -5.0356894 0.27948427 0 0 0 0 58.458401
3.4330852 -5.0704236 0.11823356 0 0 0 0 58.463345
3.3706195 -5.1493459 -0.040775057 0 0 0 0 58.468296
3.3317533 -5.2855663 -0.21311472 0 0 0 0 58.47324
3.9839048 -5.4128318 0.30614686 0 0 0 0 58.478191
3.5433676 -4.9834781 0.12090816 0 0 0 0 58.483135
3.4569685 -5.0236621 -0.040300529 0 0 0 0 58.488079
3.3847702 -5.097002 -0.21027444 0 0 0 0 58.493031
4.0626559 -5.2710209 0.30898646 0 0 0 0 58.497974
3.9111948 -5.2468433 0.12780669 0 0 0 0 58.502926
7.4044857 -10.252924 -0.14247051 0 0 0 0 58.50787
3.494293 -5.0029187 -0.21140778 0 0 0 0 58.512814
4.2110009 -5.2172737 0.31618598 0 0 0 0 58.517765
4.1030664 -5.2492166 0.13194321 0 0 0 0 58.522709
4.076591 -5.3745127 -0.04895914 0 0 0 0 58.52766
3.5517566 -4.8354807 -0.20908916 0 0 0 0 58.532604
4.3816028 -5.1902237 0.32590494 0 0 0 0 58.537548
4.2437601 -5.1841497 0.13537246 0 0 0 0 58.5425
4.1547279 -5.2196264 -0.047750317 0 0 0 0 58.547443
4.1697736 -5.4075365 -0.24793287 0 0 0 0 58.552395
4.5291939 -5.127471 0.33335805 0 0 0 0 58.557339
4.4747696 -5.2186332 0.14007546 0 0 0 0 58.56229
4.2946768 -5.1464548 -0.047099549 0 0 0 0 58.567234
4.2084184 -5.195631 -0.24358165 0 0 0 0 58.572178
12.888226 -13.963003 0.84171605 0 0 0 0 58.577129
8.489728 -9.4654179 0.21801069 0 0 0 0 58.582073
8.3802118 -9.5874691 -0.13987516 0 0 0 0 58.587025
4.3514442 -5.1214304 -0.24686323 0 0 0 0 58.591969
13.307545 -13.792104 0.86327583 0 0 0 0 58.596912
13.104896 -13.959105 0.30793425 0 0 0 0 58.601864
5.4046102 -5.8996329 -0.066308372 0 0 0 0 58.606808
5.2357707 -5.8744135 -0.30169338 0 0 0 0 58.611759
13.548016 -13.433974 0.87500715 0 0 0 0 58.616703
9.7529926 -9.9270306 0.24468249 0 0 0 0 58.621647
5.4320402 -5.6593986 -0.063278764 0 0 0 0 58.626598
5.3712087 -5.7470627 -0.30256981 0 0 0 0 58.631542
13.810978 -13.095469 0.88647157 0 0 0 0 58.636494
9.3942547 -9.1387854 0.23853137 0 0 0 0 58.641438
9.4424133 -9.3954382 -0.14530841 0 0 0 0 58.646389
9.2250547 -9.4182053 -0.54769963 0 0 0 0 58.651333
14.058043 -12.753541 0.89786607 0 0 0 0 58.656277
8.876317 -8.2480545 0.2294216 0 0 0 0 58.661228
8.902482 -8.4568357 -0.12731956 0 0 0 0 58.666172
14.290438 -12.400193 0.90842944 0 0 0 0 58.676067
14.171451 -12.587939 0.33646378 0 0 0 0 58.681011
9.0942135 -8.2440929 -0.12614284 0 0 0 0 58.685963
14.531829 -12.048074 0.91808373 0 0 0 0 58.695858
14.456211 -12.260908 0.34291634 0 0 0 0 58.700802
14.371614 -12.432717 -0.22320028 0 0 0 0 58.705753
9.4396534 -8.3503647 -0.52732986 0 0 0 0 58.710697
14.778764 -11.712201 0.93036729 0 0 0 0 58.715641
14.710622 -11.910058 0.34970367 0 0 0 0 58.720592
14.651766 -12.093445 -0.22044098 0 0 0 0 58.725536
15.658285 -11.884694 0.97531366 0 0 0 0 59.741016
14.29011 -11.069647 0.33911619 0 0 0 0 59.745968
14.93166 -11.773763 -0.22197746 0 0 0 0 59.750912
15.23234 -11.037551 0.94887233 0 0 0 0 59.760807
18.427999 -13.620409 0.42396614 0 0 0 0 59.765751
15.500188 -10.719583 0.96145153 0 0 0 0 59.780598
15.433354 -10.878275 0.36765736 0 0 0 0 59.785542
15.724914 -10.371331 0.97240996 0 0 0 0 59.800381
15.688147 -10.529753 0.37498903 0 0 0 0 59.805332
9.33183 -6.3605266 -0.099759258 0 0 0 0 59.810276
15.977318 -10.034913 0.98438102 0 0 0 0 59.820171
13.014803 -8.311058 0.32233813 0 0 0 0 59.825115
12.797767 -8.2878265 -0.15289228 0 0 0 0 59.830067
7.3649187 -4.8493571 -0.35160732 0 0 0 0 59.835011
17.753395 -10.608014 1.084384 0 0 0 0 59.839962
13.641551 -8.2835331 0.3378531 0 0 0 0 59.844906
6.8092489 -4.2523999 -0.31383604 0 0 0 0 59.854801
18.028593 -10.243367 1.0995035 0 0 0 0 59.859745
14.220973 -8.1975908 0.35151932 0 0 0 0 59.864697
6.5101981 -3.8543923 -0.29176047 0 0 0 0 59.874592
18.839752 -10.157005 1.1430576 0 0 0 0 59.879536
14.778261 -8.0810385 0.3658309 0 0 0 0 59.88448
19.119564 -9.7724686 1.1568626 0 0 0 0 59.899326
15.335361 -7.9364777 0.3799828 0 0 0 0 59.90427
19.6194 -9.4906559 1.1833787 0 0 0 0 59.919109
12.372619 -6.0532894 0.31901947 0 0 0 0 59.924061
10.468849 -5.1664004 -0.087484561 0 0 0 0 59.929005
7.5680962 -3.7787235 -0.32741666 0 0 0 0 59.933956
19.907707 -9.0903625 1.1967993 0 0 0 0 59.9389
13.262728 -6.1215444 0.34003741 0 0 0 0 59.943844
9.3781834 -4.3605599 -0.067095503 0 0 0 0 59.948795
7.4281821 -3.4880457 -0.31451079 0 0 0 0 59.953739
20.219627 -8.7028828 1.2141584 0 0 0 0 59.958691
13.927883 -6.0471849 0.35650492 0 0 0 0 59.963634
8.8894844 -3.8837638 -0.056988653 0 0 0 0 59.968578
20.280941 -8.2006874 1.2148278 0 0 0 0 59.978474
14.461249 -5.8949685 0.37066182 0 0 0 0 59.983425
8.4848852 -3.4753685 -0.047854926 0 0 0 0 59.988369
17.424288 -6.6055193 1.0496861 0 0 0 0 59.998264
14.980508 -5.7123094 0.38356242 0 0 0 0 60.003208
8.1240864 -3.1102183 -0.039450075 0 0 0 0 60.00816
17.693064 -6.2616649 1.0622817 0 0 0 0 60.018055
12.705276 -4.5193558 0.3357746 0 0 0 0 60.022999
7.8023434 -2.7791789 -0.03156358 0 0 0 0 60.027943
6.9302859 -2.4790545 -0.26657951 0 0 0 0 60.032894
15.680883 -5.1673303 0.94781351 0 0 0 0 60.037838
12.463791 -4.1152897 0.33183351 0 0 0 0 60.042789
10.173955 -3.3597782 -0.055330548 0 0 0 0 60.047733
7.0653772 -2.338901 -0.2676881 0 0 0 0 60.052677
16.0119 -4.8853931 0.96438128 0 0 0 0 60.057629
10.005712 -3.0569482 0.27979767 0 0 0 0 60.062572
9.9889345 -3.0416317 -0.049107678 0 0 0 0 60.067524
7.1728063 -2.1860139 -0.26675192 0 0 0 0 60.072468
14.468653 -4.0703249 0.87547719 0 0 0 0 60.077419
9.7934818 -2.7497442 0.27636185 0 0 0 0 60.082363
7.6306901 -2.1326001 -0.019298939 0 0 0 0 60.087307
7.3568249 -2.0502269 -0.26936525 0 0 0 0 60.092258
14.766277 -3.8033769 0.89021516 0 0 0 0 60.097202
9.3177013 -2.3907809 0.26719579 0 0 0 0 60.102154
8.0910721 -2.0578029 -0.021280501 0 0 0 0 60.107098
7.1027474 -1.7993942 -0.25298455 0 0 0 0 60.112041
15.108796 -3.5398333 0.9084298 0 0 0 0 60.116993
11.812971 -2.7443988 0.32482561 0 0 0 0 60.121937
7.6861715 -1.7673768 -0.013592882 0 0 0 0 60.126888
6.8443685 -1.5594258 -0.23697469 0 0 0 0 60.131832
15.427792 -3.2605629 0.92483747 0 0 0 0 60.136776
11.693709 -2.4399464 0.32350546 0 0 0 0 60.141727
7.7492619 -1.5912616 -0.011480517 0 0 0 0 60.146671
6.712882 -1.3619757 -0.22564781 0 0 0 0 60.151623
15.631917 -2.943764 0.9339475 0 0 0 0 60.156567
11.583215 -2.1437721 0.32305959 0 0 0 0 60.161518
6.5832152 -1.1715426 -0.2155018 0 0 0 0 60.171406
15.782507 -2.6113594 0.94087255 0 0 0 0 60.176357
11.447615 -1.8518336 0.32118466 0 0 0 0 60.181301
6.5021682 -0.99642557 -0.20820177 0 0 0 0 60.191196
15.879376 -2.2703099 0.94440126 0 0 0 0 60.19614
11.294921 -1.5633919 0.31900239 0 0 0 0 60.201092
6.413919 -0.82812577 -0.20018852 0 0 0 0 60.210987
15.326231 -1.8442018 0.91007793 0 0 0 0 59.922771
11.220927 -1.2925464 0.31743124 0 0 0 0 59.927715
6.3375549 -0.66315377 -0.19347453 0 0 0 0 59.937611
14.823584 -1.4520568 0.88059759 0 0 0 0 59.942554
11.041724 -1.0193807 0.31441605 0 0 0 0 59.947506
6.284019 -0.50481325 -0.18735927 0 0 0 0 59.957401
14.355115 -1.0889317 0.85268998 0 0 0 0 59.962345
10.880255 -0.7557472 0.31234729 0 0 0 0 59.967289
6.2213397 -0.35123676 -0.18049169 0 0 0 0 59.977184
13.94203 -0.7474702 0.82783496 0 0 0 0 59.982136
9.6746893 -0.45361868 0.28549519 0 0 0 0 59.98708
9.4173317 -0.36865455 -0.0022899003 0 0 0 0 59.992031
6.1516132 -0.19945447 -0.17375885 0 0 0 0 59.996975
13.467376 -0.42618278 0.80062604 0 0 0 0 60.001919
8.6685219 -0.20927753 0.26239207 0 0 0 0 60.00687
8.4554548 -0.13656288 0.0078077004 0 0 0 0 60.011814
6.1017532 -0.053212497 -0.16793911 0 0 0 0 60.016766
13.108133 -0.12535428 0.77924871 0 0 0 0 60.021709
7.8456774 0.056613535 0.01410535 0 0 0 0 60.031605
6.0418472 0.091321804 -0.16228911 0 0 0 0 60.036549
12.741394 0.15770814 0.75725752 0 0 0 0 60.0415
7.598578 0.23151591 0.018355338 0 0 0 0 60.051388
5.9598479 0.23343715 -0.15497883 0 0 0 0 60.056339
12.347195 0.42458215 0.73444992 0 0 0 0 60.061283
7.4754515 0.40290374 0.02204282 0 0 0 0 60.071178
5.9178433 0.37348917 -0.15022978 0 0 0 0 60.07613
11.988635 0.67841363 0.71270227 0 0 0 0 60.081074
7.4032626 0.57085282 0.025266008 0 0 0 0 60.090969
5.8567438 0.51103574 -0.14378621 0 0 0 0 60.095913
11.719781 0.92251432 0.69678766 0 0 0 0 60.100864
7.3460741 0.73837072 0.028669063 0 0 0 0 60.110752
5.7885103 0.64379156 -0.13756895 0 0 0 0 60.115704
11.452651 1.1565781 0.6806013 0 0 0 0 60.120647
11.403392 1.2864181 0.33571896 0 0 0 0 60.125599
7.3150063 0.90916383 0.031500794 0 0 0 0 60.130543
5.7614875 0.78241551 -0.13266015 0 0 0 0 60.135494
11.171207 1.3791 0.66289759 0 0 0 0 60.140438
11.059578 1.5013981 0.32902238 0 0 0 0 60.145382
7.3100605 1.0832309 0.03376212 0 0 0 0 60.150333
5.7183065 0.91550964 -0.12811191 0 0 0 0 60.155277
10.871311 1.5861408 0.64550716 0 0 0 0 60.160229
10.800846 1.7179236 0.32343563 0 0 0 0 60.165173
7.2869744 1.2527947 0.036671113 0 0 0 0 60.170116
5.6670942 1.0478085 -0.12268187 0 0 0 0 60.175068
10.620289 1.788716 0.63059759 0 0 0 0 60.180012
10.575952 1.9284482 0.31909716 0 0 0 0 60.184963
7.2669239 1.4232713 0.039652422 0 0 0 0 60.189907
5.6278653 1.1787916 -0.11813715 0 0 0 0 60.194851
10.409302 1.9921091 0.61721706 0 0 0 0 60.199802
7.2711387 1.6020734 0.042192232 0 0 0 0 60.209698
5.6128726 1.3171015 -0.11406614 0 0 0 0 60.214642
10.168821 2.1783707 0.602961 0 0 0 0 60.219593
7.2733502 1.7809036 0.045716405 0 0 0 0 60.229481
5.581737 1.4508518 -0.10932685 0 0 0 0 60.234432
9.9272041 2.3596764 0.5885461 0 0 0 0 60.239376
7.3575473 1.8634893 0.24245782 0 0 0 0 60.244328
7.287818 1.967437 0.047631435 0 0 0 0 60.249271
5.5486083 1.5846614 -0.10460536 0 0 0 0 60.254215
9.6852226 2.5280046 0.57374167 0 0 0 0 60.259167
7.3215666 2.0345168 0.24228273 0 0 0 0 60.264111
7.3032808 2.1539106 0.050566301 0 0 0 0 60.269062
5.508431 1.7166779 -0.10002044 0 0 0 0 60.274006
9.4360514 2.689554 0.55864698 0 0 0 0 60.278957
7.3389983 2.2189884 0.24318647 0 0 0 0 60.283901
7.4067988 2.3748758 0.053645376 0 0 0 0 60.288845
5.4834242 1.8542533 -0.095073685 0 0 0 0 60.293797
7.3354201 2.4030726 0.24382381 0 0 0 0 60.303692
7.3397017 2.542726 0.056006126 0 0 0 0 60.308636
5.4534101 1.9910063 -0.091209285 0 0 0 0 60.31358
9.0236359 3.0100577 0.53346664 0 0 0 0 60.318531
8.9327106 3.1542745 0.28557006 0 0 0 0 60.323475
7.4173074 2.7664425 0.058863677 0 0 0 0 60.328426
5.423389 2.1277306 -0.086339682 0 0 0 0 60.33337
8.8242044 3.1621263 0.52072054 0 0 0 0 60.338314
7.4285641 2.8143096 0.2476754 0 0 0 0 60.343266
7.4667225 2.9839497 0.062192753 0 0 0 0 60.348209
5.3873892 2.2646611 -0.082533978 0 0 0 0 60.353161
8.6579409 3.3201737 0.51057476 0 0 0 0 60.358105
7.4526029 3.0185843 0.24929291 0 0 0 0 60.363056
7.5174479 3.2114468 0.064848743 0 0 0 0 60.368
5.3391743 2.3948898 -0.077076823 0 0 0 0 60.372944
8.4693604 3.4669125 0.49881175 0 0 0 0 60.377895
7.5001011 3.2381713 0.2516754 0 0 0 0 60.382839
7.5267153 3.4240944 0.068548985 0 0 0 0 60.387791
5.301187 2.531882 -0.073283657 0 0 0 0 60.392735
8.2784452 3.6071417 0.48517731 0 0 0 0 60.143856
7.5721688 3.4812176 0.25256124 0 0 0 0 60.1488
7.7756 3.7631443 0.068447843 0 0 0 0 60.153744
7.9709253 3.6873863 0.46693403 0 0 0 0 60.163639
7.74687 3.7771473 0.25775963 0 0 0 0 60.168591
9.7820005 4.794538 0.55679405 0 0 0 0 60.18343
5.1681514 2.9407377 -0.060237281 0 0 0 0 60.198269
9.5414734 4.9427838 0.5424577 0 0 0 0 60.20322
5.1456146 3.0933068 -0.056799412 0 0 0 0 60.21806
9.3404093 5.1068625 0.53009003 0 0 0 0 60.223003
6.9298573 4.1898174 0.079455711 0 0 0 0 60.232899
5.1659946 3.2766566 -0.05289863 0 0 0 0 60.237843
9.1218567 5.25349 0.51598465 0 0 0 0 60.242794
5.1651058 3.4506254 -0.049536072 0 0 0 0 60.257633
8.8961411 5.3943367 0.50161874 0 0 0 0 60.262577
5.167511 3.6344981 -0.045827862 0 0 0 0 60.277424
8.7016802 5.5442219 0.48991814 0 0 0 0 60.282368
5.1802645 3.8300686 -0.041631099 0 0 0 0 60.297207
8.5062084 5.6931763 0.47717935 0 0 0 0 60.302158
8.2806149 5.8348632 0.27555579 0 0 0 0 60.307102
5.197382 4.0375414 -0.038014092 0 0 0 0 60.316998
8.3135862 5.8370261 0.46532643 0 0 0 0 60.321941
8.1134739 5.9977665 0.27159923 0 0 0 0 60.326893
5.2900825 4.1070733 0.086439297 0 0 0 0 60.331837
5.2496123 4.2820468 -0.034836125 0 0 0 0 60.336788
8.1198111 5.9749494 0.45228329 0 0 0 0 60.341732
7.9115663 6.1346641 0.26742968 0 0 0 0 60.346676
5.3074398 4.3215938 0.088285767 0 0 0 0 60.351627
5.3505125 4.5822163 -0.032364324 0 0 0 0 60.356571
7.921886 6.1079726 0.44004375 0 0 0 0 60.361523
5.3815527 4.5954814 0.0916394 0 0 0 0 60.371418
5.6759481 5.1002011 -0.033513229 0 0 0 0 60.376362
7.7146668 6.2303081 0.42636743 0 0 0 0 60.381306
5.4663782 4.8930821 0.094854139 0 0 0 0 60.391201
5.8369346 5.5037174 -0.031140544 0 0 0 0 60.396152
7.5247498 6.3631153 0.41422597 0 0 0 0 60.401096
5.6298823 5.0179415 0.20788234 0 0 0 0 60.40604
5.7915282 5.4369054 0.099516109 0 0 0 0 60.410992
7.3284945 6.4841185 0.40165144 0 0 0 0 60.420887
5.8006454 5.4141006 0.21217152 0 0 0 0 60.425831
6.158051 6.0605607 0.10513378 0 0 0 0 60.430782
7.1394153 6.6109195 0.38934356 0 0 0 0 60.44067
5.9412823 5.8061066 0.21697734 0 0 0 0 60.445621
6.0566583 5.8610792 0.33632699 0 0 0 0 60.460461
6.6880717 6.8456879 0.23597611 0 0 0 0 60.465405
6.340302 6.421958 0.34506327 0 0 0 0 60.480251
7.6100893 8.8424721 0.38906863 0 0 0 0 60.539616
5.5483427 7.2461233 0.11972382 0 0 0 0 60.549503
7.3740683 8.9687405 0.3742106 0 0 0 0 60.559399
7.1630425 9.1283112 0.35967869 0 0 0 0 60.579189
3.9433591 6.0428762 0.042481445 0 0 0 0 60.594028
6.9694524 9.3023767 0.34581029 0 0 0 0 60.59898
3.984062 6.4358206 0.047130313 0 0 0 0 60.613819
6.7546759 9.4609938 0.3271018 0 0 0 0 60.366932
4.1686516 6.6446238 0.11303364 0 0 0 0 60.376827
6.5384846 9.6156826 0.3123484 0 0 0 0 60.386723
4.3685656 6.8622346 0.17029516 0 0 0 0 60.391674
4.5775681 7.6923757 0.12191906 0 0 0 0 60.396618
4.6692286 7.2088208 0.23471767 0 0 0 0 60.406513
4.5124803 7.4674182 0.17355572 0 0 0 0 60.411457
4.470674 7.9315205 0.12403253 0 0 0 0 60.416409
4.5223336 7.341413 0.22410554 0 0 0 0 60.426296
2.359972 6.161808 0.089277595 0 0 0 0 60.52029
2.4989338 6.3672433 0.11141002 0 0 0 0 60.535137
2.6409779 6.5699811 0.12050171 0 0 0 0 60.549976
2.81075 6.7959876 0.12765637 0 0 0 0 60.564816
2.4186084 6.2433224 0.11216921 0 0 0 0 60.584606
0.97840238 9.0798759 0.16984493 0 0 0 0 60.737957
1.0874269 9.2241917 0.12480119 0 0 0 0 60.752804
0.73930478 8.7705574 0.17062642 0 0 0 0 60.757748
0.83590674 8.8653393 0.12090831 0 0 0 0 60.772587
0.51636153 8.4667692 0.1717644 0 0 0 0 60.777538
0.6087898 8.5878315 0.11778896 0 0 0 0 60.792377
0.30782136 8.1765928 0.17248355 0 0 0 0 60.797321
0.39350817 8.3049812 0.1146408 0 0 0 0 60.812168
0.11318456 7.9170408 0.1732989 0 0 0 0 60.817112
0.47692439 8.3839025 0.040253885 0 0 0 0 60.827007
0.1932067 8.0216951 0.11165406 0 0 0 0 60.831951
-0.068192922 7.6661339 0.17353237 0 0 0 0 60.836903
0.27320212 8.1218758 0.032516211 0 0 0 0 60.730053
0.0066529792 7.7650466 0.10735189 0 0 0 0 60.734997
-0.24097925 7.4349961 0.17223355 0 0 0 0 60.739941
0.080994569 7.8734579 0.026722623 0 0 0 0 60.749836
-0.16839342 7.5230622 0.10396218 0 0 0 0 60.754787
-0.40126008 7.2204847 0.17286018 0 0 0 0 60.759731
0.17051747 7.8817005 -0.065768428 0 0 0 0 60.764675
-0.098210111 7.5916324 0.021061582 0 0 0 0 60.769627
-0.33381021 7.3027987 0.10134386 0 0 0 0 60.77457
-0.55314392 7.0197301 0.17400114 0 0 0 0 60.779522
-0.011943797 7.6911569 -0.074693151 0 0 0 0 60.784466
-0.26822266 7.3836317 0.014754049 0 0 0 0 60.789417
-0.48812467 7.0862117 0.098966636 0 0 0 0 60.794361
-0.6954394 6.804728 0.17381695 0 0 0 0 60.799305
-0.18522289 7.4733191 -0.083345778 0 0 0 0 60.804256
-0.42740923 7.1702857 0.0094094612 0 0 0 0 60.8092
-0.63677984 6.8915243 0.095317177 0 0 0 0 60.814152
-0.83352947 6.6306362 0.17392401 0 0 0 0 60.819096
-0.35064557 7.2512231 -0.09104073 0 0 0 0 60.824039
-0.57679886 6.950624 0.0049850503 0 0 0 0 60.828991
-0.77540255 6.698514 0.092836224 0 0 0 0 60.833935
-0.96463072 6.4563422 0.17410384 0 0 0 0 60.838886
-0.50402492 7.0307765 -0.09854418 0 0 0 0 60.84383
-0.72196931 6.7719035 -0.0001465838 0 0 0 0 60.848774
-0.90859532 6.5203466 0.090867765 0 0 0 0 60.853725
-1.0875249 6.2888398 0.1735857 0 0 0 0 60.858669
-0.65176952 6.8321676 -0.1053198 0 0 0 0 60.863621
-0.85657734 6.5788445 -0.0045921416 0 0 0 0 60.868565
-1.0331403 6.3299589 0.087624788 0 0 0 0 60.873516
-1.2062521 6.1272178 0.17329128 0 0 0 0 60.87846
-0.7911315 6.6463461 -0.11260858 0 0 0 0 60.883404
-0.9876526 6.4037161 -0.0094547868 0 0 0 0 60.888355
-1.1583093 6.1865935 0.085803851 0 0 0 0 60.893299
-1.3180779 5.9623952 0.1729777 0 0 0 0 60.898251
-0.92425221 6.4693131 -0.11855824 0 0 0 0 60.903194
-1.1097529 6.2282944 -0.013221144 0 0 0 0 60.908138
-1.2749015 6.0289774 0.083647162 0 0 0 0 60.91309
-1.4273523 5.8165002 0.17326789 0 0 0 0 60.918034
-1.052164 6.2991605 -0.12524103 0 0 0 0 60.922985
-1.2273195 6.0707726 -0.017390754 0 0 0 0 60.927929
-1.3826689 5.8651342 0.080402754 0 0 0 0 60.932873
-1.535208 5.684598 0.17299667 0 0 0 0 60.937824
-1.1738502 6.1368279 -0.13161391 0 0 0 0 60.942768
-1.3427926 5.9162245 -0.022452036 0 0 0 0 60.94772
-1.4925276 5.732357 0.078076251 0 0 0 0 60.952663
-1.6334873 5.5384145 0.17240186 0 0 0 0 60.957615
-1.2896054 5.9723229 -0.13798684 0 0 0 0 60.962559
-1.4519341 5.7734604 -0.026078435 0 0 0 0 60.967503
-1.5947796 5.5863571 0.075433098 0 0 0 0 60.972454
-1.7322413 5.4102483 0.17234631 0 0 0 0 60.977398
-1.4000748 5.8176646 -0.14399862 0 0 0 0 60.982349
-1.5580407 5.6316414 -0.030645719 0 0 0 0 60.987293
-1.6900545 5.4401221 0.073864497 0 0 0 0 60.992237
-1.8279303 5.2840261 0.17138188 0 0 0 0 60.997189
-1.5045078 5.6647997 -0.14888608 0 0 0 0 61.002132
-1.6562886 5.4855604 -0.034250796 0 0 0 0 61.007084
-1.788687 5.315053 0.070894681 0 0 0 0 61.012028
-1.9176408 5.1575971 0.17148116 0 0 0 0 61.016979
-1.6076983 5.5199323 -0.15452063 0 0 0 0 61.021923
-1.7550266 5.3565292 -0.038346175 0 0 0 0 61.026867
-1.8803711 5.1887488 0.068969451 0 0 0 0 61.031818
-2.006196 5.0361686 0.17074136 0 0 0 0 61.036762
-1.7121117 5.4011364 -0.16037661 0 0 0 0 61.041714
-1.8489207 5.2223573 -0.042545162 0 0 0 0 61.046658
-1.96345 5.04919 0.066739194 0 0 0 0 61.051601
-2.0879085 4.9095387 0.16992241 0 0 0 0 61.056553
-1.8052895 5.2569776 -0.16587655 0 0 0 0 61.061497
-1.9358665 5.0869493 -0.045699827 0 0 0 0 61.066448
-2.0509861 4.9277997 0.064003445 0 0 0 0 61.071392
-2.1693006 4.7939019 0.16943946 0 0 0 0 61.076336
-1.8960892 5.1257515 -0.17095491 0 0 0 0 61.081287
-2.0253592 4.9666524 -0.049429387 0 0 0 0 61.086231
-2.1324415 4.8092308 0.061426234 0 0 0 0 61.091183
-2.2496257 4.6802673 0.16802487 0 0 0 0 61.096127
-1.9856875 5.0014925 -0.17581022 0 0 0 0 61.101078
-2.1098893 4.8452101 -0.053137232 0 0 0 0 61.106022
-2.2213938 4.7078896 0.059277318 0 0 0 0 61.110966
-2.332552 4.5806828 0.16800465 0 0 0 0 61.115917
-2.0742323 4.8792057 -0.18059832 0 0 0 0 61.120861
-2.1913371 4.7266784 -0.056722313 0 0 0 0 61.125813
-2.3025029 4.601316 0.057061952 0 0 0 0 61.130756
-2.4115014 4.4800134 0.16699566 0 0 0 0 61.1357
-2.1567426 4.7577724 -0.18628962 0 0 0 0 61.140652
-2.2782984 4.6243477 -0.060885191 0 0 0 0 61.145596
-2.3853648 4.5028305 0.054067168 0 0 0 0 61.150547
-2.4828024 4.3671489 0.16470185 0 0 0 0 61.155491
-2.2456899 4.6555362 -0.19147725 0 0 0 0 61.160442
-2.3565197 4.5137258 -0.064197116 0 0 0 0 61.165386
-2.4567556 4.3869715 0.051677693 0 0 0 0 61.17033
-2.5548534 4.263278 0.16367093 0 0 0 0 61.175282
-2.3212862 4.5318708 -0.19616126 0 0 0 0 61.180225
-2.4307942 4.4010201 -0.068529442 0 0 0 0 61.185177
-2.5346122 4.2893105 0.049761601 0 0 0 0 61.190121
-2.6315494 4.1715498 0.1629499 0 0 0 0 61.195065
-2.4000628 4.4294686 -0.19876023 0 0 0 0 61.607891
-2.5143054 4.3107166 -0.069894589 0 0 0 0 61.612843
-2.6054909 4.1895771 0.049192254 0 0 0 0 61.617786
-2.6994429 4.0746489 0.16443409 0 0 0 0 61.622738
-2.4772553 4.3209243 -0.20407589 0 0 0 0 61.627682
-2.5825639 4.2008348 -0.07313776 0 0 0 0 61.632633
-2.6784315 4.0908055 0.04723347 0 0 0 0 61.637577
-2.7732189 3.9818709 0.16364944 0 0 0 0 61.642521
-2.5561793 4.2214355 -0.20913547 0 0 0 0 61.647472
-2.6527522 4.0930467 -0.077347338 0 0 0 0 61.652416
-2.7531505 3.9991236 0.044468146 0 0 0 0 61.657368
-2.8419714 3.8899417 0.16295235 0 0 0 0 61.662312
-2.6293228 4.1147738 -0.21435089 0 0 0 0 61.667255
-2.7332733 4.0075774 -0.080995902 0 0 0 0 61.672207
-2.8239665 3.904325 0.041650526 0 0 0 0 61.677151
-2.9097455 3.7970173 0.16123074 0 0 0 0 61.682102
-2.7079828 4.0242839 -0.21913525 0 0 0 0 61.687046
-2.8031673 3.9097862 -0.084898189 0 0 0 0 61.69199
-2.8889239 3.8053179 0.039772559 0 0 0 0 61.696941
-2.9794445 3.7071228 0.16057436 0 0 0 0 61.701885
-2.777046 3.9205031 -0.22421783 0 0 0 0 61.706837
-2.8740046 3.8140273 -0.088754505 0 0 0 0 61.711781
-2.9634292 3.7206705 0.03621481 0 0 0 0 61.716732
-3.044137 3.6171093 0.15897457 0 0 0 0 61.721676
-2.8460224 3.8197227 -0.22921051 0 0 0 0 61.72662
-2.9437854 3.7202387 -0.092540249 0 0 0 0 61.731571
-3.0272911 3.6246672 0.033434458 0 0 0 0 61.736515
-3.1107414 3.5301573 0.1574409 0 0 0 0 61.741467
-2.9187582 3.7270606 -0.23400217 0 0 0 0 61.74641
-3.0087249 3.621304 -0.09643016 0 0 0 0 61.751354
-3.0949726 3.5347838 0.030791508 0 0 0 0 61.756306
-3.1754415 3.4401495 0.15583059 0 0 0 0 61.76125
-2.989486 3.6343722 -0.23977424 0 0 0 0 61.766201
-3.0763936 3.5314562 -0.10007442 0 0 0 0 61.771145
-3.1606896 3.4438431 0.028135799 0 0 0 0 61.776096
-3.240993 3.3551705 0.15436289 0 0 0 0 61.78104
-3.0582926 3.5395954 -0.24459194 0 0 0 0 61.785984
-3.1449916 3.4436717 -0.10467163 0 0 0 0 61.790936
-3.2233815 3.353812 0.025543639 0 0 0 0 61.795879
-3.3007643 3.2630167 0.15273957 0 0 0 0 61.800831
-3.1279371 3.4498796 -0.25026655 0 0 0 0 61.805775
-3.2107601 3.3507717 -0.10839807 0 0 0 0 61.810719
-3.2879851 3.2668424 0.023017889 0 0 0 0 61.81567
-3.3662322 3.1810403 0.15135784 0 0 0 0 61.820614
-3.1956172 3.3591063 -0.25595397 0 0 0 0 61.825565
-3.2735035 3.2587807 -0.11206091 0 0 0 0 61.830509
-3.3497024 3.1758187 0.019396143 0 0 0 0 61.835453
-3.4268582 3.0939176 0.14987233 0 0 0 0 61.840405
-3.2575004 3.2621255 -0.26076612 0 0 0 0 61.845348
-3.331315 3.1646404 -0.11573169 0 0 0 0 61.8503
-3.4133139 3.0888238 0.016872399 0 0 0 0 61.855244
-3.4806747 3.0005875 0.14827529 0 0 0 0 61.860195
-4.0335798 2.1778374 -0.33055481 0 0 0 0 61.825603
-4.0993371 2.0850587 -0.33732098 0 0 0 0 61.845394
-4.174294 2.0211949 -0.17823595 0 0 0 0 61.850338
-4.227119 1.9569999 -0.029874491 0 0 0 0 61.855282
-4.1739273 1.9975882 -0.34504229 0 0 0 0 61.865177
-4.2351184 1.927201 -0.18298203 0 0 0 0 61.870129
-4.2453117 -1.5914025 -0.42058274 0 0 0 0 62.268017
-4.2659974 -1.5892639 -0.28171685 0 0 0 0 62.272968
-4.1347256 -1.6660978 -0.41152182 0 0 0 0 62.287807
-4.150238 -1.6599942 -0.27646083 0 0 0 0 62.292759
-4.1724653 -1.6502247 -0.1553809 0 0 0 0 62.297703
-4.221045 -1.6506944 -0.032986324 0 0 0 0 62.302647
-4.0118408 -1.7311845 -0.40198582 0 0 0 0 62.307598
-4.0596266 -1.7358752 -0.27371329 0 0 0 0 62.312542
-4.0949793 -1.7315655 -0.15698969 0 0 0 0 62.317493
-4.1616645 -1.7363708 -0.037982553 0 0 0 0 62.322437
-3.8604448 -1.7792385 -0.38951343 0 0 0 0 62.327381
-3.9121621 -1.783645 -0.26628837 0 0 0 0 62.332333
-3.9372816 -1.7735291 -0.15324125 0 0 0 0 62.337276
-4.0262151 -1.7884408 -0.040865991 0 0 0 0 62.342228
-3.7626169 -1.8464845 -0.38238814 0 0 0 0 62.347172
-3.8152812 -1.8507329 -0.26317391 0 0 0 0 62.352123
-3.8717191 -1.8524711 -0.15593733 0 0 0 0 62.357067
-3.8784032 -1.8289058 -0.043206543 0 0 0 0 62.362011
-3.7185311 -1.9388808 -0.38180843 0 0 0 0 62.366962
-3.7080989 -1.9081495 -0.25960827 0 0 0 0 62.371906
-3.7523184 -1.9041758 -0.15502374 0 0 0 0 62.376858
-3.8452029 -1.9197694 -0.048730284 0 0 0 0 62.381802
-3.7038882 -2.0462537 -0.38511759 0 0 0 0 62.386745
-3.6740646 -2.0031364 -0.26225334 0 0 0 0 62.391697
-3.7181787 -1.9961351 -0.15857075 0 0 0 0 62.396641
-3.7703779 -1.9909455 -0.053055398 0 0 0 0 62.401592
-3.6862962 -2.154753 -0.38742706 0 0 0 0 62.406536
-3.6919093 -2.1264243 -0.26852375 0 0 0 0 62.41148
-3.6982698 -2.0956144 -0.16355859 0 0 0 0 62.416431
-3.7341557 -2.0809076 -0.058514889 0 0 0 0 62.421375
-3.6473927 -2.2529578 -0.38811755 0 0 0 0 62.426327
-3.6426573 -2.2139258 -0.26972729 0 0 0 0 62.431271
-3.6601717 -2.1887009 -0.16709554 0 0 0 0 62.436222
-3.717299 -2.1822603 -0.064610042 0 0 0 0 62.441166
-3.6146009 -2.3549385 -0.39001766 0 0 0 0 62.44611
-3.6495354 -2.3385262 -0.27690205 0 0 0 0 62.451061
-3.663835 -2.3064051 -0.1740032 0 0 0 0 62.456005
-3.6934192 -2.2828352 -0.070588633 0 0 0 0 62.460957
-3.6685309 -2.38341 -0.077558145 0 0 0 0 62.48074
-3.19348 -3.2506282 -0.39528891 0 0 0 0 62.771671
-3.1930299 -3.3227062 -0.30266169 0 0 0 0 62.796406
-3.2193499 -3.2675426 -0.2201785 0 0 0 0 62.80135
-3.2193108 -3.3280168 -0.14519021 0 0 0 0 62.826084
-1.6882464 -4.3325429 -0.33316341 0 0 0 0 63.108067
-1.7936726 -4.3603735 -0.2985481 0 0 0 0 63.11301
-1.7542099 -4.3306437 -0.26607966 0 0 0 0 63.137745
-1.7323413 -4.3221478 -0.24529681 0 0 0 0 63.657108
-0.36999658 -5.4290466 -0.3151994 0 0 0 0 63.859936
-0.23928796 -5.3716793 -0.30245134 0 0 0 0 63.879726
-0.35775104 -5.4512 -0.3228837 0 0 0 0 63.88467
-0.22741435 -5.3766527 -0.31455642 0 0 0 0 63.904461
-0.33707404 -5.4360833 -0.34518957 0 0 0 0 63.909405
-0.20706962 -5.3733897 -0.34126961 0 0 0 0 63.929195
-0.32124922 -5.4204597 -0.37755328 0 0 0 0 63.934139
-0.19390319 -5.3795419 -0.37841314 0 0 0 0 63.95393
0.62703222 -5.3358498 -0.24928807 0 0 0 0 64.018234
0.75760835 -5.376348 -0.24486038 0 0 0 0 64.038025
0.6355437 -5.3018017 -0.28711346 0 0 0 0 64.042984
0.54045069 -5.3857288 -0.34640893 0 0 0 0 64.047928
0.89198321 -5.4229779 -0.24058712 0 0 0 0 64.057816
0.77195483 -5.3802876 -0.28990501 0 0 0 0 64.062759
0.65312231 -5.2715683 -0.33894643 0 0 0 0 64.067719
0.55349302 -5.3440971 -0.40492511 0 0 0 0 64.072662
1.0259475 -5.4516015 -0.23570243 0 0 0 0 64.077606
0.91045976 -5.4558482 -0.29256707 0 0 0 0 64.08255
0.79015863 -5.3638682 -0.34820613 0 0 0 0 64.087494
0.66756862 -5.249846 -0.40212181 0 0 0 0 64.092453
1.1694396 -5.5255113 -0.23323181 0 0 0 0 64.097397
1.0386206 -5.4491787 -0.28955808 0 0 0 0 64.102341
0.93498874 -5.4624338 -0.35756975 0 0 0 0 64.107285
0.80970031 -5.3721085 -0.41833994 0 0 0 0 64.112228
1.3531803 -5.7342219 -0.23574843 0 0 0 0 63.820141
1.1918595 -5.550808 -0.29288182 0 0 0 0 63.825092
1.0648214 -5.4533482 -0.35744759 0 0 0 0 63.830036
0.95463324 -5.4552321 -0.43115169 0 0 0 0 63.834988
