# .PCD v0.7 - Point Cloud Data file format
VERSION 0.7
FIELDS x y z normal_x normal_y normal_z intensity curvature
SIZE 4 4 4 4 4 4 4 4
TYPE F F F F F F F F
COUNT 1 1 1 1 1 1 1 1
WIDTH 976
HEIGHT 1
VIEWPOINT 0 0 0 1 0 0 0
POINTS 976
DATA ascii
15.484222 -1.9263158 1.8748802 0 0 0 0 10.152498
15.490971 -2.0477598 1.5150499 0 0 0 0 10.157446
15.520346 -2.1429038 1.1613247 0 0 0 0 10.162392
15.534698 -2.2312541 0.79649901 0 0 0 0 10.167339
14.635183 -1.4944053 1.7820786 0 0 0 0 10.172285
15.361313 -1.6805482 1.506724 0 0 0 0 10.177233
15.521624 -1.7740077 1.1617959 0 0 0 0 10.18218
15.546951 -1.8572268 0.7900303 0 0 0 0 10.187126
15.569314 -1.2444296 1.9093977 0 0 0 0 10.192074
19.833492 -1.7189988 1.9609793 0 0 0 0 10.197021
19.460117 -1.7694814 1.4647325 0 0 0 0 10.201967
14.714323 -1.4000314 0.74130738 0 0 0 0 10.206915
15.490889 -0.89855134 1.9114125 0 0 0 0 10.211863
19.837677 -1.2670906 1.9693362 0 0 0 0 10.216808
19.51137 -1.3199769 1.4673814 0 0 0 0 10.221756
19.414082 -1.3809185 0.98283243 0 0 0 0 10.226704
15.533505 -0.5621081 1.9291774 0 0 0 0 10.231649
15.542928 -0.64555174 1.5413147 0 0 0 0 10.236597
15.568804 -0.69176644 1.1655055 0 0 0 0 10.241545
15.573726 -0.7352668 0.77556491 0 0 0 0 10.24649
15.551125 -0.22398843 1.9437881 0 0 0 0 10.251438
15.569377 -0.29232353 1.5519599 0 0 0 0 10.256386
15.586198 -0.33066377 1.1680853 0 0 0 0 10.261332
15.613013 -0.36388958 0.77426469 0 0 0 0 10.266279
15.557695 0.11799174 1.9593267 0 0 0 0 10.271227
15.581904 0.056722406 1.5595256 0 0 0 0 10.276173
15.606549 0.033479035 1.1726794 0 0 0 0 10.28112
15.623254 0.012116021 0.77178222 0 0 0 0 10.286066
17.970779 0.52700448 2.2853866 0 0 0 0 10.291014
15.608349 0.4109509 1.5711695 0 0 0 0 10.295961
15.612903 0.39844197 1.1761875 0 0 0 0 10.300907
15.647544 0.38430107 0.77038991 0 0 0 0 10.305855
17.987635 0.9241026 2.3059034 0 0 0 0 10.310802
18.02107 0.88084465 1.8301299 0 0 0 0 10.315748
18.023922 0.87721831 1.3671213 0 0 0 0 10.320696
18.064756 0.88006073 0.89333439 0 0 0 0 10.325644
18.002562 1.3171729 2.3244138 0 0 0 0 10.330589
18.047796 1.2920594 1.8436884 0 0 0 0 10.335537
18.067533 1.2996421 1.3757678 0 0 0 0 10.340485
18.095251 1.315308 0.89388496 0 0 0 0 10.34543
18.014446 1.7132069 2.344902 0 0 0 0 10.350378
18.052563 1.7009933 1.856117 0 0 0 0 10.355326
18.078112 1.7256445 1.3832099 0 0 0 0 10.360271
18.123722 1.7535278 0.89341956 0 0 0 0 10.365219
18.030251 2.1152935 2.3674066 0 0 0 0 10.370167
18.063293 2.1130042 1.8695781 0 0 0 0 10.375113
18.097698 2.1517608 1.3907065 0 0 0 0 10.38006
18.139109 2.1975853 0.895868 0 0 0 0 10.385008
18.245607 2.542944 2.4150839 0 0 0 0 10.389954
18.265497 2.5574741 1.9061542 0 0 0 0 10.394901
18.308821 2.6083281 1.4153206 0 0 0 0 10.399847
18.3521 2.670161 0.90847242 0 0 0 0 10.404795
18.255308 2.9539526 2.4385397 0 0 0 0 10.409742
18.288094 2.9806364 1.9216721 0 0 0 0 10.414688
18.35714 3.0548139 1.4279637 0 0 0 0 10.419636
18.379316 3.1283693 0.9129734 0 0 0 0 10.424583
18.278978 3.3671405 2.4640768 0 0 0 0 10.429529
18.322525 3.4149554 1.9422475 0 0 0 0 10.434477
18.349596 3.4925854 1.4362816 0 0 0 0 10.439425
18.398563 3.5854738 0.91542792 0 0 0 0 10.44437
18.291645 3.782186 2.4875457 0 0 0 0 10.449318
18.338024 3.8460298 1.9597129 0 0 0 0 10.454266
18.374851 3.9447796 1.4497789 0 0 0 0 10.459211
18.424713 4.0496693 0.92091525 0 0 0 0 10.464159
18.082005 4.1543827 2.4837322 0 0 0 0 10.469107
18.155165 4.2355671 1.9560386 0 0 0 0 10.474052
18.195799 4.3493667 1.4461088 0 0 0 0 10.479
18.188576 4.4615331 0.91489339 0 0 0 0 10.483948
17.466085 4.4153686 2.4216218 0 0 0 0 10.488894
17.525995 4.5104032 1.9058321 0 0 0 0 10.493841
17.557505 4.6291022 1.4058424 0 0 0 0 10.498789
17.557064 4.7533722 0.88565385 0 0 0 0 10.503735
17.46192 4.8192062 2.4440098 0 0 0 0 10.508682
17.528612 4.9333229 1.9242365 0 0 0 0 10.51363
17.564926 5.0700774 1.4192529 0 0 0 0 10.518576
17.583258 5.2145791 0.89415133 0 0 0 0 10.523523
17.469551 5.2372026 2.4724512 0 0 0 0 10.528469
17.544111 5.3654079 1.9447069 0 0 0 0 10.533417
17.581202 5.5221672 1.4347026 0 0 0 0 10.538364
18.492502 5.9739971 0.95056051 0 0 0 0 10.54331
18.377764 5.9517374 2.6309116 0 0 0 0 10.548258
18.413399 6.0914016 2.0659177 0 0 0 0 10.553205
18.450365 6.2731166 1.5238793 0 0 0 0 10.558151
18.510191 6.4760928 0.96095049 0 0 0 0 10.563099
18.387026 6.3997498 2.6613202 0 0 0 0 10.568047
18.428373 6.5644813 2.0913286 0 0 0 0 10.572992
18.449295 6.7539825 1.5401845 0 0 0 0 10.57794
14.980431 5.6482062 0.77881962 0 0 0 0 10.582888
18.417698 6.8561177 2.6925135 0 0 0 0 11.124338
18.457804 7.0398226 2.1144865 0 0 0 0 11.129286
14.921015 5.8590236 1.2534302 0 0 0 0 11.134233
18.542789 7.495327 0.9813509 0 0 0 0 11.139179
18.436771 7.3282552 2.7289534 0 0 0 0 11.144127
18.314648 7.4609232 2.12305 0 0 0 0 11.149075
18.309187 7.6810951 1.5637147 0 0 0 0 11.15402
18.38032 7.9451842 0.9827674 0 0 0 0 11.158968
18.215239 7.7033772 2.7281215 0 0 0 0 11.163916
18.274862 7.928319 2.1451564 0 0 0 0 11.168861
18.344751 8.2014236 1.587191 0 0 0 0 11.173809
18.394766 8.4792414 0.99710435 0 0 0 0 11.178757
18.247173 8.1876764 2.7656226 0 0 0 0 11.183702
18.294569 8.4344597 2.1755593 0 0 0 0 11.18865
18.364265 8.726553 1.6105689 0 0 0 0 11.193598
18.414944 9.0343742 1.0144486 0 0 0 0 11.198544
18.275965 8.6829405 2.8060918 0 0 0 0 11.203491
18.334051 8.9578495 2.2100551 0 0 0 0 11.208439
18.376623 9.2645969 1.6348897 0 0 0 0 11.213385
18.399223 9.5830622 1.0295942 0 0 0 0 11.218332
18.280647 9.1879091 2.8464103 0 0 0 0 11.223278
18.366337 9.4971542 2.24649 0 0 0 0 11.228226
18.122652 9.6753387 1.6378342 0 0 0 0 11.233173
17.635624 9.729496 1.0019313 0 0 0 0 11.238119
18.095724 9.593504 2.8547602 0 0 0 0 11.243067
17.649012 9.6361189 2.1891046 0 0 0 0 11.248014
18.459429 10.412417 1.6957781 0 0 0 0 11.25296
16.728436 9.7631693 0.96759218 0 0 0 0 11.257908
17.223051 9.6175079 2.7536287 0 0 0 0 11.262856
16.799028 9.6734419 2.1130919 0 0 0 0 11.267801
16.351707 9.7301569 1.5224224 0 0 0 0 11.272749
16.060974 9.8968163 0.94551843 0 0 0 0 11.277697
16.41824 9.6483746 2.6628897 0 0 0 0 11.282642
16.000154 9.6994123 2.0433974 0 0 0 0 11.28759
16.026926 10.048041 1.5180939 0 0 0 0 11.292538
16.067362 10.437802 0.96381742 0 0 0 0 11.297483
15.940269 9.8353271 2.6208441 0 0 0 0 11.302431
15.99405 10.193259 2.0746837 0 0 0 0 11.307379
16.050198 10.593249 1.5494851 0 0 0 0 11.312325
16.099312 11.013108 0.987221 0 0 0 0 11.317272
15.951056 10.333396 2.6642227 0 0 0 0 11.32222
16.016485 10.722466 2.1130905 0 0 0 0 11.327166
16.057468 11.14026 1.5787827 0 0 0 0 11.332113
16.132977 11.612438 1.0116049 0 0 0 0 11.337059
15.984435 10.862749 2.7136924 0 0 0 0 11.342007
16.035606 11.276637 2.1554475 0 0 0 0 11.346954
16.08622 11.727545 1.6151538 0 0 0 0 11.3519
16.124634 12.212256 1.0377481 0 0 0 0 11.356848
15.988892 11.387747 2.7610021 0 0 0 0 11.361795
15.877335 11.709605 2.1739402 0 0 0 0 11.366741
15.674043 11.999371 1.6073943 0 0 0 0 11.371689
16.18449 12.876917 1.0682014 0 0 0 0 11.376637
16.017973 11.943049 2.8114154 0 0 0 0 11.381582
15.653605 12.102763 2.1831105 0 0 0 0 11.38653
15.716389 12.619831 1.6478052 0 0 0 0 11.391478
16.219172 13.556273 1.100493 0 0 0 0 11.396423
16.038864 12.513259 2.864764 0 0 0 0 11.401371
15.709908 12.722407 2.2346025 0 0 0 0 11.406319
15.743524 13.258108 1.6891077 0 0 0 0 11.411264
14.314926 12.556723 0.99380201 0 0 0 0 11.416212
16.080296 13.119726 2.924185 0 0 0 0 11.42116
15.748099 13.351832 2.286979 0 0 0 0 11.426105
15.773356 13.921421 1.7323946 0 0 0 0 11.431053
14.745426 13.569972 1.0549479 0 0 0 0 11.436001
16.101566 13.73995 2.9844747 0 0 0 0 11.440947
16.165609 14.342969 2.3970687 0 0 0 0 11.445894
14.347004 13.268723 1.612018 0 0 0 0 11.450842
13.641622 13.170318 1.0041035 0 0 0 0 11.455788
16.147306 14.401484 3.0518527 0 0 0 0 11.460735
15.84219 14.714915 2.4027047 0 0 0 0 11.465681
13.880939 13.452919 1.600086 0 0 0 0 11.470629
13.391788 13.571198 1.0191386 0 0 0 0 11.475576
15.751054 14.686516 3.0381835 0 0 0 0 11.480522
15.465431 15.036208 2.4011042 0 0 0 0 11.48547
13.269309 14.104651 1.0437368 0 0 0 0 11.495363
13.901971 15.508414 1.1355463 0 0 0 0 11.515152
13.273829 15.535651 1.121904 0 0 0 0 11.534941
12.661862 15.548098 1.1093795 0 0 0 0 11.554728
12.817873 15.692679 1.7090595 0 0 0 0 11.569569
12.068761 15.56979 1.1009581 0 0 0 0 11.574516
12.775145 15.593762 2.2509146 0 0 0 0 11.58441
11.678982 14.9936 1.6054446 0 0 0 0 11.589357
11.093526 15.039783 1.0520661 0 0 0 0 11.594303
11.116953 14.995173 1.5847114 0 0 0 0 11.34094
9.2308779 13.176111 0.91214448 0 0 0 0 11.345888
10.579327 14.984475 1.5626153 0 0 0 0 11.360729
8.4559517 12.703479 0.87127399 0 0 0 0 11.365677
11.209088 14.935465 2.6112766 0 0 0 0 11.370623
10.621195 14.942536 2.0488908 0 0 0 0 11.37557
8.719986 12.987258 1.3334254 0 0 0 0 11.380516
8.1045294 12.827127 0.87509614 0 0 0 0 11.385464
10.676851 14.906799 2.5602374 0 0 0 0 11.390411
10.172484 15.020944 2.0282013 0 0 0 0 11.395357
8.2313433 12.896178 1.3077291 0 0 0 0 11.400305
9.3841677 15.659095 1.0708874 0 0 0 0 11.405252
10.203899 14.931884 2.5204768 0 0 0 0 11.410198
9.6749315 15.008744 1.9973507 0 0 0 0 11.415146
9.2642212 15.281146 1.5396603 0 0 0 0 11.420094
7.651413 13.494554 0.91565931 0 0 0 0 11.425039
9.7478924 14.961186 2.4818137 0 0 0 0 11.429987
9.2892857 15.158957 1.9889441 0 0 0 0 11.434935
7.6439767 14.25851 0.96666282 0 0 0 0 11.444828
9.3252487 15.03792 2.4542882 0 0 0 0 11.449776
7.7800522 15.382269 1.0430399 0 0 0 0 11.464617
8.2443542 16.029585 1.5728781 0 0 0 0 11.479458
7.5073271 15.769945 1.0710012 0 0 0 0 11.484404
8.3114328 15.912896 2.0103979 0 0 0 0 11.494297
7.0729384 15.811607 1.0734751 0 0 0 0 11.504192
8.3699312 15.757112 2.4579163 0 0 0 0 11.509138
6.6347218 15.838232 1.0779517 0 0 0 0 11.523979
6.2104735 15.868034 1.0815089 0 0 0 0 11.543768
4.8088059 13.204575 0.89685708 0 0 0 0 11.563557
5.3867435 15.944971 1.0937586 0 0 0 0 11.583344
4.4504566 14.291336 0.98051202 0 0 0 0 11.603132
3.9894512 13.977681 0.96430826 0 0 0 0 11.622919
2.893275 13.771347 0.96844047 0 0 0 0 11.682283
4.7245774 16.000179 2.2280064 0 0 0 0 11.687231
3.4293768 15.384503 1.4394888 0 0 0 0 11.697124
2.8526275 15.358104 1.0922858 0 0 0 0 11.702072
3.5981045 15.353915 1.7584879 0 0 0 0 11.711966
3.0488381 15.358885 1.4364033 0 0 0 0 11.716913
2.4853454 15.387673 1.1032114 0 0 0 0 11.721861
3.218821 15.312298 1.7444296 0 0 0 0 11.731754
2.6760895 15.349373 1.4363467 0 0 0 0 11.7367
2.1075096 15.380121 1.1141284 0 0 0 0 11.741648
3.4188743 15.335097 2.0705376 0 0 0 0 11.746595
2.8539135 15.319872 1.7363963 0 0 0 0 11.751541
2.3130584 15.36199 1.439322 0 0 0 0 11.756489
1.742451 15.390732 1.1260992 0 0 0 0 11.761436
3.0494914 15.305597 2.0485251 0 0 0 0 11.766382
2.4968264 15.34155 1.7303944 0 0 0 0 11.77133
1.9444411 15.34154 1.4393114 0 0 0 0 11.776278
1.3836271 15.462437 1.1440349 0 0 0 0 11.781223
2.6936889 15.309275 2.0305524 0 0 0 0 11.786171
2.1367884 15.358202 1.7263867 0 0 0 0 11.791119
1.589956 15.390282 1.4462996 0 0 0 0 11.796064
2.3394971 15.323327 2.0142972 0 0 0 0 11.547506
1.7741501 15.32509 1.7160984 0 0 0 0 11.552452
1.23527 15.515249 1.4628202 0 0 0 0 11.5574
0.68609238 16.296362 1.234759 0 0 0 0 11.562347
1.984612 15.33199 2.0003028 0 0 0 0 11.567293
1.4273981 15.397883 1.7180756 0 0 0 0 11.572241
0.92610765 16.407679 1.5530074 0 0 0 0 11.577188
0.29846892 16.190668 1.2427337 0 0 0 0 11.582134
1.6346002 15.35072 1.9873282 0 0 0 0 11.587082
0.53634393 16.238932 1.5440476 0 0 0 0 11.596975
1.2878488 15.426514 1.9833066 0 0 0 0 11.606871
0.24420303 16.153015 2.0396383 0 0 0 0 11.666233
-1.4995009 16.271749 1.8088452 0 0 0 0 11.730545
-3.1963708 16.438942 1.4472239 0 0 0 0 11.760227
-1.6189209 16.241587 2.0043004 0 0 0 0 11.765175
-3.2996008 16.380037 1.6708256 0 0 0 0 11.794855
-4.2386146 15.818528 1.4703546 0 0 0 0 11.819592
-3.4381032 16.367649 1.8431754 0 0 0 0 11.829485
-4.5958467 15.675303 1.4866078 0 0 0 0 11.839378
-4.3368607 15.775661 1.6609769 0 0 0 0 11.854219
-4.9950252 15.687612 1.5174425 0 0 0 0 11.859167
-4.7025084 15.670336 1.6701416 0 0 0 0 11.874008
-5.4032974 15.706823 1.5502235 0 0 0 0 11.878956
-4.4458513 15.656585 1.7896341 0 0 0 0 11.888849
-5.1077771 15.693572 1.6939342 0 0 0 0 11.893795
-5.8318758 15.748809 1.5888695 0 0 0 0 11.898743
-4.2132492 15.807574 1.9247897 0 0 0 0 11.90369
-4.8293948 15.627055 1.7966115 0 0 0 0 11.908636
-5.5097728 15.69485 1.7157769 0 0 0 0 11.913584
-6.3202467 15.934118 1.6420151 0 0 0 0 11.918531
-4.5599456 15.636438 1.9041439 0 0 0 0 11.923477
-5.2398033 15.665229 1.8133628 0 0 0 0 11.928425
-5.9765296 15.8344 1.7570983 0 0 0 0 11.933372
-6.7596049 15.957993 1.6806352 0 0 0 0 11.938318
-4.9589729 15.649729 1.9059886 0 0 0 0 11.943266
-5.6549239 15.679354 1.8301227 0 0 0 0 11.948214
-6.4336319 15.922063 1.7925423 0 0 0 0 11.953159
-7.1739244 15.89716 1.7145027 0 0 0 0 11.958107
-5.3650513 15.665946 1.9107959 0 0 0 0 11.963055
-6.1545854 15.895525 1.8701751 0 0 0 0 11.968
-6.8829722 15.947816 1.8241106 0 0 0 0 11.972948
-7.2338004 15.084391 1.6642469 0 0 0 0 11.977896
-5.7912564 15.690937 1.9194869 0 0 0 0 11.982841
-6.5958414 15.919361 1.8907906 0 0 0 0 11.987789
-7.2386613 15.762646 1.8314579 0 0 0 0 11.992737
-7.4084663 14.57332 1.6459911 0 0 0 0 11.997683
-6.2980113 15.919024 1.9514923 0 0 0 0 12.00263
-7.0421205 15.945147 1.9113817 0 0 0 0 12.007578
-7.2534742 14.871375 1.7555457 0 0 0 0 12.012524
-7.4003859 13.764356 1.5911055 0 0 0 0 12.017471
-6.7403727 15.937102 1.9614583 0 0 0 0 12.106838
-7.243813 15.427004 1.8663429 0 0 0 0 12.111786
-7.3610067 14.251348 1.7091511 0 0 0 0 12.116734
-7.3137307 12.879594 1.5260971 0 0 0 0 12.121679
-7.1617074 15.892181 1.96329 0 0 0 0 12.126627
-7.2856345 14.617417 1.7871817 0 0 0 0 12.131575
-7.2907243 13.349079 1.6277155 0 0 0 0 12.13652
-7.3370304 12.258292 1.4878081 0 0 0 0 12.141468
-7.2409158 15.120141 1.8728786 0 0 0 0 12.146416
-7.3092079 13.851476 1.7109473 0 0 0 0 12.151361
-7.3269606 12.705036 1.5772353 0 0 0 0 12.156309
-7.3652749 11.685379 1.455259 0 0 0 0 12.161257
-7.2646794 14.296166 1.7787257 0 0 0 0 12.166203
-7.3200517 13.119276 1.6388422 0 0 0 0 12.17115
-7.3585443 12.107635 1.5308552 0 0 0 0 12.176098
-7.420258 11.19574 1.4306211 0 0 0 0 12.181044
-7.2831821 13.540858 1.6936055 0 0 0 0 12.185991
-7.3439617 12.471942 1.5765636 0 0 0 0 12.190937
-7.3926201 11.549213 1.4884145 0 0 0 0 12.195885
-7.4349103 10.679565 1.4012371 0 0 0 0 12.200832
-7.3238316 12.876313 1.6202549 0 0 0 0 12.205778
-7.3572717 11.85574 1.5183058 0 0 0 0 12.210726
-7.4190874 11.021888 1.4489784 0 0 0 0 12.215673
-7.4448419 10.185452 1.3738524 0 0 0 0 12.220619
-7.3397198 12.231059 1.5470172 0 0 0 0 12.225567
-7.4118686 11.342077 1.4726987 0 0 0 0 12.230515
-7.4398985 10.521634 1.412541 0 0 0 0 12.23546
-7.4633322 9.7362452 1.3503667 0 0 0 0 12.240408
-7.360209 11.631767 1.4826992 0 0 0 0 12.245356
-7.4435077 10.831684 1.4262137 0 0 0 0 12.250301
-7.4488502 10.032521 1.3761551 0 0 0 0 12.255249
-7.4760542 9.3061094 1.3268899 0 0 0 0 12.260197
-7.385375 11.086432 1.4242909 0 0 0 0 12.265142
-7.4500666 10.313585 1.3798754 0 0 0 0 12.27009
-7.4663415 9.586318 1.3446711 0 0 0 0 12.275038
-7.4981675 8.9058723 1.3093257 0 0 0 0 12.279984
-7.4262786 10.599926 1.3727263 0 0 0 0 12.284931
-7.4631882 9.8404179 1.3384471 0 0 0 0 12.289879
-7.4800515 9.1571627 1.3151872 0 0 0 0 12.294825
-7.5124831 8.522728 1.2907838 0 0 0 0 12.299772
-7.4339333 10.091808 1.3203692 0 0 0 0 12.304718
-7.4746575 9.3952761 1.2989944 0 0 0 0 12.309666
-7.497148 8.758975 1.2886477 0 0 0 0 12.314613
-7.5239511 8.1506205 1.275244 0 0 0 0 12.319559
-7.4552598 9.6375408 1.2738732 0 0 0 0 12.324507
-7.4914436 8.9740791 1.2644838 0 0 0 0 12.329454
-7.5144911 8.3807859 1.2630827 0 0 0 0 12.3344
-7.5427642 7.8074312 1.2596296 0 0 0 0 12.339348
-7.4727879 9.1983232 1.2303797 0 0 0 0 12.344296
-7.5126271 8.5848379 1.232911 0 0 0 0 12.349241
-7.5340624 8.0195789 1.2414855 0 0 0 0 12.354189
-7.5547004 7.4733248 1.2460417 0 0 0 0 12.359137
-7.4876385 8.7851419 1.1888696 0 0 0 0 12.364082
-7.5269122 8.2036791 1.2013662 0 0 0 0 12.36903
-7.5488329 7.6744294 1.2208952 0 0 0 0 12.373978
-7.5748687 7.1571279 1.2353876 0 0 0 0 12.378923
-7.5047989 8.3959398 1.1513184 0 0 0 0 12.383871
-7.5414829 7.8445225 1.1737934 0 0 0 0 12.388819
-7.5668364 7.3482461 1.2012645 0 0 0 0 12.393764
-7.5901947 6.8539886 1.2247441 0 0 0 0 12.398712
-7.5191121 8.0177774 1.1167694 0 0 0 0 12.40366
-7.5542293 7.4993901 1.1472137 0 0 0 0 12.408606
-7.5687785 7.0162492 1.181728 0 0 0 0 12.413553
-7.5894828 6.5480332 1.2121911 0 0 0 0 12.418501
-7.5316706 7.6596375 1.0832059 0 0 0 0 12.423447
-7.5651097 7.1642828 1.122632 0 0 0 0 12.428394
-7.5820565 6.7111268 1.1650978 0 0 0 0 12.43334
-7.6101041 6.2678385 1.2044914 0 0 0 0 12.438288
-7.5464621 7.3194771 1.0526087 0 0 0 0 12.443235
-7.5812631 6.8511186 1.0999956 0 0 0 0 12.448181
-7.5853477 6.4071188 1.1475202 0 0 0 0 12.453129
-7.62079 5.9927597 1.1968395 0 0 0 0 12.458076
-7.5613985 6.9903183 1.0239978 0 0 0 0 12.463022
-7.5925217 6.5460138 1.0783761 0 0 0 0 12.46797
-7.5968976 6.1230221 1.1338741 0 0 0 0 12.472918
-7.6265225 5.7217379 1.1882094 0 0 0 0 12.477863
-7.5735106 6.6751957 0.99638522 0 0 0 0 12.482811
-7.5917697 6.2390494 1.0578235 0 0 0 0 12.487759
-7.6166553 5.8558326 1.1211632 0 0 0 0 12.492704
-7.6424961 5.4696021 1.1825013 0 0 0 0 12.497652
-7.581697 6.3651209 0.97078776 0 0 0 0 12.5026
-7.6013064 5.9559684 1.0381868 0 0 0 0 12.507545
-7.6253891 5.5857725 1.1095154 0 0 0 0 12.512493
-7.6524982 5.2195363 1.1768231 0 0 0 0 12.517441
-7.5941215 6.0740013 0.94714469 0 0 0 0 12.522387
-7.6230483 5.6877542 1.0234663 0 0 0 0 12.527334
-7.6423421 5.3336201 1.0988019 0 0 0 0 12.532282
-7.6565409 4.9725399 1.1711732 0 0 0 0 12.537228
-7.6086888 5.7938609 0.92547709 0 0 0 0 12.542175
-7.6368489 5.4246316 1.0077827 0 0 0 0 12.547121
-7.6502829 5.0795727 1.0891392 0 0 0 0 12.552069
-7.6798391 4.745327 1.1693959 0 0 0 0 12.557016
-7.608212 5.5098925 0.90289485 0 0 0 0 12.561962
-7.6376386 5.1606574 0.99117011 0 0 0 0 12.56691
-7.6593561 4.8365135 1.0794572 0 0 0 0 12.571857
-7.6910863 4.5142517 1.165688 0 0 0 0 12.576803
-7.6172891 5.2466197 0.88618267 0 0 0 0 13.063713
-7.6530256 4.9153295 0.98040354 0 0 0 0 13.068661
-7.6679521 4.6022711 1.0717119 0 0 0 0 13.073608
-7.6838236 4.2842021 1.1630211 0 0 0 0 13.078554
-7.6312261 4.9894981 0.86848933 0 0 0 0 13.083502
-7.6581111 4.6693134 0.96674353 0 0 0 0 13.088449
-7.6762128 4.3682289 1.0650214 0 0 0 0 13.093395
-7.6402473 4.7394328 0.85081333 0 0 0 0 13.103291
-7.6652913 4.4302769 0.95506436 0 0 0 0 13.108236
-0.42533603 0.20843899 0.032791927 0 0 0 0 13.118132
-7.655385 4.4983015 0.83509487 0 0 0 0 13.123077
-0.41225109 0.20557883 0.024887884 0 0 0 0 13.132973
-0.42102224 0.18349132 0.031908788 0 0 0 0 13.157707
-0.42531815 0.21842401 0.013853674 0 0 0 0 13.162655
-0.42415497 0.20144418 0.019887745 0 0 0 0 13.167601
-0.42705289 0.18942024 0.026894933 0 0 0 0 13.172548
-0.42275909 0.162477 0.0319895 0 0 0 0 13.197283
-0.4169552 0.18952024 0.011996071 0 0 0 0 13.20223
-0.42486417 0.17844014 0.018976154 0 0 0 0 13.207176
-0.43480062 0.16933867 0.026943451 0 0 0 0 13.212124
-0.44258934 0.14826408 0.034968603 0 0 0 0 13.236858
-0.43072534 0.17137127 0.012011082 0 0 0 0 13.241806
-0.44066188 0.16226998 0.019978486 0 0 0 0 13.246754
-0.45160356 0.15315872 0.028940737 0 0 0 0 13.251699
-0.44633272 0.12722906 0.036039207 0 0 0 0 13.276436
-0.44952336 0.15516795 0.012998166 0 0 0 0 13.281382
-0.47753003 0.15086882 0.023866829 0 0 0 0 13.286329
-0.45735809 0.13310148 0.029999951 0 0 0 0 13.291275
-0.38987365 0.092853472 0.027435644 0 0 0 0 13.316011
-0.47232169 0.13892075 0.013965109 0 0 0 0 13.320957
-0.43307421 0.11536318 0.018202983 0 0 0 0 13.325905
-0.40489295 0.097682297 0.022376902 0 0 0 0 13.330853
-0.37160528 0.072059311 0.025618505 0 0 0 0 13.355587
-0.40078071 0.096713275 0.0064477124 0 0 0 0 13.360535
-0.39870745 0.086746253 0.014478141 0 0 0 0 13.36548
-0.39362934 0.076811478 0.021523964 0 0 0 0 13.370428
-0.36838627 0.055098411 0.024719214 0 0 0 0 13.395163
-0.39150119 0.074818879 0.0045855911 0 0 0 0 13.40011
-0.37439674 0.063016422 0.010695164 0 0 0 0 13.405058
-0.38437238 0.056916751 0.019659268 0 0 0 0 13.410004
-0.37118882 0.039073002 0.025787922 0 0 0 0 13.434738
-0.37122345 0.053046271 0.0027793455 0 0 0 0 13.439686
-0.38319895 0.046924554 0.01173334 0 0 0 0 13.444633
-0.38014832 0.038968351 0.019766336 0 0 0 0 13.449579
-0.37599698 0.023026681 0.027846467 0 0 0 0 13.474316
-0.37701029 0.035986654 0.0028340546 0 0 0 0 13.479261
-0.37195987 0.028052542 0.010877184 0 0 0 0 13.484209
-0.37993574 0.021975402 0.019851692 0 0 0 0 13.489157
-0.37179622 0.0070778397 0.027950851 0 0 0 0 13.513891
-0.37178245 0.01804789 0.0019459797 0 0 0 0 13.518839
-0.38175228 0.01094997 0.011911599 0 0 0 0 13.523785
-0.38072887 0.0049725357 0.020931907 0 0 0 0 13.528732
-0.3727732 -0.0079654083 0.028584735 0 0 0 0 13.281637
-0.3787249 -6.2443607e-05 0.0025525158 0 0 0 0 13.286585
-0.37471288 -0.0050062193 0.01158717 0 0 0 0 13.291533
-0.37768918 -0.011028192 0.020586979 0 0 0 0 13.296478
-0.37456501 -0.024979662 0.029659731 0 0 0 0 13.321215
-0.36851868 -0.015944984 0.0016880898 0 0 0 0 13.32616
-0.37749973 -0.022032723 0.011657068 0 0 0 0 13.331108
-0.3754876 -0.02699892 0.020681379 0 0 0 0 13.336056
-0.38636702 -0.042102974 0.032683406 0 0 0 0 13.36079
-0.37628865 -0.035025977 0.0027346895 0 0 0 0 13.365738
-0.37527645 -0.040003359 0.011753842 0 0 0 0 13.370684
-0.3912673 -0.046166539 0.023687044 0 0 0 0 13.375631
-0.37916166 -0.058019154 0.031803407 0 0 0 0 13.400366
-0.37306613 -0.052985542 0.0028365075 0 0 0 0 13.405313
-0.38106358 -0.058060724 0.013809578 0 0 0 0 13.410259
-0.38705605 -0.063114792 0.023792917 0 0 0 0 13.415207
-0.3769668 -0.073988833 0.032897629 0 0 0 0 13.439941
-0.37983763 -0.072055034 0.0038883674 0 0 0 0 13.444889
-0.38084161 -0.076053582 0.013896058 0 0 0 0 13.449837
-0.38285059 -0.080062062 0.024898631 0 0 0 0 13.454782
-0.37376159 -0.090947449 0.033998076 0 0 0 0 13.479519
-0.37761652 -0.090025745 0.0039849738 0 0 0 0 13.484465
-0.37363192 -0.092968956 0.014016903 0 0 0 0 13.489412
-0.37962952 -0.098021671 0.025000341 0 0 0 0 13.494358
-0.36358559 -0.10483009 0.034130346 0 0 0 0 13.519094
-0.3664138 -0.10589827 0.0031247889 0 0 0 0 13.52404
-0.37341642 -0.11096082 0.015103185 0 0 0 0 13.528988
-0.37642533 -0.11498033 0.02610071 0 0 0 0 13.533936
-0.39329928 -0.13214605 0.04107523 0 0 0 0 13.55867
-0.39309081 -0.13518427 0.007087409 0 0 0 0 13.563618
-0.40109852 -0.14025651 0.020060843 0 0 0 0 13.568563
-0.40211859 -0.14325389 0.031067356 0 0 0 0 13.573511
-0.39505672 -0.15315829 0.043155167 0 0 0 0 13.598246
-0.40180421 -0.16027337 0.0091367867 0 0 0 0 13.603193
-0.40084055 -0.1622476 0.021152187 0 0 0 0 13.608139
-0.40785927 -0.16630872 0.034129579 0 0 0 0 13.613087
-0.39383718 -0.17213756 0.045247812 0 0 0 0 13.637821
-0.39755845 -0.18122049 0.010247053 0 0 0 0 13.642769
-0.40258834 -0.18425955 0.023233384 0 0 0 0 13.647717
-0.39864168 -0.18420212 0.034261491 0 0 0 0 13.652664
-0.42444864 -0.20946039 0.053200997 0 0 0 0 13.677399
-0.41617921 -0.21541728 0.013257122 0 0 0 0 13.682346
-0.41922522 -0.21743318 0.027252367 0 0 0 0 13.68729
-0.42526001 -0.22048192 0.041233748 0 0 0 0 13.692238
-0.42220894 -0.23042807 0.055301283 0 0 0 0 13.716972
-0.40992445 -0.23734231 0.01437858 0 0 0 0 13.72192
-0.41695324 -0.24140075 0.029356183 0 0 0 0 13.726868
-0.41901606 -0.24140692 0.042354096 0 0 0 0 13.731815
-0.43000317 -0.26054445 0.059957501 0 0 0 0 13.510221
-0.40178472 -0.25928572 0.015107311 0 0 0 0 13.515169
-0.42869514 -0.27556187 0.032997347 0 0 0 0 13.520117
-0.43970719 -0.28166384 0.048956648 0 0 0 0 13.525063
-5.3406196 -3.7423615 0.60403347 0 0 0 0 13.534958
-5.351799 -3.7252364 0.79797465 0 0 0 0 13.539904
-5.4305077 -3.751858 0.99362302 0 0 0 0 13.544851
-5.5151668 -3.7885308 1.2012529 0 0 0 0 13.549797
-5.1966162 -3.8327289 0.60093015 0 0 0 0 13.554745
-5.2455797 -3.8370178 0.79870403 0 0 0 0 13.559692
-5.2845817 -3.8332081 0.9865191 0 0 0 0 13.564638
-5.2967615 -3.8131013 1.1744517 0 0 0 0 13.569586
-5.0923271 -3.9525304 0.60465747 0 0 0 0 13.574533
-5.1274695 -3.9386706 0.79848057 0 0 0 0 13.579479
-5.1546001 -3.9207351 0.98133957 0 0 0 0 13.584427
-5.198597 -3.9199736 1.1751331 0 0 0 0 13.589375
-6.0710864 -4.9551568 0.74691081 0 0 0 0 13.59432
-5.0401244 -4.0646591 0.80412775 0 0 0 0 13.599268
-5.0772476 -4.047833 0.98793745 0 0 0 0 13.604216
-5.0974684 -4.0238152 1.1758246 0 0 0 0 13.609161
-5.4139147 -4.5806551 0.88788921 0 0 0 0 13.619057
-6.0967565 -5.0365019 1.4419969 0 0 0 0 13.62895
-5.2371678 -4.6466708 0.8809194 0 0 0 0 13.638844
-4.9918156 -4.5727115 1.0431497 0 0 0 0 13.663578
-4.728085 -4.5348029 1.0124936 0 0 0 0 13.683369
-4.5447321 -4.5617647 0.99850428 0 0 0 0 13.703156
-4.1579165 -4.5469723 0.60745656 0 0 0 0 13.713051
-4.3653908 -4.5877743 0.98449141 0 0 0 0 13.722942
-4.1417918 -4.6505179 0.80172527 0 0 0 0 13.737785
-4.1643877 -4.5805545 0.96554691 0 0 0 0 13.742729
-4.0356774 -4.6461129 0.96332085 0 0 0 0 13.76252
-4.1611733 -4.6902466 1.1557575 0 0 0 0 13.767467
-3.9129071 -4.7177382 0.96207035 0 0 0 0 13.782307
-3.5677786 -4.6027441 1.0777806 0 0 0 0 13.826832
-3.4106672 -4.607018 1.0616188 0 0 0 0 13.846619
-3.272367 -4.6314936 1.0513844 0 0 0 0 13.866405
-3.1449451 -4.6690865 1.0451093 0 0 0 0 13.886192
-3.021529 -4.7067242 1.0398126 0 0 0 0 13.905983
-2.8853285 -4.72223 1.0295525 0 0 0 0 13.92577
-2.3613927 -4.590095 0.55700803 0 0 0 0 13.930717
-2.7757316 -4.7790179 1.0292059 0 0 0 0 13.945557
-2.2948694 -4.7413383 0.57555264 0 0 0 0 13.950504
-2.3389723 -4.6066504 0.70319235 0 0 0 0 13.955452
-2.3262992 -4.6443019 0.83839679 0 0 0 0 14.001484
-2.339165 -4.7262449 0.98348057 0 0 0 0 14.026218
-0.54985982 -4.6903257 0.59361029 0 0 0 0 14.248833
-0.56454134 -4.6783509 0.69956505 0 0 0 0 14.273567
-0.57576728 -4.7043524 0.79557967 0 0 0 0 14.298302
-0.58713377 -4.7143621 0.88557559 0 0 0 0 14.323036
-0.49109232 -4.8223205 0.90319318 0 0 0 0 14.342827
0.29848984 -4.1652861 0.56934911 0 0 0 0 14.407139
0.38858503 -4.0793366 0.56371129 0 0 0 0 14.426926
0.27222228 -4.1794758 0.64927197 0 0 0 0 14.431873
0.48983389 -4.1102562 0.57625788 0 0 0 0 14.446712
0.36240259 -4.1005292 0.64164186 0 0 0 0 14.45166
0.2550222 -4.1935854 0.71523839 0 0 0 0 14.456608
0.57850361 -4.0545115 0.57633281 0 0 0 0 15.031422
0.46087426 -4.1256404 0.65187514 0 0 0 0 15.036369
0.34680843 -4.146749 0.71037859 0 0 0 0 15.041317
0.23598802 -4.1948171 0.77592736 0 0 0 0 15.046265
0.67014545 -4.0235691 0.58074558 0 0 0 0 15.051208
0.54711449 -4.0507631 0.64521474 0 0 0 0 15.056156
0.43942091 -4.1098027 0.7077902 0 0 0 0 15.061104
0.32879013 -4.1758704 0.77236038 0 0 0 0 15.066051
0.76705694 -4.0205708 0.58921266 0 0 0 0 15.070999
0.63673466 -4.0158463 0.64561325 0 0 0 0 15.075947
0.52689868 -4.0579143 0.70116049 0 0 0 0 15.080891
0.41814688 -4.1099668 0.76072419 0 0 0 0 15.085838
0.86925787 -4.0475168 0.60173601 0 0 0 0 15.090786
0.73378474 -4.0258493 0.65309471 0 0 0 0 15.095734
0.61550266 -4.0200124 0.69855046 0 0 0 0 15.100681
0.50670201 -4.0650697 0.75310665 0 0 0 0 15.105625
0.97543871 -4.073422 0.61627525 0 0 0 0 15.110573
0.83389252 -4.04282 0.66359687 0 0 0 0 15.11552
0.71255755 -4.0300179 0.70503139 0 0 0 0 15.120468
0.5974136 -4.037149 0.74951679 0 0 0 0 15.125416
1.0670773 -4.0424857 0.62168342 0 0 0 0 15.130363
0.94330448 -4.0916934 0.67917579 0 0 0 0 15.135307
0.80958623 -4.0370259 0.71050763 0 0 0 0 15.140255
0.69139951 -4.0381918 0.75097305 0 0 0 0 15.145203
1.1690001 -4.0414419 0.63217074 0 0 0 0 15.15015
1.0329064 -4.0557818 0.68156856 0 0 0 0 15.155098
0.91906953 -4.0929003 0.72609389 0 0 0 0 15.160046
0.78424692 -4.0252485 0.75140738 0 0 0 0 15.164989
1.2688926 -4.0374207 0.64264429 0 0 0 0 15.169937
1.128679 -4.037807 0.68700838 0 0 0 0 15.174885
1.009686 -4.0569825 0.72549075 0 0 0 0 15.179832
0.89069289 -4.076158 0.76397347 0 0 0 0 15.18478
1.366631 -4.0174251 0.65108895 0 0 0 0 15.189728
1.2389253 -4.0696788 0.70056838 0 0 0 0 15.194672
1.107602 -4.0529876 0.73095524 0 0 0 0 15.199619
0.98966908 -4.0771542 0.76744884 0 0 0 0 15.204567
1.4766946 -4.032299 0.66662741 0 0 0 0 15.209515
1.3284415 -4.024775 0.70194739 0 0 0 0 15.214462
1.2189037 -4.0898514 0.74352473 0 0 0 0 15.219406
1.0824134 -4.0532193 0.76586699 0 0 0 0 15.224354
1.5826291 -4.0332203 0.6791302 0 0 0 0 15.229301
1.4354987 -4.037684 0.71446931 0 0 0 0 15.234249
1.3012649 -4.0270271 0.73885077 0 0 0 0 15.239197
1.1865243 -4.0691628 0.77337992 0 0 0 0 15.244144
1.6986774 -4.0470366 0.695692 0 0 0 0 15.249088
1.5424584 -4.040597 0.72597831 0 0 0 0 15.254036
1.4083154 -4.037941 0.74836975 0 0 0 0 15.258984
1.2761563 -4.0332651 0.76976836 0 0 0 0 15.263931
1.8055364 -4.0409513 0.70918852 0 0 0 0 15.268879
1.6555107 -4.0534482 0.73952478 0 0 0 0 15.273827
1.5122429 -4.0358901 0.7558589 0 0 0 0 15.27877
1.3790933 -4.0312257 0.77525365 0 0 0 0 15.283718
1.92458 -4.0547409 0.7267611 0 0 0 0 15.288666
1.7623937 -4.048367 0.75002199 0 0 0 0 15.293613
1.6212525 -4.042788 0.76537967 0 0 0 0 15.298561
1.4881935 -4.0461245 0.78278428 0 0 0 0 15.303509
2.0455725 -4.0635123 0.74433553 0 0 0 0 15.308453
1.8773847 -4.055203 0.76356781 0 0 0 0 15.3134
1.7352935 -4.0536351 0.77692622 0 0 0 0 15.318348
1.5951662 -4.0480471 0.78928959 0 0 0 0 15.323296
2.2072356 -4.1448598 0.77717268 0 0 0 0 15.328243
1.997407 -4.0659876 0.77913934 0 0 0 0 15.333187
1.8462321 -4.0535173 0.78644532 0 0 0 0 15.338135
1.7041287 -4.0489521 0.79580146 0 0 0 0 15.343082
2.3149009 -4.1187768 0.78864503 0 0 0 0 15.34803
2.1540473 -4.1433921 0.80794835 0 0 0 0 15.352978
1.9632424 -4.0613384 0.79799914 0 0 0 0 15.357925
1.817127 -4.0538168 0.80333465 0 0 0 0 15.362869
2.4347112 -4.1095672 0.8061896 0 0 0 0 15.367817
2.2617221 -4.1173129 0.8174203 0 0 0 0 15.372765
2.0964575 -4.0919919 0.81564993 0 0 0 0 15.377712
1.9351667 -4.0636315 0.81289464 0 0 0 0 15.38266
2.5503938 -4.0864043 0.82069874 0 0 0 0 15.387608
2.3917143 -4.1260018 0.83502984 0 0 0 0 15.392551
2.2336876 -4.1246066 0.83431923 0 0 0 0 15.397499
2.0551758 -4.0704279 0.82245868 0 0 0 0 15.402447
2.6792762 -4.0851059 0.84028995 0 0 0 0 15.407394
2.5125127 -4.1137896 0.84857339 0 0 0 0 15.412342
2.3586318 -4.1263533 0.8468976 0 0 0 0 15.41729
2.212786 -4.1428342 0.84626263 0 0 0 0 15.422234
2.8232567 -4.0956521 0.86496055 0 0 0 0 15.427181
2.6292255 -4.0926223 0.8610872 0 0 0 0 15.432129
2.4824953 -4.1201134 0.85946065 0 0 0 0 15.437077
2.3295965 -4.1286707 0.852786 0 0 0 0 15.442024
2.7803514 -4.1170998 0.88480437 0 0 0 0 15.451916
2.6042778 -4.1048985 0.87000304 0 0 0 0 15.456863
2.4484124 -4.1154885 0.86031806 0 0 0 0 15.461811
3.7780502 -4.9778509 1.1132348 0 0 0 0 15.466759
2.7361732 -4.1025805 0.8846035 0 0 0 0 15.47665
2.5691986 -4.099288 0.86785418 0 0 0 0 15.481598
2.85482 -4.0734029 0.89411354 0 0 0 0 15.496441
2.7011018 -4.0959754 0.87845272 0 0 0 0 15.501389
3.8305836 -4.9058504 1.1333518 0 0 0 0 15.243744
2.8322344 -4.0832753 0.88889843 0 0 0 0 15.253639
3.7976665 -4.9152422 1.1272168 0 0 0 0 15.268478
3.7829843 -4.9454546 1.116188 0 0 0 0 15.293213
5.5720325 -5.0970812 1.4484574 0 0 0 0 15.357525
5.5234303 -5.1306715 1.4262655 0 0 0 0 15.382259
5.6149135 -4.9837937 1.4275093 0 0 0 0 15.402046
5.5712919 -5.2102857 1.4055594 0 0 0 0 15.406994
6.4769182 -5.1709046 1.6315916 0 0 0 0 15.416889
5.5992427 -5.0010738 1.3844478 0 0 0 0 15.426785
6.7021098 -5.1106482 1.6725253 0 0 0 0 15.436676
6.9855647 -5.0827932 1.7287533 0 0 0 0 15.456467
6.7421899 -5.2093654 1.6457952 0 0 0 0 15.461411
7.351429 -5.1040926 1.8054017 0 0 0 0 15.476254
6.9934316 -5.1538544 1.6868461 0 0 0 0 15.481201
7.2677417 -5.107111 1.7330067 0 0 0 0 15.500988
7.6063137 -5.0927114 1.7944869 0 0 0 0 15.520775
7.3647695 -5.1882949 1.6785064 0 0 0 0 15.525723
9.1756411 -5.5025535 2.2129314 0 0 0 0 15.535618
7.7173829 -5.1757655 1.7350478 0 0 0 0 15.545509
7.3571377 -5.187571 1.5854474 0 0 0 0 15.550457
9.1468029 -5.2139449 2.192457 0 0 0 0 15.555405
9.1785593 -5.559742 2.1269689 0 0 0 0 15.560352
8.0557652 -5.1383896 1.7874944 0 0 0 0 15.5653
8.4561071 -4.5741305 2.0146506 0 0 0 0 15.575191
9.124567 -5.2503972 2.0943599 0 0 0 0 15.580139
8.4603224 -5.1243415 1.854257 0 0 0 0 15.585087
8.6334801 -4.4273963 2.0472541 0 0 0 0 15.594982
8.4458294 -4.60745 1.9206092 0 0 0 0 15.59993
9.1460896 -5.2564259 1.9824243 0 0 0 0 15.604874
8.7321205 -5.2778101 1.7905997 0 0 0 0 15.609821
9.1962957 -4.4637122 2.173768 0 0 0 0 15.614769
8.5880423 -4.4380851 1.9380307 0 0 0 0 15.619717
8.4472017 -4.5976715 1.8075725 0 0 0 0 15.624664
9.1283913 -5.2288756 1.8432773 0 0 0 0 15.629608
9.7939558 -4.4876823 2.3084161 0 0 0 0 15.634556
9.1629257 -4.4763002 2.053596 0 0 0 0 15.639503
8.5893984 -4.4233165 1.8179874 0 0 0 0 15.644451
8.4616003 -4.5847778 1.6815898 0 0 0 0 15.649399
10.36931 -4.4788904 2.4379222 0 0 0 0 15.654346
9.6993885 -4.4689169 2.1609342 0 0 0 0 15.65929
9.1793308 -4.462399 1.9246156 0 0 0 0 15.664238
8.6077805 -4.4063902 1.6870168 0 0 0 0 15.669186
12.658681 -5.1415906 2.9727359 0 0 0 0 15.674133
10.405218 -4.5138154 2.3060718 0 0 0 0 15.679081
9.7458887 -4.461729 2.0260899 0 0 0 0 15.684029
9.2067356 -4.4424038 1.7816768 0 0 0 0 15.688972
13.328344 -5.0728722 3.124568 0 0 0 0 15.69392
13.458091 -5.4818063 2.9725711 0 0 0 0 15.698868
10.436647 -4.4908099 2.1511378 0 0 0 0 15.703815
9.8395367 -4.465085 1.8814641 0 0 0 0 15.708763
15.178057 -5.3970928 3.555907 0 0 0 0 15.452923
13.745734 -5.2371721 3.0232799 0 0 0 0 15.45787
13.526008 -5.4527183 2.7735131 0 0 0 0 15.462814
10.429139 -4.4358206 1.9734834 0 0 0 0 15.467762
14.741294 -4.8817434 3.4483151 0 0 0 0 15.47271
14.610542 -5.1943979 3.2000532 0 0 0 0 15.477657
14.536427 -5.4744692 2.9600098 0 0 0 0 15.482605
13.554394 -5.3918648 2.5425003 0 0 0 0 15.487553
15.264796 -4.6854773 3.5683815 0 0 0 0 15.492496
14.756248 -4.8770418 3.2192945 0 0 0 0 15.497444
15.254571 -5.3442421 3.0860193 0 0 0 0 15.502392
15.288922 -5.6682324 2.8405085 0 0 0 0 15.507339
15.258137 -4.3216848 3.5648861 0 0 0 0 15.512287
15.265681 -4.6649456 3.3192766 0 0 0 0 15.517235
14.824672 -4.8148112 2.9794497 0 0 0 0 15.522179
14.629117 -5.0311542 2.690794 0 0 0 0 15.527126
15.288589 -3.9725087 3.571573 0 0 0 0 15.532074
15.286023 -4.2998838 3.3139005 0 0 0 0 15.537022
15.281931 -4.5742736 3.0541632 0 0 0 0 15.541969
14.912054 -4.7384181 2.7166727 0 0 0 0 15.546913
15.300016 -3.6195264 3.5761707 0 0 0 0 15.551861
15.297381 -3.9359124 3.308486 0 0 0 0 15.556808
15.311228 -4.2021279 3.0438194 0 0 0 0 15.561756
15.308096 -4.4655266 2.7670741 0 0 0 0 15.566704
15.324529 -3.2754099 3.583837 0 0 0 0 15.571651
15.31574 -3.5728669 3.3071039 0 0 0 0 15.576595
15.322521 -3.8281648 3.0313935 0 0 0 0 15.581543
15.332317 -4.0824389 2.7496955 0 0 0 0 15.586491
15.336008 -2.9274244 3.5914409 0 0 0 0 15.591438
15.3412 -3.2197502 3.3067641 0 0 0 0 15.596386
15.343829 -3.4570966 3.0240157 0 0 0 0 15.601334
15.351563 -3.701401 2.7332973 0 0 0 0 15.606277
15.358556 -2.5873244 3.6031032 0 0 0 0 15.611225
15.353648 -2.864764 3.306365 0 0 0 0 15.616173
15.36621 -3.0930171 3.0176504 0 0 0 0 15.62112
15.362786 -3.3184416 2.7188618 0 0 0 0 15.626068
15.363134 -2.2474101 3.6096859 0 0 0 0 15.631016
15.376109 -2.5116746 3.3090124 0 0 0 0 15.63596
15.3876 -2.7299459 3.0132821 0 0 0 0 15.640907
15.390103 -2.9453182 2.7075086 0 0 0 0 15.645855
15.389693 -1.9082674 3.6243672 0 0 0 0 15.650803
15.376597 -2.1598077 3.3095639 0 0 0 0 15.65575
15.388981 -2.3640785 3.0058219 0 0 0 0 15.660694
15.409428 -2.5722756 2.6961198 0 0 0 0 15.665642
15.391297 -1.5713792 3.6349406 0 0 0 0 15.670589
15.404091 -1.8106635 3.3172383 0 0 0 0 15.675537
15.410412 -2.0050044 3.0044587 0 0 0 0 15.680485
15.415775 -2.2003639 2.6836755 0 0 0 0 15.685432
15.413916 -1.237276 3.6506102 0 0 0 0 15.690376
15.424656 -1.4675905 3.323889 0 0 0 0 15.695324
15.43186 -1.6479286 3.0050976 0 0 0 0 15.700272
15.426087 -1.8264071 2.6762466 0 0 0 0 15.705219
15.431551 -0.90422291 3.6662593 0 0 0 0 15.710167
15.438178 -1.1195878 3.3305035 0 0 0 0 15.715115
15.43532 -1.2900356 3.0026567 0 0 0 0 15.720058
15.448458 -1.4583287 2.6708779 0 0 0 0 15.725006
15.440149 -0.56725895 3.6828644 0 0 0 0 15.729954
15.452718 -0.77357316 3.3391244 0 0 0 0 15.734901
15.44775 -0.93004912 3.0042531 0 0 0 0 15.739849
15.463797 -1.0873182 2.667475 0 0 0 0 15.744797
15.45674 -0.23021238 3.7025049 0 0 0 0 15.749741
15.470227 -0.42552474 3.3517568 0 0 0 0 15.754688
15.469173 -0.57096779 3.0108907 0 0 0 0 15.759636
15.487178 -0.7202273 2.665112 0 0 0 0 15.764584
15.453411 0.10163004 3.7170637 0 0 0 0 15.769531
15.482735 -0.076526411 3.3643663 0 0 0 0 15.774475
15.49663 -0.21482617 3.0185578 0 0 0 0 15.779423
15.507508 -0.34916243 2.6667316 0 0 0 0 15.78437
17.862963 0.50306606 4.3211341 0 0 0 0 15.789318
15.486312 0.26737937 3.3739424 0 0 0 0 15.794266
15.517045 0.14524743 3.0281899 0 0 0 0 15.799213
15.506886 0.019689636 2.6642618 0 0 0 0 15.804157
17.879028 0.89209366 4.348702 0 0 0 0 15.809105
17.89179 0.70467484 3.9149373 0 0 0 0 15.814053
17.912882 0.57536632 3.5031457 0 0 0 0 15.819
15.536253 0.38784531 2.6679246 0 0 0 0 15.823948
17.889166 1.2760586 4.3732495 0 0 0 0 15.828896
17.905741 1.1096729 3.9344783 0 0 0 0 15.833839
17.925772 0.98934531 3.5146723 0 0 0 0 15.838787
17.93578 0.87490988 3.0868161 0 0 0 0 15.843735
17.906197 1.6690983 4.4038177 0 0 0 0 15.848682
17.91073 1.5115807 3.9529841 0 0 0 0 15.85363
17.941599 1.4093567 3.5292056 0 0 0 0 15.858578
17.96553 1.3050528 3.0953987 0 0 0 0 15.863522
17.895264 2.0608571 4.4302654 0 0 0 0 15.868469
17.928596 1.9236251 3.9795351 0 0 0 0 15.873417
17.94841 1.8312799 3.5446973 0 0 0 0 15.878365
17.975183 1.7449992 3.1058834 0 0 0 0 15.883312
17.921288 2.4549885 4.463872 0 0 0 0 15.888256
17.948511 2.3316877 4.0050998 0 0 0 0 15.893204
17.962194 2.2552762 3.564218 0 0 0 0 15.898151
17.990894 2.1800048 3.1164 0 0 0 0 15.903099
17.899345 2.8486395 4.4912705 0 0 0 0 15.908047
17.95145 2.7395792 4.0275912 0 0 0 0 15.912994
17.978991 2.6793005 3.5827518 0 0 0 0 15.917938
18.011562 2.6190627 3.1299343 0 0 0 0 15.922886
17.936527 3.2502384 4.5326385 0 0 0 0 15.998131
17.962526 3.1559069 4.0558281 0 0 0 0 16.003078
17.989986 3.1056192 3.6029768 0 0 0 0 16.008026
18.034409 3.0614924 3.1451917 0 0 0 0 16.012974
17.939524 3.6501439 4.5681405 0 0 0 0 16.017918
17.991373 3.5720634 4.0884237 0 0 0 0 16.022865
18.004721 3.536629 3.6274955 0 0 0 0 16.027813
18.041996 3.5104249 3.1626601 0 0 0 0 16.032761
17.95046 4.0551314 4.6076713 0 0 0 0 16.037708
18.003139 3.9970534 4.1219368 0 0 0 0 16.042652
18.024384 3.9746902 3.6550281 0 0 0 0 16.0476
18.060537 3.9634681 3.1831713 0 0 0 0 16.052547
17.305651 4.3015079 4.4775519 0 0 0 0 16.057495
17.378035 4.2666421 4.0068779 0 0 0 0 16.062443
17.574427 4.3100524 3.5906522 0 0 0 0 16.06739
17.74502 4.3441792 3.147325 0 0 0 0 16.072334
17.322533 4.710568 4.5241089 0 0 0 0 16.077282
17.373903 4.6824818 4.0403366 0 0 0 0 16.08223
17.411734 4.6982942 3.582459 0 0 0 0 16.087177
17.462498 4.7232265 3.1186266 0 0 0 0 16.092125
17.336475 5.1155963 4.5686584 0 0 0 0 16.097073
17.401617 5.1116433 4.0829186 0 0 0 0 16.102016
17.431385 5.1373672 3.6159952 0 0 0 0 16.106964
17.428213 5.1627541 3.1349308 0 0 0 0 16.111912
18.001579 5.7381825 4.7907634 0 0 0 0 16.116859
18.072676 5.749259 4.2810316 0 0 0 0 16.121807
18.112299 5.7990551 3.7931232 0 0 0 0 16.126755
18.109116 5.8374114 3.2850437 0 0 0 0 16.131699
18.015236 6.1712093 4.842278 0 0 0 0 16.136646
18.06628 6.1930766 4.3194485 0 0 0 0 16.141594
18.106792 6.256875 3.8255284 0 0 0 0 16.146542
18.137276 6.3285627 3.319557 0 0 0 0 16.151489
18.032812 6.612278 4.896801 0 0 0 0 16.156433
18.082708 6.6521263 4.3669467 0 0 0 0 16.161381
18.118052 6.7358689 3.8669829 0 0 0 0 16.166328
18.159384 6.8256569 3.3550382 0 0 0 0 16.171276
18.048317 7.0603299 4.9543076 0 0 0 0 16.176224
18.093082 7.1171203 4.4164133 0 0 0 0 16.181171
18.137215 7.2239447 3.9124618 0 0 0 0 16.186115
18.172359 7.3356662 3.3944669 0 0 0 0 16.191063
18.067688 7.5214238 5.0158176 0 0 0 0 16.196011
18.112217 7.6042085 4.4738936 0 0 0 0 16.200958
18.169176 7.7311521 3.9649749 0 0 0 0 16.205906
18.187237 7.8556972 3.4368935 0 0 0 0 16.210854
18.100925 7.9946589 5.0833731 0 0 0 0 16.215797
18.139332 8.0943737 4.5314045 0 0 0 0 16.220745
18.181137 8.2401628 4.0154014 0 0 0 0 16.225693
18.234875 8.398056 3.4874356 0 0 0 0 16.23064
18.102184 8.4685793 5.1467929 0 0 0 0 16.235588
18.151402 8.5893946 4.590847 0 0 0 0 16.240536
18.211912 8.7663641 4.0728898 0 0 0 0 16.24548
18.22961 8.9338942 3.5317602 0 0 0 0 16.250427
18.122284 8.9566898 5.2172775 0 0 0 0 16.255375
18.176231 9.1065483 4.6583209 0 0 0 0 16.260323
18.248524 9.308629 4.1353855 0 0 0 0 16.26527
18.249119 9.4909821 3.584168 0 0 0 0 16.270214
18.077692 9.421155 5.2715139 0 0 0 0 16.275162
17.863087 9.4523287 4.637547 0 0 0 0 16.280109
17.584291 9.4869242 4.0403061 0 0 0 0 16.285057
17.327246 9.5437422 3.4511342 0 0 0 0 16.290005
17.21228 9.4494057 5.0877471 0 0 0 0 16.294952
16.98065 9.4764357 4.4687157 0 0 0 0 16.299896
16.721556 9.5302572 3.8975403 0 0 0 0 16.304844
16.429623 9.568758 3.3222439 0 0 0 0 16.309792
16.408869 9.4722872 4.9172583 0 0 0 0 16.314739
16.168083 9.5062561 4.3181834 0 0 0 0 16.319687
15.9029 9.5610447 3.7649851 0 0 0 0 16.324635
15.903831 9.7874718 3.269726 0 0 0 0 16.329578
15.773564 9.566864 4.796412 0 0 0 0 16.334526
15.831522 9.7938337 4.2943931 0 0 0 0 16.339474
15.88303 10.054775 3.8213103 0 0 0 0 16.344421
15.923461 10.331592 3.3301637 0 0 0 0 16.349369
15.787728 10.048946 4.8738942 0 0 0 0 16.354317
15.855431 10.304008 4.368886 0 0 0 0 16.359261
15.907626 10.597957 3.8947706 0 0 0 0 16.364208
15.952833 10.900812 3.3976161 0 0 0 0 16.369156
15.819664 10.552211 4.9604292 0 0 0 0 16.374104
15.869199 10.828089 4.4473214 0 0 0 0 16.379051
15.917237 11.14199 3.9651673 0 0 0 0 16.383999
15.971042 11.48693 3.4680037 0 0 0 0 16.388943
15.838534 11.063349 5.0469003 0 0 0 0 16.39389
15.868956 11.355035 4.5246954 0 0 0 0 16.398838
15.94252 11.717185 4.0455971 0 0 0 0 16.403786
15.991088 12.090068 3.5413814 0 0 0 0 16.408733
15.84833 11.5834 5.1333246 0 0 0 0 16.413677
15.898303 11.920279 4.6151533 0 0 0 0 16.418625
15.947768 12.297188 4.1259379 0 0 0 0 16.423573
16.013857 12.720242 3.6217422 0 0 0 0 16.42852
15.864811 12.132527 5.2307463 0 0 0 0 16.433468
15.934401 12.510594 4.7106133 0 0 0 0 16.438416
15.97851 12.925452 4.2203345 0 0 0 0 16.443359
16.052238 13.388576 3.7111278 0 0 0 0 16.448307
15.893997 12.70979 5.3381915 0 0 0 0 16.453255
15.949371 13.113712 4.8099713 0 0 0 0 16.458202
16.008024 13.576711 4.3197021 0 0 0 0 16.46315
16.07444 14.075757 3.803426 0 0 0 0 16.468098
15.909839 13.298025 5.4453435 0 0 0 0 16.220215
15.980641 13.758109 4.9221296 0 0 0 0 16.225163
16.04491 14.261162 4.4268422 0 0 0 0 16.230106
15.901878 14.620116 3.8578281 0 0 0 0 16.235054
15.935594 13.911266 5.5587344 0 0 0 0 16.240002
16.003017 14.411317 5.0344629 0 0 0 0 16.244949
15.688702 14.607568 4.4298983 0 0 0 0 16.249897
15.430573 14.882381 3.8384881 0 0 0 0 16.254845
15.912505 14.512026 5.6659317 0 0 0 0 16.259789
15.524341 14.62048 4.9891496 0 0 0 0 16.264736
15.794578 15.405623 4.5694327 0 0 0 0 16.269684
15.23539 15.41242 3.8920364 0 0 0 0 16.274632
15.37679 14.6366 5.5874705 0 0 0 0 16.279579
15.103162 14.873234 4.9650383 0 0 0 0 16.284527
14.513991 15.401202 3.8099427 0 0 0 0 16.294418
14.478344 14.909945 4.8743038 0 0 0 0 16.304314
13.920366 15.502276 3.7632771 0 0 0 0 16.314205
13.895236 14.971087 4.7967272 0 0 0 0 16.3241
13.290427 15.536997 3.7055368 0 0 0 0 16.333996
14.221992 15.418965 5.5305953 0 0 0 0 16.338943
13.32522 15.022367 4.7202229 0 0 0 0 16.343887
12.638143 15.508499 3.6367781 0 0 0 0 16.353783
13.525674 15.321954 5.3907194 0 0 0 0 16.35873
12.75254 15.040628 4.63975 0 0 0 0 16.363678
12.571288 15.482351 4.1715007 0 0 0 0 16.368626
11.549068 14.889639 3.4358222 0 0 0 0 16.373569
12.97886 15.357459 5.304338 0 0 0 0 16.378517
12.226396 15.09937 4.5774369 0 0 0 0 16.383465
11.510335 14.864735 3.9386666 0 0 0 0 16.388412
10.974658 14.867936 3.3804016 0 0 0 0 16.39336
12.467707 15.422335 5.2320824 0 0 0 0 16.398308
11.668998 15.0878 4.4980745 0 0 0 0 16.403252
10.955878 14.85122 3.8763237 0 0 0 0 16.408199
10.4163 14.839402 3.3280625 0 0 0 0 16.413147
11.452934 14.81211 4.9384432 0 0 0 0 16.418095
10.934376 14.817449 4.3462524 0 0 0 0 16.423042
10.43233 14.846017 3.8171082 0 0 0 0 16.427986
9.9408588 14.912709 3.3019688 0 0 0 0 16.432934
10.944487 14.807024 4.8562889 0 0 0 0 16.437881
10.406168 14.784184 4.2700496 0 0 0 0 16.442829
9.9473925 14.875213 3.7720237 0 0 0 0 16.447777
9.4253664 14.894616 3.2578111 0 0 0 0 16.452724
10.410592 14.749687 4.7610898 0 0 0 0 16.457668
9.9372101 14.81853 4.2190285 0 0 0 0 16.462616
9.4517107 14.878312 3.7259281 0 0 0 0 16.467564
9.1194029 15.206641 3.2911823 0 0 0 0 16.472511
9.9517994 14.773117 4.6961255 0 0 0 0 16.477459
9.4891634 14.86009 4.1730933 0 0 0 0 16.482407
9.1234741 15.122104 3.7422805 0 0 0 0 16.48735
8.9557104 15.780108 3.3828716 0 0 0 0 16.492298
9.5463152 14.859095 4.6543217 0 0 0 0 16.497246
9.1208305 15.021467 4.1623673 0 0 0 0 16.502193
8.4856119 15.817501 3.3598599 0 0 0 0 16.512089
9.140892 14.938083 4.614531 0 0 0 0 16.517033
9.0108404 15.618473 4.2752571 0 0 0 0 16.52198
8.0176945 15.836921 3.3348823 0 0 0 0 16.531876
8.8554525 15.203298 4.6340451 0 0 0 0 16.536823
8.5482473 15.615909 4.2233229 0 0 0 0 16.541767
7.5538864 15.844389 3.31094 0 0 0 0 16.551662
8.4119825 15.192906 4.5702014 0 0 0 0 16.55661
8.1290016 15.673791 4.1905093 0 0 0 0 16.561558
7.1087828 15.879056 3.296052 0 0 0 0 16.571449
8.0000725 15.221845 4.5224519 0 0 0 0 16.576397
7.701951 15.711605 4.1566906 0 0 0 0 16.581345
6.644331 15.849535 3.271158 0 0 0 0 16.59124
7.5793281 15.233706 4.4736891 0 0 0 0 16.596188
7.2701745 15.722378 4.118886 0 0 0 0 16.601131
6.2065864 15.848285 3.2523499 0 0 0 0 16.611027
7.1853404 15.267839 4.4330182 0 0 0 0 16.615974
6.8590889 15.761367 4.0911427 0 0 0 0 16.620922
5.787416 15.886234 3.2465823 0 0 0 0 16.630814
6.794414 15.296009 4.3913713 0 0 0 0 16.635761
6.4413981 15.762292 4.0554175 0 0 0 0 16.640709
5.3588004 15.87009 3.2308381 0 0 0 0 16.650604
6.4054995 15.321208 4.3537402 0 0 0 0 16.655548
6.052155 15.815513 4.0337586 0 0 0 0 16.660496
4.952702 15.900182 3.2261431 0 0 0 0 16.670391
6.0158 15.325404 4.3121338 0 0 0 0 16.675339
5.644527 15.808552 4.0010934 0 0 0 0 16.680286
4.5487089 15.919302 3.2214732 0 0 0 0 16.690178
5.6490517 15.353824 4.2797322 0 0 0 0 17.34063
5.2530322 15.816884 3.9757042 0 0 0 0 17.345577
4.1384196 15.885862 3.2102859 0 0 0 0 17.355473
5.2791042 15.380355 4.2482677 0 0 0 0 17.36042
4.86518 15.830263 3.9511867 0 0 0 0 17.365364
3.5858769 15.251611 3.0788093 0 0 0 0 17.375259
4.8993344 15.387801 4.2157893 0 0 0 0 17.380207
4.4821463 15.859704 3.9356761 0 0 0 0 17.385155
3.198344 15.221034 3.0723524 0 0 0 0 17.395046
4.5373673 15.414424 4.1893644 0 0 0 0 17.399994
4.1069255 15.907232 3.9261816 0 0 0 0 17.404942
3.3920143 15.236141 3.4181051 0 0 0 0 17.409889
2.8264236 15.229617 3.0739202 0 0 0 0 17.414837
4.171535 15.427017 4.160944 0 0 0 0 17.419785
3.5669768 15.230048 3.7388058 0 0 0 0 17.424728
3.0202897 15.227715 3.409692 0 0 0 0 17.429676
2.4574919 15.238237 3.0785041 0 0 0 0 17.434624
3.8107448 15.434664 4.1335526 0 0 0 0 17.439571
3.1965597 15.195614 3.712425 0 0 0 0 17.444519
2.6498511 15.1903 3.3953183 0 0 0 0 17.449467
2.0885706 15.244867 3.0850949 0 0 0 0 17.454411
3.3907526 15.164691 4.0332246 0 0 0 0 17.459358
2.8426254 15.211356 3.7020605 0 0 0 0 17.464306
2.2908311 15.211014 3.3949332 0 0 0 0 17.469254
1.7236547 15.250542 3.0927064 0 0 0 0 17.474201
3.0370059 15.165421 4.0098767 0 0 0 0 17.479149
2.4822271 15.173032 3.6797316 0 0 0 0 17.484093
1.9395679 15.254815 3.4035583 0 0 0 0 17.48904
1.3632358 15.30628 3.1132882 0 0 0 0 17.493988
2.6853611 15.156174 3.9835515 0 0 0 0 17.498936
2.1272645 15.189784 3.674371 0 0 0 0 17.503883
1.5806682 15.261545 3.4051967 0 0 0 0 17.508827
2.3405933 15.158001 3.9632459 0 0 0 0 17.518723
1.7877085 15.266699 3.6820114 0 0 0 0 17.52367
1.2271914 15.325352 3.4228015 0 0 0 0 17.528618
