# .PCD v0.7 - Point Cloud Data file format
VERSION 0.7
FIELDS x y z normal_x normal_y normal_z intensity curvature
SIZE 4 4 4 4 4 4 4 4
TYPE F F F F F F F F
COUNT 1 1 1 1 1 1 1 1
WIDTH 939
HEIGHT 1
VIEWPOINT 0 0 0 1 0 0 0
POINTS 939
DATA ascii
-13.634887 12.075418 -2.0660574 0 0 0 0 18.004326
-16.488184 13.896464 -1.7718377 0 0 0 0 18.009274
-16.822803 13.554179 -1.1518232 0 0 0 0 18.014219
-17.137032 13.181136 -0.53357196 0 0 0 0 18.019167
-13.949863 11.768549 -2.0830579 0 0 0 0 18.024115
-16.799021 13.494733 -1.7753766 0 0 0 0 18.02906
-17.10244 13.132879 -1.1461253 0 0 0 0 18.034008
-17.415932 12.777883 -0.5209533 0 0 0 0 18.038956
-14.229435 11.427143 -2.0957339 0 0 0 0 18.043901
-17.080616 13.072381 -1.776684 0 0 0 0 18.048849
-17.382183 12.719581 -1.1414658 0 0 0 0 18.053795
-17.701851 12.375547 -0.5083732 0 0 0 0 18.058743
-14.501983 11.082837 -2.1073642 0 0 0 0 18.06369
-17.37425 12.652876 -1.7800626 0 0 0 0 18.068636
-17.651903 12.303418 -1.1357468 0 0 0 0 18.073584
-17.96467 11.964506 -0.49564531 0 0 0 0 18.078531
-17.334093 12.591289 -2.4805322 0 0 0 0 18.083477
-17.657888 12.232507 -1.7823912 0 0 0 0 18.088425
-17.943703 11.893973 -1.1331642 0 0 0 0 18.093372
-18.228418 11.54745 -0.48489574 0 0 0 0 18.098318
-17.625656 12.167784 -2.4918847 0 0 0 0 18.103266
-4.233242 -3.415451 -0.57740551 0 0 0 0 18.270752
-4.2772083 -3.4219568 -0.14951082 0 0 0 0 18.305382
-2.7250726 -4.3142028 -0.27374479 0 0 0 0 18.577465
-2.7138162 -4.369679 -0.19440298 0 0 0 0 18.602203
-1.5786846 -4.4086733 -0.37173608 0 0 0 0 18.725876
-1.5157242 -4.5624108 -0.37249991 0 0 0 0 19.601669
-1.3871961 -4.5288672 -0.36102676 0 0 0 0 19.621456
-1.4987146 -4.5919333 -0.31125683 0 0 0 0 19.626404
-1.2271088 -4.3729205 -0.34194049 0 0 0 0 19.641243
-1.3499761 -4.4891596 -0.30099186 0 0 0 0 19.646191
-1.4438827 -4.5140676 -0.2623069 0 0 0 0 19.651138
-1.1305783 -4.4237871 -0.33724824 0 0 0 0 19.661034
-1.2178506 -4.4195867 -0.291659 0 0 0 0 19.665981
-1.2991232 -4.4113607 -0.25605986 0 0 0 0 19.670925
-1.4133306 -4.4945354 -0.22421527 0 0 0 0 19.675873
-1.0254374 -4.441546 -0.33066064 0 0 0 0 19.68082
-1.1183995 -4.4624338 -0.28998873 0 0 0 0 19.685768
-1.194888 -4.4341645 -0.25745451 0 0 0 0 19.690716
-1.2696151 -4.3858638 -0.22299895 0 0 0 0 19.695663
-0.93723661 -4.5495334 -0.32976019 0 0 0 0 19.700607
-1.0113097 -4.4741893 -0.28741875 0 0 0 0 19.705555
-1.0935662 -4.4650002 -0.25782821 0 0 0 0 19.710503
-1.1740172 -4.4387884 -0.22830305 0 0 0 0 19.71545
-0.84228379 -4.6364398 -0.32792097 0 0 0 0 19.720398
-0.92592055 -4.597229 -0.2904667 0 0 0 0 19.725346
-0.98933208 -4.4878082 -0.25922382 0 0 0 0 19.730289
-1.0689111 -4.449594 -0.23174654 0 0 0 0 19.735237
-0.69970655 -4.4357033 -0.3081094 0 0 0 0 19.740185
-0.81597924 -4.5969472 -0.28593683 0 0 0 0 19.745132
-0.91159427 -4.6399565 -0.26618156 0 0 0 0 19.75008
-0.97327656 -4.5055265 -0.2380386 0 0 0 0 19.755024
-0.56711924 -4.2350893 -0.28934258 0 0 0 0 19.759972
-0.67353553 -4.382236 -0.27118605 0 0 0 0 19.764919
-0.78372842 -4.5454655 -0.26197755 0 0 0 0 19.769867
-0.89452744 -4.6576772 -0.2479925 0 0 0 0 19.774815
-0.44629353 -4.0546174 -0.27154189 0 0 0 0 19.779762
-0.54672277 -4.1987171 -0.25837141 0 0 0 0 19.784706
-0.64706373 -4.347846 -0.25217897 0 0 0 0 19.789654
-0.75640261 -4.4980679 -0.2440231 0 0 0 0 19.794601
-0.33536243 -3.8822718 -0.25575095 0 0 0 0 19.799549
-0.42789367 -4.016293 -0.24558803 0 0 0 0 19.804497
-0.52032524 -4.156343 -0.24239886 0 0 0 0 19.809444
-0.62547857 -4.3205433 -0.24016367 0 0 0 0 19.814388
-0.23523505 -3.7260613 -0.24193925 0 0 0 0 19.819336
-0.31984535 -3.8520041 -0.23477517 0 0 0 0 19.824284
-0.40626478 -3.991998 -0.23455893 0 0 0 0 19.829231
-0.500673 -4.1330824 -0.23437463 0 0 0 0 19.834179
-0.1437642 -3.5989623 -0.23004103 0 0 0 0 19.839127
-0.22154896 -3.7088342 -0.22491528 0 0 0 0 19.84407
-0.2992796 -3.8207357 -0.22678074 0 0 0 0 19.849018
-0.38865292 -3.9637754 -0.22956519 0 0 0 0 19.853966
-0.057289977 -3.4719226 -0.21816504 0 0 0 0 19.858913
-0.13114178 -3.5747619 -0.21605182 0 0 0 0 19.863861
-0.2039441 -3.679615 -0.21992533 0 0 0 0 19.868805
-0.28448737 -3.8065655 -0.225739 0 0 0 0 19.873753
0.022283163 -3.3529682 -0.20728542 0 0 0 0 19.8787
-0.046590205 -3.4527631 -0.20816272 0 0 0 0 19.883648
-0.11446407 -3.5505679 -0.21404423 0 0 0 0 19.888596
-0.19016992 -3.6624706 -0.22190085 0 0 0 0 19.893543
0.094943598 -3.2410989 -0.1974065 0 0 0 0 19.898487
0.030089581 -3.3418565 -0.20026146 0 0 0 0 19.903435
-0.031817213 -3.4356058 -0.20913331 0 0 0 0 19.908382
-0.10072403 -3.529434 -0.21803688 0 0 0 0 19.91333
0.1648041 -3.1462688 -0.18846668 0 0 0 0 19.918278
0.104754 -3.2289789 -0.19337757 0 0 0 0 19.923225
0.045810036 -3.3187025 -0.20425338 0 0 0 0 19.928169
-0.019061491 -3.4144976 -0.21613018 0 0 0 0 19.933117
0.23161045 -3.0464745 -0.17956194 0 0 0 0 19.938065
0.1746071 -3.1321628 -0.18744622 0 0 0 0 19.943012
0.11867127 -3.2218604 -0.20030855 0 0 0 0 19.94796
0.057678703 -3.3066146 -0.21321528 0 0 0 0 19.952908
0.15380332 -1.5939504 -0.10913414 0 0 0 0 19.957851
0.23946282 -3.0354047 -0.18153717 0 0 0 0 19.962799
0.18749657 -3.1220615 -0.19539458 0 0 0 0 19.967747
0.12944894 -3.2007945 -0.2113139 0 0 0 0 19.972694
0.18851861 -1.5705516 -0.10604312 0 0 0 0 19.977642
0.15775628 -1.5899248 -0.11109196 0 0 0 0 19.982586
0.25128394 -3.0183249 -0.19152026 0 0 0 0 19.987534
0.19732355 -3.1040206 -0.20939112 0 0 0 0 19.992481
0.22985724 -1.6010947 -0.10569023 0 0 0 0 19.997429
0.19144273 -1.5635424 -0.10901847 0 0 0 0 20.002377
0.16477706 -1.5898864 -0.11801878 0 0 0 0 20.007324
0.26218933 -3.0062823 -0.20748594 0 0 0 0 20.012268
0.27743608 -1.6525737 -0.10621932 0 0 0 0 20.017216
0.23591389 -1.6050599 -0.1106044 0 0 0 0 20.022163
0.19948418 -1.5645018 -0.1179364 0 0 0 0 20.027111
0.17080027 -1.5888726 -0.12795441 0 0 0 0 20.032059
0.3281036 -1.7120194 -0.10670058 0 0 0 0 20.037006
0.28356862 -1.6625478 -0.1131077 0 0 0 0 20.04195
0.20553483 -1.5654925 -0.12886332 0 0 0 0 20.051846
0.38063005 -1.7594403 -0.10622541 0 0 0 0 20.056793
0.33417222 -1.7159989 -0.11461531 0 0 0 0 20.061741
0.29268965 -1.6695099 -0.12499557 0 0 0 0 20.066689
0.25218022 -1.6210051 -0.13437994 0 0 0 0 20.071632
0.44054678 -1.8266238 -0.10808393 0 0 0 0 19.798042
0.38896194 -1.7722522 -0.11754716 0 0 0 0 19.80299
0.34444305 -1.7228086 -0.12895669 0 0 0 0 19.807938
0.30090839 -1.6723492 -0.13936599 0 0 0 0 19.812885
0.50329876 -1.8929273 -0.1084783 0 0 0 0 19.817833
0.44766685 -1.8336101 -0.1199813 0 0 0 0 19.822781
0.39905074 -1.7752167 -0.13244811 0 0 0 0 19.827724
0.35255319 -1.7268039 -0.14586203 0 0 0 0 19.832672
0.57320124 -1.9721559 -0.10978477 0 0 0 0 19.83762
0.51248366 -1.9049001 -0.12234515 0 0 0 0 19.842567
0.45880926 -1.8405724 -0.13686058 0 0 0 0 19.847515
0.41030997 -1.7911907 -0.15228774 0 0 0 0 19.852459
0.6470629 -2.0483365 -0.11008693 0 0 0 0 19.857407
0.58130312 -1.9761503 -0.12569149 0 0 0 0 19.862354
0.52462721 -1.9108651 -0.14222461 0 0 0 0 19.867302
0.46897429 -1.8475679 -0.15874436 0 0 0 0 19.87225
0.72697228 -2.1284544 -0.11134513 0 0 0 0 19.877197
0.65927917 -2.0612988 -0.12893666 0 0 0 0 19.882141
0.59548855 -1.9851021 -0.14754921 0 0 0 0 19.887089
0.53583419 -1.9208586 -0.16609117 0 0 0 0 19.892036
0.84283948 -2.2921791 -0.11407951 0 0 0 0 19.896984
0.74124622 -2.1454082 -0.13316882 0 0 0 0 19.901932
0.67446554 -2.0692534 -0.15379465 0 0 0 0 19.906879
0.61077577 -2.0010638 -0.17437191 0 0 0 0 19.911823
0.92752397 -2.3532414 -0.11439963 0 0 0 0 19.916771
0.85602713 -2.3001635 -0.13994771 0 0 0 0 19.921719
0.76155782 -2.1633193 -0.16096111 0 0 0 0 19.926666
0.6886971 -2.079241 -0.18364847 0 0 0 0 19.931614
1.8744984 -4.4359751 -0.18008369 0 0 0 0 19.936562
0.94171965 -2.3612244 -0.1422637 0 0 0 0 19.941505
0.87015796 -2.3011587 -0.17084189 0 0 0 0 19.946453
0.77885789 -2.1782868 -0.19378011 0 0 0 0 19.951401
1.979053 -4.4017944 -0.1747307 0 0 0 0 19.956348
1.8926215 -4.4290476 -0.2360034 0 0 0 0 19.961296
0.95681792 -2.358223 -0.17617112 0 0 0 0 19.96624
0.88739496 -2.3091457 -0.20769201 0 0 0 0 19.971188
2.144001 -4.4889569 -0.17258084 0 0 0 0 19.976135
1.9971565 -4.3918819 -0.23366353 0 0 0 0 19.981083
1.910526 -4.3991613 -0.30102301 0 0 0 0 19.986031
0.97507882 -2.3672125 -0.21601275 0 0 0 0 19.990978
2.3343875 -4.6138501 -0.17315397 0 0 0 0 19.995922
2.1815829 -4.5178676 -0.2402589 0 0 0 0 20.00087
2.0232689 -4.3779311 -0.30457744 0 0 0 0 20.005817
1.9367267 -4.3902383 -0.37891486 0 0 0 0 20.010765
2.5132966 -4.6978621 -0.17095619 0 0 0 0 20.015713
2.359637 -4.6119189 -0.24502169 0 0 0 0 20.02066
2.2189052 -4.519824 -0.31805441 0 0 0 0 20.025604
2.0679128 -4.4058299 -0.38822758 0 0 0 0 20.030552
1.4305121 -2.5386569 -0.10613289 0 0 0 0 20.0355
1.3911253 -2.5753086 -0.15214886 0 0 0 0 20.040447
2.3918009 -4.5979571 -0.32790983 0 0 0 0 20.045395
2.2450593 -4.5029492 -0.40598193 0 0 0 0 20.050343
1.4768903 -2.4861412 -0.10311831 0 0 0 0 20.055286
1.434429 -2.5158312 -0.15017816 0 0 0 0 20.060234
1.4061424 -2.5593793 -0.20111413 0 0 0 0 20.065182
2.4322367 -4.6029601 -0.42367932 0 0 0 0 20.070129
1.5487447 -2.4753463 -0.10080883 0 0 0 0 20.075077
1.4879518 -2.475245 -0.14907984 0 0 0 0 20.080021
1.4606848 -2.5197902 -0.20200701 0 0 0 0 20.084969
1.4242926 -2.5524454 -0.2570267 0 0 0 0 20.089916
1.5870086 -2.4129195 -0.096873552 0 0 0 0 20.094864
1.5496253 -2.4475734 -0.14888912 0 0 0 0 20.099812
1.4999125 -2.4533598 -0.20008442 0 0 0 0 20.104759
1.4573857 -2.4740832 -0.25518313 0 0 0 0 20.109703
1.6558194 -2.3981616 -0.094595075 0 0 0 0 20.114651
1.6092726 -2.4179215 -0.14771615 0 0 0 0 20.119598
1.5656739 -2.4326525 -0.20184536 0 0 0 0 20.124546
1.5190552 -2.4444294 -0.25900096 0 0 0 0 20.129494
3.6040158 -4.9637933 -0.15373205 0 0 0 0 20.134441
1.6658536 -2.3823054 -0.14658269 0 0 0 0 20.139385
1.6283351 -2.4029806 -0.20365885 0 0 0 0 20.144333
1.5817479 -2.4167657 -0.26280573 0 0 0 0 20.149281
3.6774645 -4.8319798 -0.1469432 0 0 0 0 20.154228
3.6118698 -4.9102545 -0.26790446 0 0 0 0 20.159176
1.6950864 -2.3812647 -0.20541979 0 0 0 0 20.164124
1.6423695 -2.3831217 -0.2656455 0 0 0 0 20.169067
1.2189028 -1.5309539 -0.069200061 0 0 0 0 20.174015
3.6903675 -4.7813988 -0.26407969 0 0 0 0 20.178963
3.6316707 -4.8486161 -0.390057 0 0 0 0 20.18391
1.7212949 -2.3752887 -0.271292 0 0 0 0 20.188858
1.2475152 -1.4976441 -0.067180805 0 0 0 0 20.193802
1.2299958 -1.5240283 -0.10914066 0 0 0 0 20.19875
3.717273 -4.7276955 -0.38916579 0 0 0 0 20.203697
3.6546032 -4.7930031 -0.52616954 0 0 0 0 20.208645
1.2740725 -1.4593576 -0.065192044 0 0 0 0 20.213593
1.2555308 -1.4837528 -0.10716505 0 0 0 0 20.21854
1.2450641 -1.5140668 -0.15107621 0 0 0 0 20.223484
3.7280238 -4.6552234 -0.52640527 0 0 0 0 20.228432
1.3026866 -1.4260491 -0.063172609 0 0 0 0 20.233379
1.2861534 -1.4504303 -0.10713662 0 0 0 0 20.238327
1.2716088 -1.4737891 -0.15109599 0 0 0 0 20.243275
1.2591488 -1.5031421 -0.19902043 0 0 0 0 20.248222
1.3211906 -1.3828536 -0.06124112 0 0 0 0 20.253166
1.3076726 -1.4082053 -0.10618734 0 0 0 0 20.258114
1.3002098 -1.4384896 -0.15108512 0 0 0 0 20.263062
1.2593261 -1.4311444 -0.19629481 0 0 0 0 20.268009
1.3498938 -1.3502643 -0.060622104 0 0 0 0 20.021004
1.3323241 -1.3706648 -0.10560755 0 0 0 0 20.025951
1.3268596 -1.3999335 -0.15149982 0 0 0 0 20.030895
1.2859918 -1.3935996 -0.19770619 0 0 0 0 20.035843
1.3764828 -1.3149762 -0.058620594 0 0 0 0 20.040791
1.362951 -1.3383354 -0.10457499 0 0 0 0 20.045738
1.3514011 -1.3596765 -0.15152904 0 0 0 0 20.050686
1.3287596 -1.3721505 -0.2005717 0 0 0 0 20.055634
1.3990439 -1.2767382 -0.057650011 0 0 0 0 20.060577
1.3865163 -1.3000903 -0.1045999 0 0 0 0 20.065525
1.375966 -1.3214198 -0.15154947 0 0 0 0 20.070473
1.3684897 -1.3477322 -0.20246381 0 0 0 0 20.07542
1.425657 -1.2434511 -0.055639617 0 0 0 0 20.080368
1.4080667 -1.2608639 -0.10363805 0 0 0 0 20.085312
1.4045811 -1.2871227 -0.15253441 0 0 0 0 20.09026
1.389004 -1.3045256 -0.20352381 0 0 0 0 20.095207
1.4462086 -1.2042367 -0.054682132 0 0 0 0 20.100155
1.435685 -1.2275702 -0.10262306 0 0 0 0 20.105103
1.4271253 -1.2468899 -0.15257227 0 0 0 0 20.11005
1.4196306 -1.2712065 -0.20449533 0 0 0 0 20.114994
1.4728234 -1.1709508 -0.052671544 0 0 0 0 20.119942
1.4612863 -1.192304 -0.10262562 0 0 0 0 20.124889
1.4557598 -1.2145897 -0.15254837 0 0 0 0 20.129837
1.4472291 -1.2349261 -0.20649326 0 0 0 0 20.134785
1.4964215 -1.1357036 -0.051682997 0 0 0 0 20.139732
1.4828618 -1.1550791 -0.10165475 0 0 0 0 20.144676
1.4783171 -1.1753578 -0.15258168 0 0 0 0 20.149624
1.4718019 -1.196676 -0.20751324 0 0 0 0 20.154572
1.5159981 -1.0985019 -0.05072099 0 0 0 0 20.159519
1.5094647 -1.119803 -0.10165261 0 0 0 0 20.164467
1.5019022 -1.1381196 -0.15360169 0 0 0 0 20.169415
1.5003976 -1.1603813 -0.20850648 0 0 0 0 20.174358
1.5416042 -1.064229 -0.048718926 0 0 0 0 20.179306
1.5350684 -1.0845386 -0.10165486 0 0 0 0 20.184254
1.5284945 -1.1018438 -0.15360379 0 0 0 0 20.189201
1.5259875 -1.1231254 -0.21051741 0 0 0 0 20.194149
1.5631936 -1.0280058 -0.047743358 0 0 0 0 20.199097
1.560673 -1.0492746 -0.10165701 0 0 0 0 20.204041
1.5530812 -1.0645955 -0.15461908 0 0 0 0 20.208988
1.5525739 -1.0858545 -0.21152373 0 0 0 0 20.213936
1.5878059 -0.9937495 -0.046745565 0 0 0 0 20.218884
1.5842741 -1.0140294 -0.10066806 0 0 0 0 20.223831
1.5797021 -1.0303251 -0.15561232 0 0 0 0 20.228775
1.572117 -1.0446627 -0.21257865 0 0 0 0 20.233723
1.6093969 -0.95752734 -0.045769773 0 0 0 0 20.23867
1.6058582 -0.97681159 -0.1006966 0 0 0 0 20.243618
1.6032748 -0.9920848 -0.15563621 0 0 0 0 20.248566
1.6017427 -1.0103636 -0.21455833 0 0 0 0 20.253513
1.6279778 -0.92033929 -0.044811644 0 0 0 0 20.258457
1.6294544 -0.94057173 -0.10071172 0 0 0 0 20.263405
1.6258641 -0.95486033 -0.15666014 0 0 0 0 20.268353
1.6253208 -0.97212797 -0.21558212 0 0 0 0 20.2733
1.6570733 -0.90628785 -0.10070016 0 0 0 0 20.283195
1.6564872 -0.92054713 -0.15763512 0 0 0 0 20.288139
1.654937 -0.93683016 -0.21756591 0 0 0 0 20.293087
1.6796598 -0.8690604 -0.10072386 0 0 0 0 20.302982
1.6790626 -0.88231969 -0.15766315 0 0 0 0 20.30793
1.68051 -0.89757776 -0.21958476 0 0 0 0 20.312878
1.7082691 -0.83376664 -0.10071193 0 0 0 0 20.322769
1.7086807 -0.84702319 -0.15964673 0 0 0 0 20.327717
1.7010686 -0.85737741 -0.22063024 0 0 0 0 20.332664
1.7288465 -0.79556257 -0.10074868 0 0 0 0 20.342556
1.728236 -0.80683035 -0.15969656 0 0 0 0 20.347504
1.7296653 -0.82009268 -0.22262682 0 0 0 0 20.352451
1.7544467 -0.75930339 -0.10075428 0 0 0 0 20.362347
1.7558404 -0.77055311 -0.1606932 0 0 0 0 20.367294
1.7492193 -0.77890873 -0.2246808 0 0 0 0 20.372238
1.7880849 -0.72596014 -0.10171105 0 0 0 0 20.382133
1.7934825 -0.7371698 -0.16263206 0 0 0 0 20.387081
1.7868547 -0.74452949 -0.22762392 0 0 0 0 20.392029
1.8156754 -0.68868017 -0.10171181 0 0 0 0 20.40192
1.810023 -0.69501615 -0.16370353 0 0 0 0 20.406868
1.8164542 -0.70723569 -0.22961572 0 0 0 0 20.411816
1.8362387 -0.64848268 -0.10275663 0 0 0 0 20.421711
1.8456448 -0.65965647 -0.16565976 0 0 0 0 20.426659
1.8480364 -0.66792482 -0.23260702 0 0 0 0 20.431602
1.8688526 -0.61314851 -0.10272622 0 0 0 0 20.441498
1.8631761 -0.61649281 -0.16673075 0 0 0 0 20.446445
1.8705828 -0.62571001 -0.23465133 0 0 0 0 20.451393
1.896041 -0.56558859 -0.037778988 0 0 0 0 20.456337
1.8944173 -0.57289696 -0.10374843 0 0 0 0 20.461285
1.8947624 -0.57817477 -0.16771755 0 0 0 0 20.466232
1.8961409 -0.58446252 -0.23667783 0 0 0 0 20.47118
1.9135919 -0.52442175 -0.037841137 0 0 0 0 20.476128
1.9189786 -0.53265268 -0.103775 0 0 0 0 20.481075
1.9193217 -0.53693897 -0.16974837 0 0 0 0 20.486019
1.9267042 -0.54316473 -0.23968181 0 0 0 0 20.490967
1.9441198 -0.48573598 -0.038255665 0 0 0 0 20.24271
1.9515136 -0.49395025 -0.10518015 0 0 0 0 20.247658
1.9538519 -0.49722061 -0.17214867 0 0 0 0 20.252605
1.951193 -0.49955958 -0.24214388 0 0 0 0 20.257553
1.9736944 -0.44742921 -0.03725177 0 0 0 0 20.262497
1.9690313 -0.44978622 -0.10625597 0 0 0 0 20.267445
1.9763803 -0.45400068 -0.17319773 0 0 0 0 20.272392
1.9897672 -0.45917374 -0.24610814 0 0 0 0 20.27734
4.0651388 -0.83123755 -0.040100399 0 0 0 0 20.282288
3.897414 -0.80269504 -0.17497794 0 0 0 0 20.287235
3.9260862 -0.80896616 -0.30881667 0 0 0 0 20.292179
2.0122788 -0.41395876 -0.24816567 0 0 0 0 20.297127
3.9989505 -0.72501814 -0.039824136 0 0 0 0 20.302074
3.9635301 -0.72201526 -0.17699292 0 0 0 0 20.307022
3.9711306 -0.72152495 -0.31195596 0 0 0 0 20.31197
4.6284771 -0.84216768 -0.52546084 0 0 0 0 20.316917
4.0299845 -0.6377216 -0.040026084 0 0 0 0 20.321861
4.0176044 -0.63747066 -0.1790787 0 0 0 0 20.326809
4.029192 -0.63494438 -0.31603232 0 0 0 0 20.331757
4.6201706 -0.72530425 -0.52396792 0 0 0 0 20.336704
4.0620265 -0.55141032 -0.039218903 0 0 0 0 20.341652
4.0696478 -0.54994971 -0.18118605 0 0 0 0 20.3466
4.0842328 -0.54639864 -0.3201305 0 0 0 0 20.351543
4.1140738 -0.46488217 -0.039321754 0 0 0 0 20.361439
4.1487288 -0.46513453 -0.18415928 0 0 0 0 20.366386
4.8758917 -0.44251302 -0.040939599 0 0 0 0 20.381226
4.1847177 -0.37278965 -0.18535927 0 0 0 0 20.386173
4.9347425 -0.33791915 -0.041089181 0 0 0 0 20.401016
4.9634252 -0.32935974 -0.21399203 0 0 0 0 20.40596
5.0075665 -0.23017628 -0.042188607 0 0 0 0 20.420803
5.0362406 -0.21962981 -0.21809997 0 0 0 0 20.425751
5.0893769 -0.12133147 -0.042251747 0 0 0 0 20.44059
5.1159987 -0.10482031 -0.22119769 0 0 0 0 20.445538
5.1591396 -0.0076255905 -0.043389652 0 0 0 0 20.460381
5.1797428 0.011806425 -0.22537519 0 0 0 0 20.465324
5.515861 0.11223448 -0.045257021 0 0 0 0 20.480167
5.5564446 0.13883065 -0.24018294 0 0 0 0 20.485115
5.6084733 0.24018623 -0.046351794 0 0 0 0 20.499954
5.6450429 0.269721 -0.24530828 0 0 0 0 20.504902
5.6860728 0.36996642 -0.048521742 0 0 0 0 20.519741
5.7415781 0.40669692 -0.25042316 0 0 0 0 20.524689
5.7736306 0.50385445 -0.050663698 0 0 0 0 20.539532
5.8350835 0.54663748 -0.25556388 0 0 0 0 20.544479
5.8871017 0.64602542 -0.052723363 0 0 0 0 20.559319
5.9515228 0.69381946 -0.26263136 0 0 0 0 20.564266
5.9975214 0.79316056 -0.054817382 0 0 0 0 20.579105
6.0429077 0.84572846 -0.26883131 0 0 0 0 20.584053
6.0998845 0.94620085 -0.057972249 0 0 0 0 20.598896
6.153223 1.0048388 -0.27597591 0 0 0 0 20.60384
6.1892362 1.1001006 -0.060188901 0 0 0 0 20.618683
6.2604771 1.1699135 -0.28315899 0 0 0 0 20.623631
6.3044572 1.2672734 -0.064344503 0 0 0 0 20.63847
6.3656797 1.3399636 -0.29037175 0 0 0 0 20.643417
6.2380557 1.3984663 -0.06716574 0 0 0 0 20.65826
6.2183781 1.4592983 -0.28750691 0 0 0 0 20.663204
4.8099718 1.2386854 -0.57290709 0 0 0 0 20.6731
6.2235341 1.5412276 -0.069801278 0 0 0 0 20.678047
6.3255053 1.6373633 -0.29574338 0 0 0 0 20.682995
5.5236874 1.4969375 -0.45275548 0 0 0 0 20.687943
4.7557993 1.3470517 -0.57057387 0 0 0 0 20.692886
6.2588534 1.6995288 -0.073277183 0 0 0 0 20.697834
6.2051845 1.7599875 -0.29476908 0 0 0 0 20.702782
5.5172162 1.6357913 -0.45633629 0 0 0 0 20.707729
4.7355356 1.465772 -0.57213104 0 0 0 0 20.712677
6.1012373 1.7999716 -0.074841656 0 0 0 0 21.676754
6.0535374 1.8625767 -0.29030314 0 0 0 0 21.681702
5.4892521 1.7640529 -0.45638594 0 0 0 0 21.686646
4.6886697 1.5733124 -0.569134 0 0 0 0 21.691593
5.9602046 1.9034355 -0.077853382 0 0 0 0 21.696541
5.9004936 1.9649389 -0.28836286 0 0 0 0 21.701488
5.4300251 1.8853824 -0.45610836 0 0 0 0 21.706436
4.6415696 1.6817801 -0.56774968 0 0 0 0 21.71138
5.8082466 1.9997897 -0.080883294 0 0 0 0 21.716328
5.8202658 2.0870433 -0.2891809 0 0 0 0 21.721275
5.3628116 2.0056307 -0.45586076 0 0 0 0 21.726223
4.5994654 1.7912962 -0.56734675 0 0 0 0 21.731171
5.8526397 2.1611633 -0.085311361 0 0 0 0 21.736118
5.9572644 2.290343 -0.30037126 0 0 0 0 21.741062
5.2826853 2.116756 -0.45363206 0 0 0 0 21.74601
4.5533495 1.9017761 -0.56596476 0 0 0 0 21.750957
5.9896145 2.3644853 -0.090501443 0 0 0 0 21.755905
6.0871754 2.5025673 -0.31162852 0 0 0 0 21.760853
5.2483964 2.2463338 -0.4562757 0 0 0 0 21.7658
4.5072613 2.0102532 -0.56557375 0 0 0 0 21.770744
6.1424279 2.5849597 -0.09769091 0 0 0 0 21.775692
6.1712084 2.7023251 -0.32103646 0 0 0 0 21.78064
5.1632962 2.3554108 -0.45405892 0 0 0 0 21.785587
4.4551916 2.1166739 -0.56419998 0 0 0 0 21.790535
6.2951431 2.8154297 -0.10492075 0 0 0 0 21.795483
6.0092425 2.7986028 -0.31910607 0 0 0 0 21.800426
5.1469083 2.4961667 -0.45866755 0 0 0 0 21.805374
4.4101024 2.2261593 -0.56480724 0 0 0 0 21.810322
5.0668178 2.605294 -0.45742726 0 0 0 0 21.825161
4.3809371 2.3438051 -0.56637692 0 0 0 0 21.830109
5.9243031 3.0965703 -0.32661867 0 0 0 0 21.840004
5.0096254 2.7256496 -0.45813096 0 0 0 0 21.844952
4.3248754 2.4501882 -0.5650183 0 0 0 0 21.849899
4.9474454 2.8449552 -0.45885149 0 0 0 0 21.864738
4.2628779 2.5505116 -0.56366062 0 0 0 0 21.869686
4.8902626 2.9653094 -0.4605535 0 0 0 0 21.884525
4.2267051 2.6700842 -0.5662666 0 0 0 0 21.889473
4.8181601 3.0775166 -0.46128723 0 0 0 0 21.904316
4.1656914 2.7724204 -0.56491125 0 0 0 0 21.909264
4.7549787 3.1978166 -0.46201366 0 0 0 0 21.924103
4.1106238 2.8808146 -0.56455344 0 0 0 0 21.92905
4.6858654 3.3120532 -0.46374086 0 0 0 0 21.94389
4.0545731 2.9881959 -0.56519514 0 0 0 0 21.948837
4.6067872 3.4221983 -0.46349433 0 0 0 0 21.96368
3.9935513 3.0925319 -0.56484562 0 0 0 0 21.968624
4.5505719 3.5475655 -0.46620816 0 0 0 0 21.983467
3.9603045 3.2211359 -0.56847155 0 0 0 0 21.988415
4.4804206 3.6667926 -0.46895751 0 0 0 0 22.003254
3.1402779 2.6851821 -0.46386406 0 0 0 0 22.008202
5.1691017 4.250206 -0.35625935 0 0 0 0 22.018097
3.099355 2.7807255 -0.46538916 0 0 0 0 22.027988
3.4370785 3.2338898 -0.52169615 0 0 0 0 22.047779
3.5167239 3.3181725 -0.3966544 0 0 0 0 22.062618
3.8111405 3.7563925 -0.584122 0 0 0 0 22.067566
3.7797391 3.5742259 -0.29250118 0 0 0 0 22.077461
3.7064271 3.6629407 -0.42517105 0 0 0 0 22.082405
3.6103189 3.7343967 -0.56487119 0 0 0 0 22.087353
3.8811719 3.8411486 -0.30809024 0 0 0 0 22.097248
4.1860094 4.3345022 -0.48773238 0 0 0 0 22.102196
3.5462427 3.846704 -0.56656176 0 0 0 0 22.107143
4.1279755 4.2764916 -0.33571929 0 0 0 0 22.117035
4.1266522 4.47684 -0.49252209 0 0 0 0 22.121983
3.4880621 3.9700687 -0.56927007 0 0 0 0 22.12693
4.2293806 4.377068 -0.18964599 0 0 0 0 22.131878
4.1973138 4.5540857 -0.35148922 0 0 0 0 22.136826
4.0692024 4.6291943 -0.49834272 0 0 0 0 22.141769
3.4061096 4.069211 -0.56798428 0 0 0 0 22.146717
4.2415495 4.5937896 -0.20194043 0 0 0 0 21.908043
4.2043767 4.7797422 -0.36484799 0 0 0 0 21.912991
3.8844008 4.6339555 -0.48965502 0 0 0 0 21.917938
3.3363054 4.1850138 -0.57023722 0 0 0 0 21.922886
4.198967 4.7592702 -0.2117542 0 0 0 0 21.927834
4.1913462 4.9905186 -0.37671444 0 0 0 0 21.932777
3.7735415 4.7237844 -0.48946166 0 0 0 0 21.937725
3.2819676 4.32341 -0.57399213 0 0 0 0 21.942673
4.1662049 4.9428525 -0.22159699 0 0 0 0 21.94762
4.121901 5.1417394 -0.3835867 0 0 0 0 21.952568
3.6903811 4.8448863 -0.49227217 0 0 0 0 21.957512
3.2098224 4.4426303 -0.57674688 0 0 0 0 21.96246
4.1017733 5.0941124 -0.23144715 0 0 0 0 21.967407
4.0326123 5.2777596 -0.39048356 0 0 0 0 21.972355
3.5982747 4.9608989 -0.4951005 0 0 0 0 21.977303
3.1346555 4.5638251 -0.57852191 0 0 0 0 21.98225
4.014575 5.2221465 -0.2403024 0 0 0 0 21.987194
3.9413569 5.4107623 -0.39737591 0 0 0 0 21.992142
3.5110636 5.0879598 -0.49895105 0 0 0 0 21.997089
3.061435 4.6910381 -0.58131182 0 0 0 0 22.002037
3.9213853 5.3501172 -0.25018269 0 0 0 0 22.006985
3.844142 5.53971 -0.40327695 0 0 0 0 22.011932
3.4041109 5.1888299 -0.50078154 0 0 0 0 22.016876
2.97631 4.8081398 -0.58211219 0 0 0 0 22.021824
3.8281775 5.4800901 -0.26007017 0 0 0 0 22.026772
3.8010473 5.7591834 -0.41630471 0 0 0 0 22.031719
2.8980653 4.9383054 -0.58493412 0 0 0 0 22.041615
3.7201509 5.5919185 -0.26894847 0 0 0 0 22.046558
3.6101415 5.7552152 -0.41407868 0 0 0 0 22.051506
3.2363927 5.475019 -0.51157755 0 0 0 0 22.056454
2.822681 5.0834942 -0.5898031 0 0 0 0 22.061401
3.6219797 5.7188458 -0.27884337 0 0 0 0 22.066349
3.6171 6.0721774 -0.4332774 0 0 0 0 22.071293
3.1460512 5.6170487 -0.51749814 0 0 0 0 22.076241
2.7413356 5.224628 -0.5936808 0 0 0 0 22.081188
3.6290069 6.0288119 -0.29701313 0 0 0 0 22.086136
3.5107808 6.2140298 -0.4422659 0 0 0 0 22.091084
3.289371 6.2073059 -0.56119776 0 0 0 0 22.096031
3.4961977 6.1203918 -0.30691528 0 0 0 0 22.105923
3.350383 6.2613649 -0.44411001 0 0 0 0 22.11087
3.1466315 6.2878313 -0.56109744 0 0 0 0 22.115818
2.1521132 4.6249352 -0.50975442 0 0 0 0 22.120766
3.3417749 6.1727638 -0.31475347 0 0 0 0 22.125713
3.1968293 6.324769 -0.4469879 0 0 0 0 22.130657
2.9960504 6.3522844 -0.55996591 0 0 0 0 22.135605
1.9858903 4.5453019 -0.49211517 0 0 0 0 22.140553
3.1952126 6.2392197 -0.32261303 0 0 0 0 22.1455
3.0638878 6.4283733 -0.45293617 0 0 0 0 22.150448
2.0389528 4.6081486 -0.41009948 0 0 0 0 22.155396
1.8491125 4.523942 -0.48158094 0 0 0 0 22.160339
3.0584991 6.3217692 -0.33249328 0 0 0 0 22.165287
2.9250791 6.5189209 -0.45885673 0 0 0 0 22.170235
2.917798 6.4032826 -0.34238589 0 0 0 0 22.185078
2.7842729 6.6094522 -0.46478501 0 0 0 0 22.190022
2.7849426 6.5008745 -0.35330772 0 0 0 0 22.204865
2.6482725 6.7200313 -0.47177166 0 0 0 0 22.209812
2.4365315 6.7365179 -0.56775087 0 0 0 0 22.214756
2.6510794 6.5994592 -0.36423698 0 0 0 0 22.224651
2.4996006 6.7974896 -0.47767997 0 0 0 0 22.229599
2.3023458 6.8651299 -0.57280016 0 0 0 0 22.234547
2.5180931 6.7110524 -0.37621352 0 0 0 0 22.244438
2.351871 6.8809609 -0.48360729 0 0 0 0 22.249386
2.1681125 6.9987454 -0.57786846 0 0 0 0 22.254333
2.375315 6.8015537 -0.38714734 0 0 0 0 22.264229
2.2049878 6.9804406 -0.49059397 0 0 0 0 22.269176
2.0163136 7.0881948 -0.58083564 0 0 0 0 22.27412
2.2324634 6.9000549 -0.39911249 0 0 0 0 22.284016
2.0580416 7.0869193 -0.49860787 0 0 0 0 22.288963
1.7833467 6.8829188 -0.55997819 0 0 0 0 22.293911
1.4053581 6.1870399 -0.57783371 0 0 0 0 22.298859
2.0857136 6.9885192 -0.41105357 0 0 0 0 22.303802
1.8850024 7.1001582 -0.50136209 0 0 0 0 22.30875
1.4759438 6.3069973 -0.51196539 0 0 0 0 22.313698
1.2084986 5.9671578 -0.550762 0 0 0 0 22.318645
1.9397817 7.0959926 -0.42406592 0 0 0 0 22.323593
1.5600899 6.4780293 -0.46124175 0 0 0 0 22.328537
1.2809501 6.1041021 -0.49295342 0 0 0 0 22.333485
1.0436449 5.8505702 -0.53196347 0 0 0 0 22.338432
1.6581061 6.6612101 -0.40750563 0 0 0 0 22.34338
1.3609728 6.2910624 -0.45031121 0 0 0 0 22.348328
1.469353 6.5433054 -0.40780517 0 0 0 0 22.363167
1.4347887 7.4615149 -0.53060269 0 0 0 0 22.368114
1.4877632 7.4225845 -0.46686971 0 0 0 0 22.130169
1.2764357 7.5881591 -0.54244602 0 0 0 0 22.135117
1.0764139 7.8208718 -0.61324191 0 0 0 0 22.140064
0.85023683 7.9703112 -0.68581748 0 0 0 0 22.145008
1.327855 7.5279012 -0.48193705 0 0 0 0 22.149956
1.1134278 7.701468 -0.55255795 0 0 0 0 22.154903
0.89500809 7.8700366 -0.61317569 0 0 0 0 22.159851
0.67288876 8.1145163 -0.68811381 0 0 0 0 22.164799
1.1630154 7.6261754 -0.49599662 0 0 0 0 22.169746
0.93775499 7.7806602 -0.56058723 0 0 0 0 22.17469
0.72091788 7.9902577 -0.61936158 0 0 0 0 22.179638
0.49043846 8.2696695 -0.69147503 0 0 0 0 22.184586
1.0008805 7.7554698 -0.51316762 0 0 0 0 22.189533
0.77033478 7.9369226 -0.57388836 0 0 0 0 22.194481
0.5407908 8.1144218 -0.62558836 0 0 0 0 22.199429
0.29963064 8.3587618 -0.68960649 0 0 0 0 22.204372
0.8307789 7.8816876 -0.5303598 0 0 0 0 22.20932
0.59424412 8.0601044 -0.58609343 0 0 0 0 22.214268
0.35672674 8.2325525 -0.63180691 0 0 0 0 22.219215
0.10535297 8.496809 -0.69194806 0 0 0 0 22.224163
0.65672481 8.0038662 -0.54855192 0 0 0 0 22.229107
0.41027224 8.1712141 -0.59728342 0 0 0 0 22.234055
0.16853458 8.3646364 -0.64009804 0 0 0 0 22.239002
-0.092585117 8.5998354 -0.69116408 0 0 0 0 22.24395
0.47574937 8.1179838 -0.5657407 0 0 0 0 22.248898
0.2240468 8.3092966 -0.61158979 0 0 0 0 22.253845
-0.028658373 8.4966393 -0.64742678 0 0 0 0 22.258789
-0.2991963 8.7727623 -0.69569618 0 0 0 0 22.263737
0.29326582 8.2850761 -0.58714658 0 0 0 0 22.268684
0.030695381 8.4603109 -0.62597758 0 0 0 0 22.273632
-0.2278737 8.6316233 -0.65577483 0 0 0 0 22.27858
-0.51701319 8.9675751 -0.70236295 0 0 0 0 22.283527
0.10226559 8.4030933 -0.60639209 0 0 0 0 22.288471
-0.16740353 8.5862818 -0.6402846 0 0 0 0 22.293419
-0.43625018 8.7835178 -0.66522902 0 0 0 0 22.298367
-0.72832245 9.0064955 -0.69737703 0 0 0 0 22.303314
-0.095911741 8.5400372 -0.62774312 0 0 0 0 22.308262
-0.37382832 8.7461681 -0.65676194 0 0 0 0 22.31321
-0.65380275 8.9543171 -0.67679709 0 0 0 0 22.318153
-0.95578706 9.1652317 -0.70093876 0 0 0 0 22.323101
-0.29870391 8.7409258 -0.65336806 0 0 0 0 22.328049
-0.59068817 8.9519415 -0.67746627 0 0 0 0 22.332996
-0.87710172 9.0990715 -0.68628466 0 0 0 0 22.337944
-1.1944072 9.3408566 -0.70661479 0 0 0 0 22.342888
-0.51779062 8.9736433 -0.68318909 0 0 0 0 22.347836
-0.81059188 9.058713 -0.69078726 0 0 0 0 22.352783
-1.1147404 9.2796783 -0.69897604 0 0 0 0 22.357731
-1.4452409 9.5383654 -0.7124294 0 0 0 0 22.362679
-0.72986251 8.9974823 -0.69814521 0 0 0 0 22.367626
-1.0451695 9.2363234 -0.71045309 0 0 0 0 22.37257
-1.3594141 9.464221 -0.71171194 0 0 0 0 22.377518
-1.7037669 9.7048073 -0.71715182 0 0 0 0 22.382465
-0.96159828 9.1950865 -0.72687805 0 0 0 0 22.387413
-1.288792 9.4188499 -0.73017603 0 0 0 0 22.392361
-1.6139544 9.6356716 -0.72443682 0 0 0 0 22.397308
-1.9714524 9.8881607 -0.72297966 0 0 0 0 22.402252
-1.2063344 9.3935633 -0.7566691 0 0 0 0 22.4072
-1.540287 9.5892992 -0.7508834 0 0 0 0 22.412148
-1.8826339 9.8219843 -0.73828053 0 0 0 0 22.417095
-2.2469146 10.04845 -0.72674769 0 0 0 0 22.422043
-1.456664 9.5500011 -0.7833153 0 0 0 0 22.426991
-1.8037971 9.7616367 -0.77164871 0 0 0 0 22.431934
-2.1623087 10.008195 -0.75216967 0 0 0 0 22.436882
-2.5706632 10.343238 -0.74025834 0 0 0 0 22.44183
-1.7235351 9.7642593 -0.81626159 0 0 0 0 22.446777
-2.0803475 9.9388466 -0.7934882 0 0 0 0 22.451725
-2.4478602 10.182353 -0.76603454 0 0 0 0 22.456673
-2.8991966 10.615993 -0.75169957 0 0 0 0 22.461617
-2.0032625 9.9643965 -0.84920555 0 0 0 0 22.466564
-2.3617854 10.105015 -0.81530333 0 0 0 0 22.471512
-2.789907 10.512926 -0.79076385 0 0 0 0 22.47646
-2.281532 10.117561 -0.87995481 0 0 0 0 22.486351
-2.7018473 10.442562 -0.85205114 0 0 0 0 22.491299
-3.1189556 10.740652 -0.81002581 0 0 0 0 22.496246
-4.5552135 14.081091 -0.96949279 0 0 0 0 22.501194
-2.6217451 10.476062 -0.92878562 0 0 0 0 22.506142
-3.0392549 10.712162 -0.883515 0 0 0 0 22.511089
-3.4763174 11.001104 -0.83053797 0 0 0 0 22.516033
-5.00142 14.323738 -0.97730803 0 0 0 0 22.520981
-2.9641767 10.753567 -0.9723019 0 0 0 0 22.525928
-3.3843369 10.948696 -0.91387856 0 0 0 0 22.530876
-3.8682537 11.323204 -0.85744184 0 0 0 0 22.535824
-5.4830723 14.613041 -0.98745906 0 0 0 0 22.540771
-3.3092041 10.990056 -1.0146644 0 0 0 0 22.545715
-3.7669187 11.238852 -0.9496147 0 0 0 0 22.550663
-4.2698474 11.610224 -0.8822456 0 0 0 0 22.555611
-6.0153098 14.964842 -1.0030736 0 0 0 0 22.560558
-3.6661081 11.214437 -1.0570279 0 0 0 0 22.565506
-4.1860237 11.585637 -0.99173045 0 0 0 0 22.570454
-4.69136 11.889062 -0.90610039 0 0 0 0 22.575397
-6.575655 15.32838 -1.0188527 0 0 0 0 22.580345
-4.0758901 11.533271 -1.109992 0 0 0 0 22.585293
-4.5922236 11.837584 -1.0264119 0 0 0 0 22.59024
-5.210701 12.361899 -0.94614327 0 0 0 0 22.595188
-7.1925039 15.745367 -1.0380839 0 0 0 0 22.600132
-4.4950929 11.818463 -1.1627834 0 0 0 0 22.365585
-5.0508347 12.155364 -1.0695229 0 0 0 0 22.370533
-5.6473932 12.570903 -0.96775192 0 0 0 0 22.375481
-7.7407646 15.961074 -1.0453403 0 0 0 0 22.380428
-4.9447403 12.12185 -1.218872 0 0 0 0 22.385372
-5.5450177 12.509356 -1.1170042 0 0 0 0 22.39032
-6.1980944 12.972393 -1.0036653 0 0 0 0 22.395267
-9.1311893 17.77808 -1.1525267 0 0 0 0 22.400215
-5.452229 12.515635 -1.2865688 0 0 0 0 22.405163
-6.1038909 12.936693 -1.172055 0 0 0 0 22.41011
-7.9184804 15.633776 -1.2116517 0 0 0 0 22.415054
-9.834156 18.1012 -1.1657677 0 0 0 0 22.420002
-5.9743571 12.873289 -1.3531816 0 0 0 0 22.42495
-6.4858165 12.951906 -1.1926937 0 0 0 0 22.429897
-8.1949253 15.284183 -1.1943709 0 0 0 0 22.434845
-10.197982 17.788803 -1.1400046 0 0 0 0 22.439793
-6.4264941 13.022708 -1.401659 0 0 0 0 22.444736
-6.668982 12.572206 -1.1778978 0 0 0 0 22.449684
-9.6078053 16.962887 -1.3320872 0 0 0 0 22.454632
-10.614623 17.559881 -1.1188028 0 0 0 0 22.459579
-6.6268291 12.663805 -1.3960209 0 0 0 0 22.464527
-6.7933378 12.10612 -1.1545049 0 0 0 0 22.469471
-9.8815279 16.539356 -1.3114954 0 0 0 0 22.474419
-10.940962 17.195879 -1.0906725 0 0 0 0 22.479366
-6.7357473 12.153863 -1.3743875 0 0 0 0 22.484314
-6.9089274 11.664113 -1.1341714 0 0 0 0 22.489262
-10.613354 16.858139 -1.347839 0 0 0 0 22.494209
-12.886725 19.265497 -1.2122266 0 0 0 0 22.499153
-6.8328943 11.666039 -1.352793 0 0 0 0 22.504101
-8.7739172 14.052731 -1.3793846 0 0 0 0 22.509048
-10.966679 16.557667 -1.3316457 0 0 0 0 22.513996
-13.203183 18.786612 -1.1700236 0 0 0 0 22.518944
-6.8631234 11.105524 -1.3174669 0 0 0 0 22.523891
-8.9666834 13.629982 -1.3644401 0 0 0 0 22.528835
-11.307442 16.240494 -1.3206792 0 0 0 0 22.533783
-13.518655 18.331781 -1.1384193 0 0 0 0 22.538731
-6.8564367 10.52277 -1.2821336 0 0 0 0 22.543678
-9.1242561 13.185589 -1.3472743 0 0 0 0 22.548626
-11.674542 15.958062 -1.3119497 0 0 0 0 22.553574
-13.830206 17.883999 -1.106827 0 0 0 0 22.558517
-6.7751613 9.874773 -1.2372588 0 0 0 0 22.563465
-10.734723 14.753388 -1.5345422 0 0 0 0 22.568413
-11.96176 15.582435 -1.2975477 0 0 0 0 22.57336
-14.144828 17.443182 -1.0772746 0 0 0 0 22.578308
-8.9787645 12.443202 -1.5926974 0 0 0 0 22.583252
-10.980855 14.370126 -1.5269545 0 0 0 0 22.5882
-12.239874 15.194906 -1.282065 0 0 0 0 22.593147
-14.439446 17.001566 -1.0486404 0 0 0 0 22.598095
-8.7965765 11.59128 -1.5266402 0 0 0 0 22.603043
-11.945477 14.894571 -1.6166685 0 0 0 0 22.60799
-14.384002 17.033682 -1.4534465 0 0 0 0 22.612934
-14.744172 16.569859 -1.0200849 0 0 0 0 22.617882
-8.6474237 10.847998 -1.4711322 0 0 0 0 22.622829
-12.290436 14.600327 -1.6218082 0 0 0 0 22.627777
-14.686636 16.596952 -1.4368643 0 0 0 0 22.632725
-15.028866 16.13435 -0.99243635 0 0 0 0 22.637672
-11.185328 13.36517 -1.8576547 0 0 0 0 22.642616
-12.581916 14.253631 -1.6205364 0 0 0 0 22.647564
-14.984247 16.157274 -1.421252 0 0 0 0 22.652512
-15.360108 15.756378 -0.97019148 0 0 0 0 22.657459
-11.156817 12.694686 -1.8188945 0 0 0 0 22.662407
-12.933022 13.974332 -1.628757 0 0 0 0 22.667355
-15.30421 15.754372 -1.4098685 0 0 0 0 22.672298
-15.62064 15.302114 -0.94237798 0 0 0 0 22.677246
-11.084304 12.020642 -1.7759504 0 0 0 0 22.682194
-13.24064 13.641483 -1.6306025 0 0 0 0 22.687141
-15.585876 15.318859 -1.3952106 0 0 0 0 22.692089
-15.90555 14.887609 -0.91881275 0 0 0 0 22.697033
-10.898021 11.259749 -1.7172318 0 0 0 0 22.701981
-13.521107 13.291907 -1.6312772 0 0 0 0 22.706928
-15.875616 14.89027 -1.3816119 0 0 0 0 22.711876
-16.208668 14.493931 -0.89639914 0 0 0 0 22.716824
-12.990659 12.793672 -2.0092113 0 0 0 0 22.721771
-13.788407 12.923471 -1.6298294 0 0 0 0 22.726715
-16.159437 14.469739 -1.3700212 0 0 0 0 22.731663
-16.475473 14.066612 -0.87271565 0 0 0 0 22.73661
-13.28031 12.466959 -2.024013 0 0 0 0 22.741558
-14.075977 12.583833 -1.6325709 0 0 0 0 22.746506
-16.456333 14.056089 -1.3585093 0 0 0 0 22.751453
-16.763557 13.668088 -0.85122603 0 0 0 0 22.756397
-13.60319 12.164919 -2.0430391 0 0 0 0 22.761345
-16.414608 13.9937 -1.8660189 0 0 0 0 22.766293
-16.740225 13.641566 -1.3479434 0 0 0 0 22.77124
-17.047621 13.266605 -0.83071017 0 0 0 0 22.776188
-13.917026 11.856977 -2.0610075 0 0 0 0 22.781136
-16.702353 13.567106 -1.8654237 0 0 0 0 22.786079
-17.018124 13.227105 -1.3383551 0 0 0 0 22.791027
-17.334669 12.863097 -0.81119937 0 0 0 0 22.795975
-14.208672 11.52826 -2.07781 0 0 0 0 22.800922
-17.011328 13.165301 -1.8690066 0 0 0 0 22.80587
-17.30604 12.81355 -1.3298106 0 0 0 0 22.810814
-17.607708 12.45773 -0.79162717 0 0 0 0 22.815762
-14.480112 11.175756 -2.0904441 0 0 0 0 22.820709
-17.301189 12.749694 -1.8704629 0 0 0 0 22.825657
-17.580948 12.39813 -1.3202089 0 0 0 0 22.830605
-17.890764 12.053273 -0.7720989 0 0 0 0 22.835552
-17.275019 12.68267 -2.4617751 0 0 0 0 22.724628
-17.582802 12.318977 -1.8725843 0 0 0 0 22.729576
-17.868803 11.990379 -1.3144401 0 0 0 0 22.73452
-17.574711 12.255909 -2.4762273 0 0 0 0 22.744415
-4.2255068 -3.3745584 -0.6120137 0 0 0 0 23.971687
-4.2493448 -3.4304683 -0.26784101 0 0 0 0 24.001369
-4.2604437 -3.3759718 -0.10606504 0 0 0 0 24.006317
-2.7391248 -4.3632069 -0.12932985 0 0 0 0 24.303139
-1.6013025 -4.4143896 -0.40909958 0 0 0 0 24.1689
-1.5165286 -4.5076313 -0.40742424 0 0 0 0 24.18869
-1.5816166 -4.4278374 -0.30694169 0 0 0 0 24.193634
-1.3976418 -4.50354 -0.39696559 0 0 0 0 24.208477
-1.5201688 -4.5953121 -0.31209266 0 0 0 0 24.213425
-1.2400186 -4.3590727 -0.37685749 0 0 0 0 24.228264
-1.3769832 -4.5110078 -0.30182654 0 0 0 0 24.233212
-1.4769343 -4.5496182 -0.22805661 0 0 0 0 24.238159
-1.1455646 -4.4172249 -0.37227201 0 0 0 0 24.248055
-1.2339952 -4.4047008 -0.28963894 0 0 0 0 24.252998
-1.3279765 -4.4372797 -0.22186784 0 0 0 0 24.257946
-1.4367027 -4.4999809 -0.15204571 0 0 0 0 24.262894
-1.0385425 -4.4272575 -0.36480987 0 0 0 0 24.267841
-1.1346534 -4.448822 -0.2880854 0 0 0 0 24.272789
-1.2170452 -4.434298 -0.22043663 0 0 0 0 24.277737
-1.2926675 -4.3937097 -0.15185414 0 0 0 0 24.282681
-0.94871825 -4.5264702 -0.36409912 0 0 0 0 24.287628
-1.0256988 -4.4498506 -0.28364828 0 0 0 0 24.292576
-1.114784 -4.4684024 -0.22090812 0 0 0 0 24.297523
-1.2002113 -4.4489107 -0.15528785 0 0 0 0 24.302471
-0.85977077 -4.6396966 -0.36434358 0 0 0 0 24.307415
-0.94162112 -4.5771265 -0.28586128 0 0 0 0 24.312363
-1.009684 -4.4844809 -0.22043312 0 0 0 0 24.31731
-1.0931221 -4.4619851 -0.15881582 0 0 0 0 24.322258
-0.72135669 -4.4704113 -0.3443962 0 0 0 0 24.327206
-0.84022224 -4.6282372 -0.28427824 0 0 0 0 24.332153
-0.92948407 -4.6248031 -0.2256158 0 0 0 0 24.337097
-0.99187672 -4.4931135 -0.16230293 0 0 0 0 24.342045
-0.58529288 -4.2611418 -0.32259747 0 0 0 0 24.346992
-0.69429743 -4.4008985 -0.2675063 0 0 0 0 24.35194
-0.80994427 -4.5777483 -0.22231005 0 0 0 0 24.356888
-0.91839868 -4.6645074 -0.17040274 0 0 0 0 24.361835
-0.46302539 -4.0740027 -0.30277207 0 0 0 0 24.366779
-0.56500018 -4.2147193 -0.25365153 0 0 0 0 24.371727
-0.6707688 -4.3754997 -0.21347503 0 0 0 0 24.376675
-0.78359991 -4.531323 -0.16834219 0 0 0 0 24.381622
-0.35252041 -3.912977 -0.28489858 0 0 0 0 24.38657
-0.44662499 -4.0366416 -0.24080859 0 0 0 0 24.391518
-0.54058808 -4.1733322 -0.20467269 0 0 0 0 24.396461
-0.64738959 -4.3301239 -0.16551422 0 0 0 0 24.401409
-0.24905938 -3.7460179 -0.26807162 0 0 0 0 24.406357
-0.33718967 -3.8646474 -0.22897719 0 0 0 0 24.411304
-0.42511326 -4.0043001 -0.19680864 0 0 0 0 24.416252
-0.52300143 -4.1490312 -0.16265944 0 0 0 0 24.421196
-0.15631516 -3.6101658 -0.25417536 0 0 0 0 24.426144
-0.23751315 -3.7197449 -0.21808693 0 0 0 0 24.431091
-0.31952673 -3.8473594 -0.18993869 0 0 0 0 24.436039
-0.40756917 -3.9730148 -0.15881971 0 0 0 0 24.440987
-0.069507115 -3.4813673 -0.24027619 0 0 0 0 24.445934
-0.1457134 -3.5879207 -0.20917994 0 0 0 0 24.450878
-0.22190171 -3.6944904 -0.18308367 0 0 0 0 24.455826
-0.30391821 -3.821111 -0.15693915 0 0 0 0 24.460773
0.011432221 -3.3666294 -0.22834945 0 0 0 0 24.465721
-0.060858574 -3.4621582 -0.20027724 0 0 0 0 24.470669
-0.13008478 -3.5626814 -0.17817639 0 0 0 0 24.475616
-0.20722893 -3.6732697 -0.15506984 0 0 0 0 24.48056
0.085412711 -3.2559566 -0.21743409 0 0 0 0 24.485508
0.019140644 -3.3524439 -0.19233634 0 0 0 0 24.490456
-0.047126912 -3.4469516 -0.17324562 0 0 0 0 24.495403
-0.1174157 -3.53949 -0.15317667 0 0 0 0 24.500351
0.15549044 -3.1563196 -0.20649447 0 0 0 0 24.505299
0.092142791 -3.2427914 -0.18442088 0 0 0 0 24.510242
0.030825352 -3.3302665 -0.16833642 0 0 0 0 24.51519
-0.035410319 -3.4277802 -0.15123528 0 0 0 0 24.520138
0.22253154 -3.0517142 -0.19658315 0 0 0 0 24.525085
0.16218565 -3.1371698 -0.17750211 0 0 0 0 24.530033
0.10491273 -3.2286205 -0.16438898 0 0 0 0 24.534977
0.041610166 -3.3171189 -0.15030846 0 0 0 0 24.539925
0.1507282 -1.6040418 -0.11363615 0 0 0 0 24.677338
0.22817957 -3.0456491 -0.17136702 0 0 0 0 24.682281
0.17381293 -3.1260767 -0.16028221 0 0 0 0 24.687229
0.11448842 -3.2115464 -0.14919826 0 0 0 0 24.692177
0.18445741 -1.5747492 -0.10958127 0 0 0 0 24.697124
0.15256746 -1.5919912 -0.10063078 0 0 0 0 24.702072
0.23797287 -3.0315247 -0.15634559 0 0 0 0 24.707016
0.18259563 -3.109967 -0.14727148 0 0 0 0 24.711964
0.22570066 -1.6044096 -0.10929567 0 0 0 0 24.716911
0.18735051 -1.5677009 -0.099554807 0 0 0 0 24.721859
0.15958843 -1.5979251 -0.095544457 0 0 0 0 24.726807
0.24672596 -3.0104265 -0.14635202 0 0 0 0 24.731754
0.27418306 -1.6620141 -0.10988773 0 0 0 0 24.736698
0.2317574 -1.6163392 -0.10019252 0 0 0 0 24.741646
0.19332963 -1.5686442 -0.094489552 0 0 0 0 24.746593
0.16452864 -1.5938801 -0.091500208 0 0 0 0 24.751541
0.32465562 -1.7186028 -0.11047663 0 0 0 0 24.756489
0.2802341 -1.6729479 -0.10178851 0 0 0 0 24.761436
0.23878522 -1.6222813 -0.097106643 0 0 0 0 24.76638
0.20038711 -1.577589 -0.092392914 0 0 0 0 24.771328
0.37604254 -1.7651846 -0.11109725 0 0 0 0 24.776276
0.32862526 -1.7195581 -0.1034198 0 0 0 0 24.781223
0.28722259 -1.6738945 -0.099720381 0 0 0 0 24.786171
0.24580339 -1.6262308 -0.096027754 0 0 0 0 24.791119
0.43455425 -1.8267082 -0.1116411 0 0 0 0 24.796062
0.38309911 -1.7761186 -0.10499529 0 0 0 0 24.80101
0.33767545 -1.7274919 -0.10232056 0 0 0 0 24.805958
0.29426879 -1.680848 -0.099631518 0 0 0 0 24.810905
0.49711475 -1.8941991 -0.1121504 0 0 0 0 24.815853
0.44059673 -1.835655 -0.10655018 0 0 0 0 24.820797
0.39316404 -1.7850516 -0.1058894 0 0 0 0 24.825745
0.34571126 -1.7324448 -0.10423541 0 0 0 0 24.830692
0.56777763 -1.9736273 -0.11359002 0 0 0 0 24.83564
0.50415498 -1.9021454 -0.10905984 0 0 0 0 24.840588
0.45167264 -1.8455839 -0.10843772 0 0 0 0 24.845535
0.40124449 -1.7950085 -0.10878744 0 0 0 0 24.850479
0.6383428 -2.0420542 -0.11406858 0 0 0 0 24.855427
0.57381189 -1.9805865 -0.11150713 0 0 0 0 24.860374
0.5172956 -1.9190652 -0.11291651 0 0 0 0 24.865322
0.46175456 -1.8545355 -0.11433243 0 0 0 0 24.87027
0.72007316 -2.1303897 -0.11443914 0 0 0 0 24.875217
0.65050375 -2.062974 -0.11491621 0 0 0 0 24.880161
0.58587122 -1.9875197 -0.11640257 0 0 0 0 24.885109
0.52736324 -1.9260212 -0.1198187 0 0 0 0 24.890057
0.83441609 -2.2904704 -0.11844674 0 0 0 0 24.895004
0.73218143 -2.1443179 -0.11731165 0 0 0 0 24.899952
0.66460234 -2.0738986 -0.12179126 0 0 0 0 24.9049
0.60002357 -2.0034533 -0.12625983 0 0 0 0 24.909843
0.91788751 -2.3487911 -0.11791588 0 0 0 0 24.914791
0.84345412 -2.2954326 -0.1233622 0 0 0 0 24.919739
0.75037283 -2.1652203 -0.1271385 0 0 0 0 24.924686
0.67771524 -2.0848451 -0.13267007 0 0 0 0 24.929634
1.8637524 -4.4542866 -0.19626525 0 0 0 0 24.934578
0.92999011 -2.3607361 -0.12479698 0 0 0 0 24.939526
0.85852194 -2.3013656 -0.13425259 0 0 0 0 24.944473
0.76754481 -2.1821451 -0.14098296 0 0 0 0 24.949421
1.9581978 -4.3955021 -0.18910439 0 0 0 0 24.954369
1.8726201 -4.4382987 -0.21126533 0 0 0 0 24.959316
0.94811749 -2.3726556 -0.13865654 0 0 0 0 24.96426
0.8756693 -2.3143024 -0.15111183 0 0 0 0 24.969208
2.1137402 -4.4662328 -0.18628082 0 0 0 0 24.974155
1.9680858 -4.3805175 -0.20709747 0 0 0 0 24.979103
1.8955964 -4.4292421 -0.24019073 0 0 0 0 24.984051
0.95910156 -2.365648 -0.15660673 0 0 0 0 24.988998
2.3159862 -4.6205916 -0.18600465 0 0 0 0 24.993942
2.1429751 -4.4901152 -0.21107244 0 0 0 0 24.99889
2.007354 -4.4043455 -0.24085216 0 0 0 0 25.003838
1.9124824 -4.40626 -0.27618575 0 0 0 0 25.008785
2.4834409 -4.681231 -0.18317534 0 0 0 0 25.013733
2.3339853 -4.6145835 -0.21494015 0 0 0 0 25.018681
2.2137487 -4.5717134 -0.25251803 0 0 0 0 25.023624
2.0364723 -4.4062886 -0.28371856 0 0 0 0 25.028572
1.4254133 -2.5476735 -0.10823745 0 0 0 0 25.03352
1.378758 -2.5801454 -0.13129015 0 0 0 0 25.038467
2.3772109 -4.6294184 -0.25871381 0 0 0 0 25.043415
2.2428081 -4.5646772 -0.30041668 0 0 0 0 25.048359
1.4668862 -2.4883351 -0.10326333 0 0 0 0 25.053307
1.4262871 -2.5267632 -0.12827387 0 0 0 0 25.058254
1.4008456 -2.5820835 -0.15817237 0 0 0 0 25.063202
2.4022012 -4.612432 -0.31066185 0 0 0 0 25.06815
1.5387704 -2.4777546 -0.10001383 0 0 0 0 25.073097
1.4758705 -2.4793692 -0.12622985 0 0 0 0 25.078041
1.4392475 -2.5127807 -0.15624309 0 0 0 0 25.082989
1.4057056 -2.5551739 -0.18821479 0 0 0 0 25.087936
1.5802658 -2.4204218 -0.096032821 0 0 0 0 25.092884
1.5335735 -2.4459128 -0.12510929 0 0 0 0 25.097832
1.4989656 -2.4803143 -0.15711193 0 0 0 0 25.102779
1.4593283 -2.5107603 -0.19014616 0 0 0 0 25.107723
1.6460774 -2.4008942 -0.092836 0 0 0 0 25.112671
1.5923066 -2.4164462 -0.12297162 0 0 0 0 25.117619
1.5556562 -2.4448707 -0.15700191 0 0 0 0 25.122566
1.4997681 -2.4444528 -0.19119914 0 0 0 0 25.127514
3.5805027 -4.970365 -0.15914752 0 0 0 0 25.132462
1.6520194 -2.3839762 -0.12184075 0 0 0 0 25.137405
1.6133512 -2.4094241 -0.1578884 0 0 0 0 25.142353
1.5716621 -2.4318993 -0.19495697 0 0 0 0 25.147301
3.6602886 -4.8478909 -0.14999303 0 0 0 0 25.621628
3.5952411 -4.9366708 -0.22492799 0 0 0 0 25.626575
1.6787012 -2.3855357 -0.15811469 0 0 0 0 25.631523
1.6289153 -2.3960669 -0.19725005 0 0 0 0 25.636467
1.2136174 -1.536878 -0.062542722 0 0 0 0 25.641415
3.6671128 -4.8021302 -0.22010645 0 0 0 0 25.646362
3.613024 -4.8818517 -0.30403274 0 0 0 0 25.65131
1.7048211 -2.3845046 -0.20099509 0 0 0 0 25.656258
1.2473606 -1.5066215 -0.059494171 0 0 0 0 25.661205
1.2236522 -1.5319046 -0.086487599 0 0 0 0 25.666149
3.69803 -4.7622218 -0.30311543 0 0 0 0 25.671097
3.635921 -4.8360319 -0.39508969 0 0 0 0 25.676044
1.2680137 -1.4644721 -0.057530954 0 0 0 0 25.680992
1.2543713 -1.497679 -0.085462809 0 0 0 0 25.68594
1.236657 -1.5209243 -0.11544185 0 0 0 0 25.690887
3.7087758 -4.6965017 -0.39528039 0 0 0 0 25.695831
1.297735 -1.4312487 -0.054506272 0 0 0 0 25.700779
1.28106 -1.4594858 -0.084465235 0 0 0 0 25.705727
1.2643567 -1.4837263 -0.11543746 0 0 0 0 25.710674
1.2506918 -1.5119494 -0.14838594 0 0 0 0 25.715622
1.3224292 -1.3940688 -0.052512255 0 0 0 0 25.72057
1.3057382 -1.4203057 -0.082477883 0 0 0 0 25.725513
1.2920495 -1.445529 -0.11543632 0 0 0 0 25.730461
1.2814113 -1.4767314 -0.14936441 0 0 0 0 25.735409
1.3461131 -1.3558941 -0.049524963 0 0 0 0 25.740356
1.3314444 -1.3841217 -0.081476979 0 0 0 0 25.745304
1.3197511 -1.4083321 -0.11543176 0 0 0 0 25.750248
1.306069 -1.4335614 -0.15039022 0 0 0 0 25.755196
1.3718247 -1.3207073 -0.047520649 0 0 0 0 25.760143
1.3551202 -1.3439538 -0.080496192 0 0 0 0 25.765091
1.3434266 -1.3681643 -0.11445101 0 0 0 0 25.770039
1.3327632 -1.3953731 -0.15039241 0 0 0 0 25.774986
1.3945218 -1.283545 -0.045533322 0 0 0 0 25.77993
1.3818359 -1.308763 -0.07948833 0 0 0 0 25.784878
1.3711455 -1.3329687 -0.11443967 0 0 0 0 25.789825
1.3614732 -1.3581762 -0.15238422 0 0 0 0 25.794773
1.4202396 -1.2493562 -0.042525545 0 0 0 0 25.799721
1.4095681 -1.275565 -0.078470297 0 0 0 0 25.804668
1.3938264 -1.2928131 -0.11446217 0 0 0 0 25.809612
1.3831382 -1.3160282 -0.15241683 0 0 0 0 25.81456
1.4479693 -1.2161556 -0.040507428 0 0 0 0 25.819508
1.4322623 -1.2374068 -0.07748609 0 0 0 0 25.824455
1.4215471 -1.2576188 -0.11445067 0 0 0 0 25.829403
1.4088466 -1.2788528 -0.1534189 0 0 0 0 25.834351
1.4696689 -1.1790028 -0.038523301 0 0 0 0 25.839294
1.4579884 -1.2032255 -0.076478176 0 0 0 0 25.844242
1.4432377 -1.218472 -0.11447313 0 0 0 0 25.84919
1.4375826 -1.2446575 -0.15540057 0 0 0 0 25.854137
1.4944003 -1.1458267 -0.036515467 0 0 0 0 25.859085
1.4776688 -1.1630919 -0.07551077 0 0 0 0 25.864029
1.4709756 -1.1852789 -0.1144549 0 0 0 0 25.868977
1.4612694 -1.204499 -0.15641929 0 0 0 0 25.873924
1.5130862 -1.1066984 -0.034548119 0 0 0 0 25.878872
1.5124428 -1.1348417 -0.074451715 0 0 0 0 25.88382
1.4906524 -1.1441488 -0.11449064 0 0 0 0 25.888767
1.4869803 -1.1673251 -0.1574211 0 0 0 0 25.893711
1.5428348 -1.0754846 -0.032516204 0 0 0 0 25.898659
1.5301173 -1.0937247 -0.073494315 0 0 0 0 25.903606
1.5234185 -1.1139212 -0.11544506 0 0 0 0 25.908554
1.5126922 -1.1301521 -0.15842281 0 0 0 0 25.913502
1.5595146 -1.0353729 -0.03055883 0 0 0 0 25.918449
1.5558467 -1.0595459 -0.072486073 0 0 0 0 25.923393
1.5431049 -1.0737922 -0.1154773 0 0 0 0 25.928341
1.5404238 -1.0949671 -0.16041093 0 0 0 0 25.933289
1.5902724 -1.0051525 -0.028520048 0 0 0 0 25.938236
