# .PCD v0.7 - Point Cloud Data file format
VERSION 0.7
FIELDS x y z normal_x normal_y normal_z intensity curvature
SIZE 4 4 4 4 4 4 4 4
TYPE F F F F F F F F
COUNT 1 1 1 1 1 1 1 1
WIDTH 980
HEIGHT 1
VIEWPOINT 0 0 0 1 0 0 0
POINTS 980
DATA ascii
1.8513203 5.1923785 5.9489889 0 0 0 0 23.657343
1.7386783 5.4465432 5.9135709 0 0 0 0 23.662289
1.6118665 5.6808167 5.8941417 0 0 0 0 23.667236
1.4741677 5.9261856 5.8807459 0 0 0 0 23.672182
1.7384369 5.2205615 5.9212255 0 0 0 0 23.67713
1.6157451 5.4688067 5.8938117 0 0 0 0 23.682077
1.4809377 5.7021356 5.8863916 0 0 0 0 23.687023
1.3310325 5.9276276 5.8659811 0 0 0 0 23.691971
1.6275918 5.2517095 5.9004626 0 0 0 0 23.696918
1.4948585 5.4950371 5.8800545 0 0 0 0 23.701864
1.3467913 5.7035055 5.8616128 0 0 0 0 23.706812
1.1846728 5.9081192 5.8351855 0 0 0 0 23.71176
1.5188371 5.2908177 5.8897076 0 0 0 0 23.716705
1.3708665 5.511301 5.8602843 0 0 0 0 23.721653
1.2147268 5.7118354 5.8468409 0 0 0 0 23.726601
1.0414066 5.8965588 5.8153968 0 0 0 0 23.731546
1.408021 5.3239446 5.8769455 0 0 0 0 23.736494
1.2488896 5.5285354 5.844512 0 0 0 0 23.741442
1.0816007 5.7141743 5.8290591 0 0 0 0 23.746387
0.8980245 5.8740067 5.7875891 0 0 0 0 23.751335
1.2941172 5.3491073 5.8571734 0 0 0 0 23.756283
1.1269481 5.5487561 5.8337421 0 0 0 0 23.761229
0.94838148 5.7075167 5.8062625 0 0 0 0 23.766176
0.7587685 5.8623877 5.7737918 0 0 0 0 23.771124
1.1823487 5.3862219 5.8524165 0 0 0 0 23.77607
1.0028788 5.5570064 5.8139558 0 0 0 0 23.781017
0.81820947 5.7048154 5.7894659 0 0 0 0 23.785963
0.62043279 5.8427591 5.7569785 0 0 0 0 23.790911
1.0673602 5.4033937 5.8276305 0 0 0 0 23.795858
0.88083404 5.5672264 5.7981677 0 0 0 0 23.800804
0.68807501 5.7050996 5.7786722 0 0 0 0 23.805752
0.48308983 5.822114 5.7411618 0 0 0 0 23.810699
0.95383239 5.4250703 5.8116298 0 0 0 0 23.562984
0.75922775 5.5770192 5.7841768 0 0 0 0 23.56793
0.55923086 5.6890206 5.7546673 0 0 0 0 23.572878
0.34806973 5.7861471 5.7131491 0 0 0 0 23.577826
0.841048 5.4592013 5.8118739 0 0 0 0 23.582771
0.63606018 5.5752788 5.7633772 0 0 0 0 23.587719
0.42995816 5.6763306 5.7358575 0 0 0 0 23.592667
0.21476708 5.7684703 5.7073359 0 0 0 0 23.597612
0.72299242 5.4694171 5.7870865 0 0 0 0 23.60256
0.51295042 5.5785227 5.7485847 0 0 0 0 23.607508
0.30170491 5.6646166 5.7230468 0 0 0 0 23.612453
0.081265531 5.7328167 5.6844935 0 0 0 0 23.617401
0.60594267 5.4796128 5.7662954 0 0 0 0 23.622349
0.3898243 5.5797591 5.7357869 0 0 0 0 23.627295
0.1733548 5.643909 5.7032204 0 0 0 0 23.632242
-0.049204741 5.6991177 5.6686478 0 0 0 0 23.63719
0.48898801 5.4977846 5.7575164 0 0 0 0 23.642136
0.26767752 5.5789833 5.7219839 0 0 0 0 23.647083
0.048998892 5.6221542 5.6853852 0 0 0 0 23.652029
-0.17876925 5.656414 5.6467857 0 0 0 0 23.656977
0.37096754 5.5099697 5.7437277 0 0 0 0 23.661924
0.14437023 5.56323 5.6971569 0 0 0 0 23.66687
-0.076419637 5.5944118 5.6635408 0 0 0 0 23.671818
-0.3063179 5.6146812 5.6279206 0 0 0 0 23.676765
0.25180706 5.5091758 5.7199187 0 0 0 0 23.681711
0.024166446 5.5564256 5.6833382 0 0 0 0 23.686659
-0.20084202 5.5656495 5.6446924 0 0 0 0 23.691607
-0.43086198 5.5729117 5.6110506 0 0 0 0 23.696552
0.13373834 5.5163517 5.7061195 0 0 0 0 23.7015
-0.097111374 5.542635 5.6645093 0 0 0 0 23.706448
-0.32317325 5.5448494 5.6348519 0 0 0 0 23.711393
-0.55534303 5.5361228 5.6031861 0 0 0 0 23.716341
0.015672483 5.5235205 5.6943192 0 0 0 0 23.721289
-0.21936995 5.529839 5.6516819 0 0 0 0 23.726234
-0.44564265 5.5110607 5.6149902 0 0 0 0 23.731182
-0.67698532 5.4843216 5.5822935 0 0 0 0 23.73613
-0.10354188 5.5167103 5.6724973 0 0 0 0 23.741076
-0.33969411 5.5110292 5.6328411 0 0 0 0 23.746023
-0.56615025 5.4732499 5.5941186 0 0 0 0 23.750971
-0.79574358 5.4215026 5.5523782 0 0 0 0 23.755917
-0.22262082 5.521873 5.6646929 0 0 0 0 23.760864
-0.45904455 5.4892035 5.6149926 0 0 0 0 23.765812
-0.68465185 5.435411 5.5762424 0 0 0 0 23.770758
-0.91620773 5.3846488 5.5525055 0 0 0 0 23.775705
-0.34290394 5.5080667 5.6408587 0 0 0 0 23.780651
-0.5784114 5.4653716 5.5981402 0 0 0 0 23.785599
-0.80315846 5.396564 5.5603638 0 0 0 0 23.790546
-1.0318431 5.3317657 5.5385995 0 0 0 0 23.795492
-0.46215054 5.4972382 5.6220269 0 0 0 0 23.80044
-0.69872904 5.4455342 5.5882945 0 0 0 0 23.805387
-0.92157149 5.365695 5.5554967 0 0 0 0 23.810333
-1.1455392 5.2728662 5.5206795 0 0 0 0 23.815281
-0.58138126 5.4873991 5.6071954 0 0 0 0 23.820229
-0.81429583 5.4026804 5.5564041 0 0 0 0 23.825174
-1.0371239 5.3218122 5.5386038 0 0 0 0 23.830122
-1.2591629 5.2199478 5.5117683 0 0 0 0 23.83507
-0.69239414 5.4055834 5.5222368 0 0 0 0 23.840015
-0.93263674 5.3798113 5.5485482 0 0 0 0 23.844963
-1.1516702 5.2779112 5.5247083 0 0 0 0 23.849911
-1.3679372 5.1530008 5.4888277 0 0 0 0 23.854856
-0.77724475 5.1547751 5.2669735 0 0 0 0 23.859804
-1.0519723 5.3569422 5.5436931 0 0 0 0 23.864752
-1.2652212 5.2329931 5.5128093 0 0 0 0 23.869698
-1.4786037 5.095046 5.4799027 0 0 0 0 23.874645
-0.89894146 5.1918583 5.3092175 0 0 0 0 23.879593
-1.1674778 5.3180542 5.524806 0 0 0 0 23.884539
-1.3768003 5.1850538 5.4999013 0 0 0 0 23.889486
-1.5823766 5.0270367 5.4609513 0 0 0 0 23.894432
-1.0473531 5.347002 5.4746833 0 0 0 0 23.89938
-1.2800237 5.2751384 5.5029073 0 0 0 0 23.904327
-1.4854503 5.1300902 5.4819775 0 0 0 0 23.909273
-1.6851317 4.9600081 5.4459991 0 0 0 0 23.914221
-1.178049 5.3841529 5.5219364 0 0 0 0 23.919168
-1.3964322 5.2442303 5.4970322 0 0 0 0 23.924114
-1.5921184 5.0731053 5.4630466 0 0 0 0 23.929062
-1.7868921 4.8919649 5.4320436 0 0 0 0 23.93401
-1.2964331 5.357276 5.50807 0 0 0 0 23.938955
-1.5080402 5.1942964 5.4751196 0 0 0 0 23.943903
-1.6978014 5.0141053 5.4451103 0 0 0 0 23.948851
-1.8856794 4.8208914 5.4170785 0 0 0 0 23.953796
-1.4138361 5.3283868 5.4931984 0 0 0 0 23.958744
-1.6195787 5.1503458 5.4612155 0 0 0 0 23.963692
-1.8024669 4.9560857 5.4311738 0 0 0 0 23.968637
-1.9834408 4.7517996 5.4051142 0 0 0 0 23.973585
-1.5322645 5.2965012 5.479322 0 0 0 0 23.978533
-1.7320589 5.1113892 5.454319 0 0 0 0 23.983479
-1.9070952 4.9010544 5.4222412 0 0 0 0 23.988426
-2.0782306 4.6796799 5.3911405 0 0 0 0 23.993374
-1.6497116 5.2626033 5.4644403 0 0 0 0 23.99832
-1.8416605 5.0604129 5.4393988 0 0 0 0 24.003267
-2.0078163 4.8369946 5.4052877 0 0 0 0 24.008213
-2.1700561 4.6035299 5.3761559 0 0 0 0 24.013161
-1.7652036 5.2236824 5.4495473 0 0 0 0 24.018108
-1.9492921 5.0064192 5.4214711 0 0 0 0 24.023054
-2.1075187 4.7739139 5.3933339 0 0 0 0 24.028002
-2.2637904 4.5353799 5.3711853 0 0 0 0 24.032949
-1.8810844 5.1838675 5.4356327 0 0 0 0 23.919525
-2.0543578 4.9495234 5.4045153 0 0 0 0 23.924473
-2.2037208 4.7049508 5.3753481 0 0 0 0 23.92942
-2.3501155 4.4553347 5.3551683 0 0 0 0 23.934366
-1.9907453 5.1289139 5.4087071 0 0 0 0 23.939314
-2.1590264 4.8915029 5.3885779 0 0 0 0 23.944262
-2.2994645 4.6378384 5.3623829 0 0 0 0 23.949207
-2.4389019 4.3821445 5.3481836 0 0 0 0 23.954155
-2.1072471 5.0879936 5.3998122 0 0 0 0 23.959103
-2.262711 4.8314691 5.3726344 0 0 0 0 23.964048
-2.3961704 4.5737233 5.354423 0 0 0 0 23.968996
-2.5198052 4.2978954 5.3291702 0 0 0 0 23.973944
-2.2218075 5.0410547 5.3879042 0 0 0 0 23.978889
-2.3644016 4.7704105 5.357686 0 0 0 0 23.983837
-2.4889352 4.5035744 5.3424482 0 0 0 0 23.988785
-2.6016552 4.2176385 5.3191638 0 0 0 0 23.993731
-2.3353524 4.9950972 5.3789954 0 0 0 0 23.998678
-2.4661067 4.7073469 5.3437343 0 0 0 0 24.003626
-2.5787299 4.4303985 5.3274636 0 0 0 0 24.008572
-2.68347 4.1403737 5.3121619 0 0 0 0 24.013519
-2.4440534 4.9341102 5.3570561 0 0 0 0 24.018465
-2.5677946 4.6452732 5.3337827 0 0 0 0 24.023413
-2.6626256 4.3471761 5.3044548 0 0 0 0 24.02836
-2.7613356 4.0580764 5.3001461 0 0 0 0 24.033306
-2.5527248 4.8751092 5.3411183 0 0 0 0 24.038254
-2.6684768 4.5831833 5.3258295 0 0 0 0 24.043201
-2.7543509 4.2789936 5.3014793 0 0 0 0 24.048147
-2.8362055 3.9747472 5.2891245 0 0 0 0 24.053095
-2.663347 4.8201118 5.3321891 0 0 0 0 24.058043
-2.7622941 4.5080442 5.3058457 0 0 0 0 24.062988
-2.8352256 4.1967306 5.2824669 0 0 0 0 24.067936
-2.9120469 3.8934162 5.2831063 0 0 0 0 24.072884
-2.77106 4.7560935 5.3162408 0 0 0 0 24.077829
-2.8550828 4.4348845 5.290863 0 0 0 0 24.082777
-2.9229734 4.125504 5.2794805 0 0 0 0 24.087725
-2.9829187 3.8090427 5.2730765 0 0 0 0 24.09267
-2.8718631 4.6830182 5.2932687 0 0 0 0 24.097618
-2.9508448 4.3637424 5.2798867 0 0 0 0 24.102566
-3.0067713 4.0492458 5.2714806 0 0 0 0 24.107512
-3.050807 3.7226408 5.2620392 0 0 0 0 24.112459
-2.9815083 4.6239915 5.2893291 0 0 0 0 24.117407
-3.0416434 4.2885532 5.2668972 0 0 0 0 24.122353
-3.0856285 3.9669459 5.2584639 0 0 0 0 24.1273
-3.1186786 3.6372313 5.2540035 0 0 0 0 24.132246
-3.0803201 4.5488853 5.2693496 0 0 0 0 24.137194
-3.1314666 4.2103524 5.253901 0 0 0 0 24.142141
-3.1624782 3.8846202 5.2484441 0 0 0 0 24.147087
-3.1233215 3.482393 5.1437736 0 0 0 0 24.152035
-3.1771684 4.4697599 5.2473607 0 0 0 0 24.156982
-3.2192857 4.1321282 5.2419014 0 0 0 0 24.161928
-3.2373369 3.8012762 5.2364197 0 0 0 0 24.166876
-3.1249156 3.3315203 5.0375466 0 0 0 0 24.171824
-3.2759855 4.3926387 5.2323771 0 0 0 0 24.176769
-3.3090751 4.0559092 5.2359071 0 0 0 0 24.181717
-3.309221 3.7149038 5.2233868 0 0 0 0 24.186665
-3.1857412 3.2490349 5.0335064 0 0 0 0 24.19161
-3.3797128 4.3235431 5.2274113 0 0 0 0 24.196558
-3.3939245 3.9736512 5.223897 0 0 0 0 24.201506
-3.3830559 3.6325362 5.2173619 0 0 0 0 24.206451
-3.2425861 3.1645155 5.0264573 0 0 0 0 24.211399
-3.4755487 4.2433839 5.2144179 0 0 0 0 24.216347
-3.4767783 3.8903704 5.2128816 0 0 0 0 24.221292
-3.4460263 3.5370891 5.1963019 0 0 0 0 24.22624
-3.2954488 3.0779607 5.0173988 0 0 0 0 24.231188
-3.5723774 4.1632252 5.2044244 0 0 0 0 24.236134
-3.5546906 3.8010488 5.1968498 0 0 0 0 24.241081
-3.4298186 3.3670878 5.0630217 0 0 0 0 24.246029
-3.3562372 2.997458 5.0203614 0 0 0 0 24.250975
-3.6612866 4.0750031 5.1864085 0 0 0 0 24.255922
-3.6325846 3.7127175 5.1848197 0 0 0 0 24.260868
-3.4550858 3.2443626 4.99687 0 0 0 0 24.265816
-3.405113 2.9088645 5.0102944 0 0 0 0 24.270763
-3.7511866 3.9867804 5.1723933 0 0 0 0 24.275709
-3.7114415 3.6273851 5.1777954 0 0 0 0 24.280657
-3.5119982 3.1528466 4.9818087 0 0 0 0 24.285604
-3.4539604 2.8222616 5.0052314 0 0 0 0 24.29055
-3.8440378 3.902571 5.1653876 0 0 0 0 24.295498
-3.7883236 3.5390332 5.1697626 0 0 0 0 24.300446
-3.5758083 3.0703709 4.9797702 0 0 0 0 24.305391
-3.4998283 2.7336357 4.9961605 0 0 0 0 24.310339
-3.9309542 3.8113098 5.1543627 0 0 0 0 24.315287
-3.8434188 3.430522 5.1346707 0 0 0 0 24.320232
-3.6396203 2.9868886 4.9807301 0 0 0 0 24.32518
-3.5417123 2.6429739 4.9860816 0 0 0 0 24.330128
-4.0119214 3.7150023 5.1363215 0 0 0 0 24.335073
-3.8222029 3.2584622 5.0053811 0 0 0 0 24.340021
-3.698463 2.9003665 4.9766784 0 0 0 0 24.344969
-3.584569 2.5543132 4.9800072 0 0 0 0 24.349915
-4.098824 3.6237273 5.1302958 0 0 0 0 24.354862
-3.8544123 3.1387708 4.9512429 0 0 0 0 24.35981
-3.7503655 2.8077905 4.9656081 0 0 0 0 24.364756
-3.6284008 2.4676554 4.9769368 0 0 0 0 24.369703
-4.1797748 3.5274031 5.1192551 0 0 0 0 24.374649
-3.9163263 3.0452805 4.9401832 0 0 0 0 24.379597
-3.8012414 2.7171974 4.95854 0 0 0 0 24.384544
-3.6662629 2.37795 4.9688544 0 0 0 0 24.38949
-4.2416039 3.4094484 5.0850091 0 0 0 0 25.174484
-3.9924622 2.9575734 4.9451051 0 0 0 0 25.179432
-3.853195 2.6234021 4.9504881 0 0 0 0 25.184378
-3.703943 2.2861426 4.9618559 0 0 0 0 25.189325
-4.1725965 3.1980641 4.9036365 0 0 0 0 25.194271
-4.0523129 2.8620131 4.9350386 0 0 0 0 25.199219
-3.8990209 2.5297275 4.9424095 0 0 0 0 25.204166
-3.7456851 2.2004225 4.9647856 0 0 0 0 25.209112
-4.243474 3.0995893 4.8935757 0 0 0 0 25.21406
-4.1061945 2.7624049 4.9229589 0 0 0 0 25.219007
-3.9438536 2.4350457 4.9323287 0 0 0 0 25.223953
-3.7715089 2.106596 4.949687 0 0 0 0 25.228901
-4.3093748 2.9980738 4.8815055 0 0 0 0 25.233849
-4.1670218 2.6678386 4.9198937 0 0 0 0 25.238794
-3.9846816 2.3403282 4.9232435 0 0 0 0 25.243742
-3.8042755 2.0178082 4.9466033 0 0 0 0 25.24869
-4.3881965 2.9036391 4.8854585 0 0 0 0 25.253635
-4.2178946 2.5681989 4.9098115 0 0 0 0 25.258583
-4.0255046 2.2456079 4.9151587 0 0 0 0 25.263531
-3.8370378 1.929018 4.944519 0 0 0 0 25.268476
-4.449122 2.7980781 4.8733768 0 0 0 0 25.273424
-4.2697592 2.4685609 4.90273 0 0 0 0 25.278372
-4.0712905 2.1539137 4.9160833 0 0 0 0 25.283318
-3.8638091 1.8391836 4.9384274 0 0 0 0 25.288265
-4.5090585 2.6905053 4.8622918 0 0 0 0 25.293213
-4.321609 2.3699172 4.8986497 0 0 0 0 25.298159
-4.1011453 2.05511 4.9019814 0 0 0 0 25.303106
-3.8935623 1.7503641 4.9383411 0 0 0 0 25.308052
-4.570961 2.5859394 4.8562121 0 0 0 0 25.313
-4.3645124 2.2652102 4.8865514 0 0 0 0 25.317947
-4.1379547 1.9603487 4.8968921 0 0 0 0 25.322893
-3.9183247 1.6605088 4.934248 0 0 0 0 25.327841
-4.6308746 2.4793539 4.8511281 0 0 0 0 25.332788
-4.4064016 2.1614907 4.8764539 0 0 0 0 25.337734
-4.1717763 1.8635622 4.8917971 0 0 0 0 25.342682
-3.9400856 1.5706313 4.9281516 0 0 0 0 25.34763
-4.6798406 2.366689 4.8380237 0 0 0 0 25.352575
-4.4512639 2.0597854 4.8723621 0 0 0 0 25.357523
-4.2075739 1.7687848 4.8907075 0 0 0 0 25.362471
-3.9638381 1.480762 4.9270577 0 0 0 0 25.367416
-4.7317805 2.2560382 4.8309255 0 0 0 0 25.372364
-4.4931402 1.9560555 4.8672652 0 0 0 0 25.377312
-4.2334008 1.6709371 4.8816032 0 0 0 0 25.382257
-3.9786048 1.3898324 4.9169531 0 0 0 0 25.387205
-4.7827244 2.1443772 4.8238254 0 0 0 0 25.392153
-4.5270414 1.8492675 4.8571553 0 0 0 0 25.397099
-4.2632093 1.5741121 4.8785048 0 0 0 0 25.402046
-3.9953537 1.2999099 4.9128528 0 0 0 0 25.406994
-4.8246908 2.0296469 4.8137112 0 0 0 0 25.41194
-4.567903 1.7455187 4.858057 0 0 0 0 25.416887
-4.2910132 1.4772688 4.8764048 0 0 0 0 25.421833
-4.0110912 1.2109787 4.9087524 0 0 0 0 25.426781
-4.8716393 1.9159478 4.8086042 0 0 0 0 25.431728
-4.5968056 1.6376896 4.8469415 0 0 0 0 25.436674
-4.3128347 1.3783836 4.8692956 0 0 0 0 25.441622
-4.0278211 1.1220496 4.9086537 0 0 0 0 25.446569
-4.9096112 1.7991799 4.8004832 0 0 0 0 25.451515
-4.6276894 1.530867 4.8418293 0 0 0 0 25.456463
-4.3386297 1.2815198 4.8691936 0 0 0 0 25.461411
-4.0435476 1.0331117 4.9085546 0 0 0 0 25.466356
-4.9475689 1.683409 4.7933645 0 0 0 0 25.471304
-4.657567 1.4240327 4.838716 0 0 0 0 25.476252
-4.346478 1.1795361 4.8520665 0 0 0 0 25.481197
-4.0542755 0.94413948 4.9044499 0 0 0 0 25.486145
-4.9825373 1.565612 4.78724 0 0 0 0 25.491093
-4.6794639 1.3151437 4.8285928 0 0 0 0 25.496038
-4.3712535 1.0836574 4.8559656 0 0 0 0 25.500986
-5.0204883 1.4488304 4.7861204 0 0 0 0 25.51088
-4.7302666 1.2134359 4.8525081 0 0 0 0 25.515827
-5.0414801 1.3279314 4.7719784 0 0 0 0 25.530668
-5.0724382 1.2090925 4.7708497 0 0 0 0 25.550455
-0.49236748 0.098922752 0.48072475 0 0 0 0 25.555403
-0.4694933 0.083773576 0.4547064 0 0 0 0 25.575191
-0.44561732 0.06861601 0.42968741 0 0 0 0 25.594978
-0.4615936 0.07276608 0.40772778 0 0 0 0 25.609819
-0.4437384 0.048598081 0.42570961 0 0 0 0 25.634556
-0.46508732 0.051868744 0.4072721 0 0 0 0 25.270777
-0.45621866 0.028752895 0.43526238 0 0 0 0 25.295511
-0.46522686 0.029861657 0.40629253 0 0 0 0 25.310352
-0.45434219 0.0087315375 0.43328366 0 0 0 0 25.335087
-0.47234899 0.0089010475 0.41232207 0 0 0 0 25.349928
-0.46045542 -0.011236678 0.43931377 0 0 0 0 25.374662
-0.47946969 -0.012060035 0.41835174 0 0 0 0 25.389503
-0.47056878 -0.032181576 0.45134684 0 0 0 0 25.41424
-0.49060634 -0.035997853 0.43038169 0 0 0 0 25.429079
-0.49969107 -0.057003599 0.48339453 0 0 0 0 25.453815
-0.50774187 -0.060898382 0.44941658 0 0 0 0 25.468657
-0.51375574 -0.069919229 0.49941704 0 0 0 0 25.473602
-0.53182125 -0.076746285 0.47344548 0 0 0 0 25.488443
-0.50582868 -0.080977738 0.49241936 0 0 0 0 25.493391
-3.9929085 -0.78845888 4.9110708 0 0 0 0 25.503284
-0.52990353 -0.096831322 0.52044821 0 0 0 0 25.51318
-3.9775431 -0.87164682 4.9159536 0 0 0 0 25.523073
-0.58700192 -0.11240009 0.5295046 0 0 0 0 25.528021
-0.55799741 -0.11565956 0.552477 0 0 0 0 25.532967
-3.9601912 -0.9568485 4.9198318 0 0 0 0 25.54286
-4.3770065 -0.95352709 4.1082606 0 0 0 0 25.547808
-4.41012 -1.0248568 4.5382018 0 0 0 0 25.552755
-4.3100805 -1.0630835 4.861052 0 0 0 0 25.557701
-3.9388163 -1.0390768 4.9207106 0 0 0 0 25.562649
-4.349792 -1.0568103 4.1081038 0 0 0 0 25.567596
-4.3908887 -1.1270888 4.5470548 0 0 0 0 25.572542
-4.2877984 -1.1583323 4.8669119 0 0 0 0 25.57749
-3.9154379 -1.1213199 4.9215889 0 0 0 0 25.582438
-4.3375793 -1.1629981 4.124959 0 0 0 0 25.587383
-4.3736567 -1.230311 4.5609088 0 0 0 0 25.592331
-4.2564998 -1.2506371 4.8627672 0 0 0 0 25.597279
-3.8940606 -1.2045517 4.9264674 0 0 0 0 25.602224
-4.3133559 -1.2672681 4.1338058 0 0 0 0 25.607172
-4.3454003 -1.3296036 4.5637579 0 0 0 0 25.61212
-4.2302027 -1.344915 4.8686252 0 0 0 0 25.617065
-3.8666627 -1.2848215 4.9253454 0 0 0 0 25.622013
-4.2951355 -1.3735009 4.1506562 0 0 0 0 25.626961
-4.3271632 -1.4338386 4.5826111 0 0 0 0 25.631907
-4.2019029 -1.439206 4.8734827 0 0 0 0 25.636854
-3.8452752 -1.3680569 4.9342256 0 0 0 0 25.641802
-4.2779078 -1.4797307 4.1715088 0 0 0 0 25.646748
-4.3089204 -1.5380754 4.6034656 0 0 0 0 25.651695
-4.168581 -1.5305294 4.8743396 0 0 0 0 25.656643
-3.8158705 -1.4483414 4.934103 0 0 0 0 25.661589
-4.2556858 -1.5869956 4.1903553 0 0 0 0 25.666536
-4.2866688 -1.6413397 4.6223178 0 0 0 0 25.671482
-4.1442723 -1.6258005 4.8892016 0 0 0 0 25.67643
-3.7944729 -1.5315802 4.9469848 0 0 0 0 25.681377
-4.2354555 -1.6942507 4.2142053 0 0 0 0 25.686323
-4.2734385 -1.7495507 4.6541734 0 0 0 0 25.691271
-4.1079421 -1.7171472 4.8920569 0 0 0 0 25.696218
-3.7640591 -1.6118742 4.9498625 0 0 0 0 25.701164
-4.2142334 -1.8035165 4.2410522 0 0 0 0 25.706112
-4.2521873 -1.8548146 4.6800256 0 0 0 0 25.71106
-4.0685949 -1.806513 4.8929133 0 0 0 0 25.716005
-3.730638 -1.6911862 4.9497395 0 0 0 0 25.720953
-4.190002 -1.9118017 4.2658982 0 0 0 0 25.725901
-4.2279396 -1.9611018 4.7068744 0 0 0 0 25.730846
-4.0292411 -1.8958811 4.8967705 0 0 0 0 25.735794
-3.6962061 -1.7695045 4.9496174 0 0 0 0 25.740742
-4.1742573 -2.0242701 4.3046021 0 0 0 0 25.504984
-4.2141628 -2.0715616 4.7465835 0 0 0 0 25.509932
-3.9882972 -1.9835517 4.8994727 0 0 0 0 25.514877
-3.6621525 -1.8471935 4.9533253 0 0 0 0 25.519825
-4.155067 -2.1375377 4.3424435 0 0 0 0 25.524773
-4.200973 -2.1857922 4.7924294 0 0 0 0 25.529718
-3.9419379 -2.0699756 4.899323 0 0 0 0 25.534666
-3.6307461 -1.9285069 4.9631991 0 0 0 0 25.539614
-4.1358857 -2.2528083 4.3832827 0 0 0 0 25.544559
-4.1707358 -2.2921312 4.8202691 0 0 0 0 25.549507
-3.9106162 -2.1643083 4.9201794 0 0 0 0 25.554455
-3.5983288 -2.0088267 4.973074 0 0 0 0 25.559401
-4.1197314 -2.373065 4.4321189 0 0 0 0 25.564348
-4.1485271 -2.4044251 4.8621106 0 0 0 0 25.569296
-3.8652463 -2.2507262 4.9240322 0 0 0 0 25.574242
-3.5558829 -2.0842063 4.9699459 0 0 0 0 25.579189
-4.0955539 -2.4903779 4.4769526 0 0 0 0 25.584135
-4.1092772 -2.509829 4.8879447 0 0 0 0 25.589083
-3.8168645 -2.3361673 4.928885 0 0 0 0 25.59403
-3.5184395 -2.1615586 4.9768209 0 0 0 0 25.598976
-4.0844393 -2.6186121 4.5397854 0 0 0 0 25.603924
-4.0639973 -2.6112716 4.9087787 0 0 0 0 25.608871
-3.7735026 -2.4255781 4.9417381 0 0 0 0 25.613817
-3.4810002 -2.2399108 4.9846959 0 0 0 0 25.618765
-4.0693135 -2.7458768 4.6026158 0 0 0 0 25.623713
-4.0066705 -2.705791 4.9186106 0 0 0 0 25.628658
-3.7210934 -2.508044 4.944592 0 0 0 0 25.633606
-3.4405503 -2.3172846 4.9925699 0 0 0 0 25.638554
-4.058228 -2.880121 4.6744428 0 0 0 0 25.643499
-3.944314 -2.7963412 4.9244447 0 0 0 0 25.648447
-3.6646824 -2.5905373 4.9464436 0 0 0 0 25.653395
-3.3980918 -2.3936696 4.9984441 0 0 0 0 25.65834
-4.0331092 -3.0094607 4.7372627 0 0 0 0 25.663288
-3.8839636 -2.8888819 4.9362788 0 0 0 0 25.668236
-3.6162801 -2.6759815 4.9593 0 0 0 0 25.673182
-3.3496058 -2.4660916 4.9983182 0 0 0 0 25.678129
-4.0140219 -3.1447661 4.810082 0 0 0 0 25.683077
-3.817584 -2.9774597 4.9431133 0 0 0 0 25.688023
-3.5578454 -2.7564888 4.9631538 0 0 0 0 25.69297
-3.3051341 -2.5414889 5.0041933 0 0 0 0 25.697916
-3.9849215 -3.2781394 4.876895 0 0 0 0 25.702864
-3.7511916 -3.0650377 4.951951 0 0 0 0 25.707811
-3.5014048 -2.8369823 4.9700108 0 0 0 0 25.712757
-3.2596569 -2.6168959 5.0130687 0 0 0 0 25.717705
-3.9266703 -3.3886943 4.9137106 0 0 0 0 25.722652
-3.6838017 -3.1536233 4.9627867 0 0 0 0 25.727598
-3.4439583 -2.9174855 4.9798679 0 0 0 0 25.732546
-3.213176 -2.6923101 5.0229435 0 0 0 0 25.737494
-3.8432841 -3.4784007 4.9215302 0 0 0 0 25.742439
-3.61338 -3.2382269 4.9716263 0 0 0 0 25.747387
-3.3885279 -3.0009763 4.9937239 0 0 0 0 25.752335
-3.1586583 -2.7617681 5.0208192 0 0 0 0 25.75728
-3.7608972 -3.5691025 4.9343505 0 0 0 0 25.762228
-3.5359221 -3.3178744 4.9754667 0 0 0 0 25.767176
-3.3230302 -3.0745256 4.995584 0 0 0 0 25.772121
-3.1061463 -2.8332179 5.0256958 0 0 0 0 25.777069
-3.6754785 -3.655822 4.9451752 0 0 0 0 25.782017
-3.4624639 -3.3984954 4.9843111 0 0 0 0 25.786963
-3.2585468 -3.1510725 5.0034428 0 0 0 0 25.79191
-3.0536242 -2.9036655 5.0305743 0 0 0 0 25.796858
-3.586035 -3.7395668 4.9550004 0 0 0 0 25.801804
-3.3890202 -3.4821212 4.9991527 0 0 0 0 25.806751
-3.1950586 -3.227612 5.0133038 0 0 0 0 25.811699
-2.9981005 -2.9741328 5.0344505 0 0 0 0 25.816645
-3.4965801 -3.8223097 4.9658289 0 0 0 0 25.821592
-3.3115392 -3.5607693 5.0099978 0 0 0 0 25.826538
-3.1315789 -3.3061543 5.0271626 0 0 0 0 25.831486
-2.940552 -3.0416129 5.0383301 0 0 0 0 25.836433
-3.4061117 -3.9040606 4.9796591 0 0 0 0 25.841379
-3.233048 -3.638422 5.0208449 0 0 0 0 25.846327
-3.0650628 -3.3797114 5.0370269 0 0 0 0 25.851274
-2.8900549 -3.1180561 5.0562053 0 0 0 0 25.85622
-3.3126125 -3.9818282 4.9914927 0 0 0 0 25.861168
-3.1515388 -3.7140944 5.031693 0 0 0 0 25.866116
-2.9935243 -3.4503 5.043891 0 0 0 0 25.871061
-2.8284822 -3.1825571 5.0560865 0 0 0 0 25.876009
-3.2181084 -4.0596023 5.0053272 0 0 0 0 25.880957
-3.0659926 -3.7847896 5.0395446 0 0 0 0 25.885902
-2.9209757 -3.5198934 5.0507565 0 0 0 0 25.89085
-2.7719474 -3.2540348 5.068965 0 0 0 0 25.895798
-3.0711405 -4.0656571 4.9362059 0 0 0 0 25.900743
-2.9824548 -3.8574719 5.0513973 0 0 0 0 25.905691
-2.8524601 -3.5954666 5.0676188 0 0 0 0 25.910639
-2.7134111 -3.3255239 5.0808425 0 0 0 0 25.915585
-2.8787436 -4.0049472 4.7901301 0 0 0 0 25.920532
-2.8989043 -3.9291551 5.0662522 0 0 0 0 25.92548
-2.7778833 -3.6620708 5.075489 0 0 0 0 25.930426
-2.6528571 -3.3950257 5.0927215 0 0 0 0 25.935373
-2.7175224 -3.9730546 4.6880479 0 0 0 0 25.940319
-2.8022432 -3.9839063 5.0611176 0 0 0 0 25.945267
-2.7053337 -3.7336674 5.0913548 0 0 0 0 25.950214
-2.5922992 -3.4645276 5.1066012 0 0 0 0 25.95516
-2.5885568 -3.9819851 4.6389441 0 0 0 0 25.960108
-2.6672084 -3.9798465 4.9840255 0 0 0 0 25.965055
-2.6267297 -3.7972956 5.099227 0 0 0 0 25.970001
-2.5246902 -3.5260642 5.1084862 0 0 0 0 25.974949
-2.720252 -4.4051709 5.0722136 0 0 0 0 25.724651
-2.5371015 -3.9763622 4.9146032 0 0 0 0 25.729597
-2.548003 -3.8595326 5.1067729 0 0 0 0 25.734545
-2.4568968 -3.5872362 5.1130471 0 0 0 0 25.739492
-2.6176405 -4.4690113 5.0890579 0 0 0 0 25.744438
-2.3969181 -3.9503396 4.820528 0 0 0 0 25.749386
-2.4653816 -3.9192009 5.1116414 0 0 0 0 25.754333
-2.3933449 -3.6567729 5.129921 0 0 0 0 25.759279
-2.5079453 -4.5208888 5.095912 0 0 0 0 25.764227
-2.2364519 -3.8814058 4.6804905 0 0 0 0 25.769175
-2.3544505 -3.9310036 5.0575461 0 0 0 0 25.77412
-2.3237588 -3.7213438 5.1397958 0 0 0 0 25.779068
-2.3972261 -4.569768 5.1017704 0 0 0 0 25.784016
-2.1042206 -3.8493168 4.5894332 0 0 0 0 25.788961
-2.1989849 -3.860009 4.9035168 0 0 0 0 25.793909
-2.2521434 -3.7819233 5.1466756 0 0 0 0 25.798857
-2.274332 -4.5927029 5.0826526 0 0 0 0 25.803802
-1.9850999 -3.8351591 4.5253663 0 0 0 0 25.80875
-2.0717645 -3.8278651 4.802465 0 0 0 0 25.813698
-2.176486 -3.8365228 5.1475606 0 0 0 0 25.818644
-1.8750467 -3.8319499 4.4772949 0 0 0 0 25.828539
-1.950564 -3.7996855 4.7124157 0 0 0 0 25.833485
-2.0805922 -3.8542106 5.1014748 0 0 0 0 25.838432
-1.7903056 -3.8776243 4.4891858 0 0 0 0 25.848326
-1.8343794 -3.7744734 4.6293674 0 0 0 0 25.853273
-1.9553175 -3.8120174 4.9794397 0 0 0 0 25.858219
-1.9156312 -4.6624327 5.0473146 0 0 0 0 25.863167
-1.9542792 -4.5002956 5.1675673 0 0 0 0 25.868114
-1.7313179 -3.7691965 4.5753074 0 0 0 0 25.87306
-1.8441771 -3.7917569 4.8903909 0 0 0 0 25.878008
-1.8504708 -4.5370951 5.1684542 0 0 0 0 25.887901
-1.6322992 -3.7708986 4.5312424 0 0 0 0 25.892849
-1.7269 -3.7505097 4.7793641 0 0 0 0 25.897797
-1.5576073 -3.8245008 4.5531349 0 0 0 0 25.912638
-1.6197147 -3.7242119 4.6903286 0 0 0 0 25.917583
-1.6843165 -4.4124188 5.2085309 0 0 0 0 25.932425
-1.5287209 -3.7288454 4.644269 0 0 0 0 25.937372
-1.5895336 -4.4531446 5.2134247 0 0 0 0 25.952213
-1.4478686 -3.7564402 4.6291909 0 0 0 0 25.957159
-1.5492135 -4.2914829 5.2366338 0 0 0 0 25.976948
-1.4655432 -4.3491397 5.2565169 0 0 0 0 25.996737
-1.374732 -4.3848119 5.250423 0 0 0 0 26.016523
-0.05987915 -4.2398028 4.6566687 0 0 0 0 27.082747
-0.10058743 -4.2115312 4.6657858 0 0 0 0 27.107481
0.96026468 -3.4533181 3.996995 0 0 0 0 27.270733
1.0128928 -3.3535326 3.9220965 0 0 0 0 27.29052
0.93290371 -3.5321598 4.0459867 0 0 0 0 27.295467
1.0782685 -3.3018854 3.9041362 0 0 0 0 27.310308
0.9718219 -3.3752096 3.8971608 0 0 0 0 27.315254
1.1465763 -3.2632723 3.9031599 0 0 0 0 27.330095
1.0371671 -3.3275554 3.8731964 0 0 0 0 27.335043
0.96229333 -3.4811609 3.9441092 0 0 0 0 27.339991
1.2346004 -3.2798505 3.970109 0 0 0 0 27.349884
1.1034812 -3.2859144 3.8582249 0 0 0 0 27.354832
1.0060382 -3.3552694 3.8232455 0 0 0 0 27.359777
0.94192243 -3.5549905 3.9391012 0 0 0 0 27.364725
1.3058627 -3.2502649 3.9831214 0 0 0 0 27.369673
1.1747069 -3.2613239 3.8642318 0 0 0 0 27.374619
1.0694073 -3.3015864 3.7862895 0 0 0 0 27.379566
0.98179662 -3.403038 3.783268 0 0 0 0 27.384514
1.3800853 -3.2287083 4.0091233 0 0 0 0 27.38946
1.2568015 -3.2628341 3.9052026 0 0 0 0 27.394407
1.1396528 -3.2719753 3.7793026 0 0 0 0 27.399353
1.0412322 -3.3353062 3.72333 0 0 0 0 27.404301
1.4058557 -3.0987101 3.90028 0 0 0 0 27.409248
1.3329937 -3.2452817 3.9241991 0 0 0 0 27.414194
1.2187686 -3.2674463 3.8012826 0 0 0 0 27.419142
1.1085478 -3.2906492 3.6903615 0 0 0 0 27.424089
1.4761013 -3.0721195 3.9212909 0 0 0 0 27.429035
1.4012625 -3.2126598 3.9262183 0 0 0 0 27.433983
1.2919841 -3.2438581 3.8042879 0 0 0 0 27.438931
1.1778022 -3.2580183 3.6733792 0 0 0 0 27.443876
1.5433729 -3.0405037 3.9383099 0 0 0 0 27.448824
1.4636196 -3.1629822 3.9112604 0 0 0 0 27.453772
1.3731029 -3.2393405 3.8312674 0 0 0 0 27.458717
1.2628514 -3.2655299 3.7033424 0 0 0 0 27.463665
1.6572168 -3.095289 4.0712018 0 0 0 0 27.468613
1.5021894 -3.0700996 3.8403671 0 0 0 0 27.473558
1.45028 -3.2237854 3.8482618 0 0 0 0 27.478506
1.3340867 -3.2369137 3.6943552 0 0 0 0 27.483454
1.7354281 -3.0767581 4.1121993 0 0 0 0 27.4884
1.5853083 -3.0676067 3.8863435 0 0 0 0 27.493347
1.5264832 -3.203217 3.861263 0 0 0 0 27.498295
1.4142308 -3.2263727 3.7083423 0 0 0 0 27.503241
1.8088567 -3.0528214 4.1456399 0 0 0 0 27.251776
1.683458 -3.0938377 3.9697165 0 0 0 0 27.256723
1.5860012 -3.150074 3.8347526 0 0 0 0 27.261669
1.5004404 -3.2284265 3.7377546 0 0 0 0 27.266617
1.8930353 -3.0423579 4.201622 0 0 0 0 27.271564
1.7616608 -3.0763137 4.0017104 0 0 0 0 27.27651
1.6424018 -3.0923493 3.8048079 0 0 0 0 27.281458
1.5707163 -3.1938117 3.7277732 0 0 0 0 27.286406
1.9762423 -3.0268826 4.25561 0 0 0 0 27.291351
1.8378896 -3.0537689 4.0287123 0 0 0 0 27.296299
1.7255449 -3.0848589 3.8397872 0 0 0 0 27.301247
1.6182219 -3.1149991 3.6678586 0 0 0 0 27.306192
2.0535004 -3.0013542 4.2976146 0 0 0 0 27.31114
1.9270295 -3.0493312 4.083684 0 0 0 0 27.316088
1.8057466 -3.066335 3.8637815 0 0 0 0 27.321033
1.6934464 -3.0904276 3.6738632 0 0 0 0 27.325981
2.1377189 -2.9838796 4.3526058 0 0 0 0 27.330929
2.0052669 -3.0257978 4.1156859 0 0 0 0 27.335875
1.8849534 -3.0468018 3.8877778 0 0 0 0 27.340822
1.7786047 -3.0789335 3.6978457 0 0 0 0 27.34577
2.2298965 -2.975471 4.4265804 0 0 0 0 27.350716
2.0904708 -3.0093181 4.160675 0 0 0 0 27.355663
1.9711269 -3.0343223 3.9247615 0 0 0 0 27.360609
1.8578156 -3.0573888 3.7118449 0 0 0 0 27.365557
2.3121586 -2.9499729 4.4775825 0 0 0 0 27.370504
2.1716998 -2.9878044 4.1996737 0 0 0 0 27.37545
2.0563166 -3.018831 3.9597497 0 0 0 0 27.380398
1.9390229 -3.0368578 3.7298412 0 0 0 0 27.385345
2.3725481 -2.898298 4.491631 0 0 0 0 27.390291
2.2599061 -2.9713414 4.249661 0 0 0 0 27.395239
2.1425195 -3.0013449 3.9967401 0 0 0 0 27.400187
2.0281868 -3.025388 3.7628224 0 0 0 0 27.405132
2.4677491 -2.8859003 4.5686092 0 0 0 0 27.41008
2.3431542 -2.9468374 4.2926621 0 0 0 0 27.415028
2.2317123 -2.9858778 4.0377259 0 0 0 0 27.419973
2.1153812 -3.0078967 3.7898118 0 0 0 0 27.424921
2.5480497 -2.8533804 4.6196213 0 0 0 0 27.429869
2.4065347 -2.895169 4.2977076 0 0 0 0 27.434814
2.3169482 -2.9623766 4.0727243 0 0 0 0 27.439762
2.2015986 -2.9863944 3.8158069 0 0 0 0 27.44471
2.6990023 -2.8954184 4.7964978 0 0 0 0 27.449656
2.4927788 -2.8716831 4.3467059 0 0 0 0 27.454603
2.3932488 -2.9258008 4.0917439 0 0 0 0 27.459551
2.2937868 -2.9709358 3.8517914 0 0 0 0 27.464497
2.8350706 -2.9143293 4.9444127 0 0 0 0 27.469444
2.5840271 -2.8482301 4.4017005 0 0 0 0 27.47439
2.4725397 -2.8912458 4.1157598 0 0 0 0 27.479338
2.3860025 -2.9504716 3.8857818 0 0 0 0 27.484285
2.9323478 -2.888927 5.0224056 0 0 0 0 27.489231
2.7668197 -2.9214876 4.6115203 0 0 0 0 27.494179
2.5508518 -2.8526795 4.1377807 0 0 0 0 27.499126
2.5229673 -2.9813473 3.9906828 0 0 0 0 27.504072
3.0037456 -2.8373213 5.0584478 0 0 0 0 27.50902
2.8720417 -2.9051321 4.688498 0 0 0 0 27.513968
2.7386115 -2.92995 4.3345938 0 0 0 0 27.518913
2.6351151 -2.9760244 4.0536427 0 0 0 0 27.523861
3.0681801 -2.7776585 5.0825043 0 0 0 0 27.528809
2.9882398 -2.8948548 4.7814608 0 0 0 0 27.533754
2.8298953 -2.8984723 4.375598 0 0 0 0 27.538702
2.7323678 -2.9495821 4.0916371 0 0 0 0 27.54365
3.1605024 -2.7432115 5.1565118 0 0 0 0 27.548595
2.9470828 -2.8881862 4.4555607 0 0 0 0 27.558491
2.8206809 -2.9110689 4.116652 0 0 0 0 27.563437
3.26281 -2.7128346 5.2445078 0 0 0 0 27.568384
3.0623019 -2.8718793 4.5315323 0 0 0 0 27.578278
2.9199569 -2.8806341 4.15765 0 0 0 0 27.583225
3.4448545 -2.7440591 5.4603777 0 0 0 0 27.588173
3.056088 -2.8814664 4.2495871 0 0 0 0 27.603012
3.5472066 -2.7056718 5.5483842 0 0 0 0 27.60796
4.0072532 -3.2638109 5.9654622 0 0 0 0 27.612907
3.6266408 -2.648108 5.6004281 0 0 0 0 27.627748
4.0847998 -3.1841924 5.9845338 0 0 0 0 27.632694
4.0626678 -3.3347194 5.6654129 0 0 0 0 27.637642
3.7499502 -2.6208708 5.7224073 0 0 0 0 27.647535
4.1653423 -3.1055954 6.010602 0 0 0 0 27.652483
4.0962844 -3.3684707 5.3374186 0 0 0 0 27.662376
3.8972263 -2.6038043 5.8793583 0 0 0 0 27.667324
3.7414117 -2.668309 5.3214288 0 0 0 0 27.672272
3.9986403 -2.5533936 5.9673796 0 0 0 0 27.687113
3.816885 -2.6006939 5.3534875 0 0 0 0 27.692059
4.0601711 -2.4746871 5.9974613 0 0 0 0 27.7069
3.9492126 -2.5684879 5.4654665 0 0 0 0 27.711847
4.1091528 -2.3921571 6.0118904 0 0 0 0 27.467775
4.0939078 -2.5416143 5.5947609 0 0 0 0 27.472723
4.0430098 -2.6358683 5.1907182 0 0 0 0 27.477671
4.1597252 -2.3073843 6.0309868 0 0 0 0 27.487564
4.253232 -2.5166333 5.7427063 0 0 0 0 27.492512
4.1484637 -2.5774715 5.2497425 0 0 0 0 27.497458
4.1623826 -2.1982491 5.9811473 0 0 0 0 27.507353
4.4704585 -2.5180728 5.966578 0 0 0 0 27.512299
4.2928462 -2.5373554 5.357717 0 0 0 0 27.517246
4.2129402 -2.1154785 6.0052414 0 0 0 0 27.52714
4.5659919 -2.4456055 6.0286269 0 0 0 0 27.532087
4.9730048 -2.7931297 6.1269517 0 0 0 0 27.537033
4.2605042 -2.0306849 6.02634 0 0 0 0 27.546928
4.6405787 -2.359982 6.0647063 0 0 0 0 27.551874
4.7034302 -2.5069861 5.722518 0 0 0 0 27.556822
4.2990799 -1.9418244 6.0364499 0 0 0 0 27.566715
4.7031984 -2.2662687 6.085804 0 0 0 0 27.571663
4.7660732 -2.4082603 5.7316217 0 0 0 0 27.576611
5.5175037 -2.9051809 6.1835217 0 0 0 0 27.581556
4.3236742 -1.8468618 6.0295768 0 0 0 0 27.586504
4.7548294 -2.1684763 6.0959148 0 0 0 0 27.591452
4.940516 -2.3613346 5.8755822 0 0 0 0 27.596397
4.9665484 -2.4740784 5.4944606 0 0 0 0 27.601345
4.3572478 -1.7569679 6.038691 0 0 0 0 27.606293
4.76652 -2.0533965 6.0580745 0 0 0 0 27.611238
5.1708946 -2.3337989 6.0844798 0 0 0 0 27.616186
5.0312476 -2.3643517 5.4975739 0 0 0 0 27.621134
4.3858247 -1.6650361 6.0408111 0 0 0 0 27.62608
4.8271389 -1.9586715 6.0851746 0 0 0 0 27.631027
5.2825155 -2.2454097 6.1535349 0 0 0 0 27.635975
5.1877809 -2.2962682 5.6025724 0 0 0 0 27.640921
4.4533548 -1.5883905 6.0998845 0 0 0 0 27.645868
4.8737764 -1.8578446 6.0952916 0 0 0 0 27.650814
5.3582025 -2.1397653 6.1836362 0 0 0 0 27.655762
5.4681559 -2.2730422 5.8414283 0 0 0 0 27.660709
4.5718536 -1.5261123 6.2289033 0 0 0 0 27.665655
4.9094267 -1.7529421 6.0964212 0 0 0 0 27.670603
5.4139271 -2.023978 6.1917634 0 0 0 0 27.67555
5.7545891 -2.2398436 6.0842915 0 0 0 0 27.680496
4.6374054 -1.4444484 6.2879839 0 0 0 0 27.685444
4.948071 -1.649061 6.1025467 0 0 0 0 27.690392
5.4316874 -1.8959274 6.1609325 0 0 0 0 27.695337
5.9322348 -2.1538806 6.2112956 0 0 0 0 27.700285
4.6579962 -1.3474587 6.2871151 0 0 0 0 27.705233
4.9827161 -1.544153 6.1066761 0 0 0 0 27.710178
5.4983954 -1.7842211 6.1890464 0 0 0 0 27.715126
6.0300012 -2.0353634 6.2573943 0 0 0 0 27.720074
4.6795812 -1.2514793 6.2912436 0 0 0 0 27.725019
5.0173583 -1.4392457 6.1128058 0 0 0 0 27.729967
5.5411263 -1.6643475 6.1921868 0 0 0 0 27.734915
6.1207876 -1.9117965 6.2985044 0 0 0 0 27.739861
4.7011633 -1.1554999 6.2963719 0 0 0 0 27.744808
5.041007 -1.3312633 6.1089463 0 0 0 0 27.749756
5.5858517 -1.5454901 6.2013249 0 0 0 0 27.754702
6.1246548 -1.7616361 6.2527075 0 0 0 0 27.759649
4.7147403 -1.0584645 6.2925076 0 0 0 0 27.764595
5.0746503 -1.2253519 6.1190767 0 0 0 0 27.769543
5.6255927 -1.4225981 6.2064705 0 0 0 0 27.77449
6.195467 -1.6299348 6.2798405 0 0 0 0 27.779436
4.7363133 -0.96348864 6.3026342 0 0 0 0 27.784384
5.1012912 -1.1183928 6.1232133 0 0 0 0 27.789331
5.6583261 -1.2996603 6.2076206 0 0 0 0 27.794277
6.2463021 -1.4910989 6.2899947 0 0 0 0 27.799225
4.7488861 -0.8664493 6.3017693 0 0 0 0 27.804173
5.1309323 -1.0114559 6.1333466 0 0 0 0 27.809118
5.699059 -1.17778 6.2217631 0 0 0 0 27.814066
6.2791381 -1.349143 6.2851663 0 0 0 0 27.819014
4.7514472 -0.7693423 6.2909117 0 0 0 0 27.823959
5.1615729 -0.90452743 6.1474791 0 0 0 0 27.828907
5.7227969 -1.0517842 6.2189221 0 0 0 0 27.833855
6.3429713 -1.2113965 6.3143091 0 0 0 0 27.8388
4.7500076 -0.67120755 6.2750578 0 0 0 0 27.843748
5.1772084 -0.79549652 6.1456251 0 0 0 0 27.848696
5.7505369 -0.9258182 6.2240777 0 0 0 0 27.853642
6.5887761 -1.1028656 6.5282869 0 0 0 0 27.858589
4.7375607 -0.57199854 6.2472124 0 0 0 0 27.863537
5.18785 -0.68443459 6.1417761 0 0 0 0 27.868483
5.7652688 -0.79876548 6.2172437 0 0 0 0 27.87343
6.6386442 -0.95602393 6.5504494 0 0 0 0 27.878378
4.7241068 -0.47378644 6.2213659 0 0 0 0 27.883324
5.2004852 -0.57438755 6.1419239 0 0 0 0 27.888271
5.7870054 -0.67176366 6.2224035 0 0 0 0 27.893217
6.6565142 -0.80397087 6.5436401 0 0 0 0 27.898165
4.7146416 -0.37760344 6.2015142 0 0 0 0 27.903112
5.2201185 -0.46539029 6.1530647 0 0 0 0 27.908058
5.8047342 -0.54473543 6.224566 0 0 0 0 27.913006
6.6903877 -0.65302688 6.5568175 0 0 0 0 27.917953
4.7021661 -0.28240103 6.1786628 0 0 0 0 27.922899
5.2237468 -0.35428563 6.1472187 0 0 0 0 27.927847
5.8344717 -0.41779053 6.2437186 0 0 0 0 27.932795
6.7102599 -0.49999416 6.5610061 0 0 0 0 27.93774
4.6876812 -0.18762717 6.1566219 0 0 0 0 27.862192
5.2393665 -0.24474452 6.1581626 0 0 0 0 27.86714
5.8742013 -0.29144326 6.2766528 0 0 0 0 27.872086
6.7231121 -0.34751409 6.5609746 0 0 0 0 27.877033
4.6812086 -0.093470521 6.1457648 0 0 0 0 27.881981
5.2399907 -0.1346245 6.1543183 0 0 0 0 27.886927
5.9059558 -0.16251735 6.3038063 0 0 0 0 27.891874
6.7329874 -0.19342101 6.561172 0 0 0 0 27.89682
4.6687236 -0.00027535646 6.1299114 0 0 0 0 27.901768
5.2376099 -0.024486518 6.1494761 0 0 0 0 27.906715
5.9277 -0.033526819 6.3239665 0 0 0 0 27.911661
6.7368507 -0.040292647 6.5603724 0 0 0 0 27.916609
4.6532335 0.092938133 6.1120591 0 0 0 0 27.921556
5.2412381 0.086607821 6.1546288 0 0 0 0 27.926502
5.9514537 0.097449481 6.3481269 0 0 0 0 27.93145
6.7337127 0.11387812 6.5565782 0 0 0 0 27.936398
4.6457486 0.18609436 6.1062002 0 0 0 0 27.941343
5.2408538 0.19672868 6.1557837 0 0 0 0 27.946291
5.99123 0.23031478 6.3952765 0 0 0 0 27.951239
6.7345738 0.2680186 6.5607796 0 0 0 0 27.956184
4.6362553 0.27826151 6.1003413 0 0 0 0 27.961132
5.2294641 0.3079198 6.1479464 0 0 0 0 27.96608
6.0280099 0.36520144 6.4394298 0 0 0 0 27.971025
6.7264252 0.42221525 6.5589871 0 0 0 0 27.975973
4.6247563 0.37044233 6.0914831 0 0 0 0 27.980921
5.2290826 0.41903368 6.1561012 0 0 0 0 27.985867
6.0377684 0.50026333 6.4596024 0 0 0 0 27.990814
6.7182751 0.57640678 6.5621934 0 0 0 0 27.995762
4.6142573 0.4626123 6.0876236 0 0 0 0 28.000708
5.2206845 0.52919978 6.1562595 0 0 0 0 28.005655
6.0204864 0.63249969 6.4547911 0 0 0 0 28.010601
6.6991138 0.7306658 6.5584073 0 0 0 0 28.015549
4.604763 0.55577344 6.0867639 0 0 0 0 28.020496
5.2042785 0.63941658 6.1494226 0 0 0 0 28.025442
6.0082092 0.76570201 6.4559765 0 0 0 0 28.03039
6.6779423 0.88393426 6.5556202 0 0 0 0 28.035337
4.5822368 0.64602137 6.06991 0 0 0 0 28.040283
5.1898727 0.74961603 6.1485839 0 0 0 0 28.045231
5.9849124 0.89697033 6.4511666 0 0 0 0 28.050179
6.6487508 1.0352498 6.5488358 0 0 0 0 28.055124
4.5767412 0.73915195 6.0770459 0 0 0 0 28.060072
5.1674457 0.85786653 6.1397486 0 0 0 0 28.06502
5.9636192 1.029223 6.4503555 0 0 0 0 28.069965
6.6245661 1.1875283 6.5510483 0 0 0 0 28.074913
4.5652337 0.83131993 6.0791855 0 0 0 0 28.079861
5.1430154 0.96612626 6.1319137 0 0 0 0 28.084806
5.9323049 1.1595362 6.4425492 0 0 0 0 28.089754
6.5823498 1.3369179 6.539269 0 0 0 0 28.094702
4.5497127 0.92251426 6.0763249 0 0 0 0 28.099648
5.1255941 1.0753373 6.1340742 0 0 0 0 28.104595
5.8989816 1.2888583 6.4357419 0 0 0 0 28.109543
6.539124 1.4853083 6.5304885 0 0 0 0 28.114489
4.5301881 1.0137306 6.0724678 0 0 0 0 28.119436
5.1051683 1.184564 6.1362352 0 0 0 0 28.124382
5.869657 1.4181519 6.4349308 0 0 0 0 28.12933
6.5069141 1.6356242 6.5357008 0 0 0 0 28.134277
4.5166707 1.1059072 6.0756059 0 0 0 0 28.139223
5.0757213 1.2918483 6.1284008 0 0 0 0 28.144171
5.8353281 1.5474713 6.4341226 0 0 0 0 28.149118
6.4526544 1.7800741 6.523922 0 0 0 0 28.154064
4.4891286 1.1961731 6.0637512 0 0 0 0 28.159012
5.0532832 1.4000823 6.1325612 0 0 0 0 28.16396
5.7729259 1.6679682 6.4043241 0 0 0 0 28.168905
6.4054065 1.9264749 6.5221391 0 0 0 0 28.173853
4.4665885 1.2864035 6.0598931 0 0 0 0 28.178801
5.0118074 1.5044359 6.1177301 0 0 0 0 28.183746
5.709516 1.7874662 6.376524 0 0 0 0 28.188694
6.3461204 2.0679469 6.5113583 0 0 0 0 28.193642
4.4470601 1.3786113 6.0620337 0 0 0 0 28.198587
4.9763322 1.6087489 6.1098943 0 0 0 0 28.203535
5.6340661 1.9020371 6.3367271 0 0 0 0 28.208483
6.2858262 2.2084193 6.5035763 0 0 0 0 28.213428
4.4265242 1.4698228 6.0651727 0 0 0 0 28.218376
4.9559059 1.719959 6.1250539 0 0 0 0 28.223324
5.5596056 2.0145955 6.3019257 0 0 0 0 28.22827
6.2175126 2.3469369 6.4907961 0 0 0 0 28.233217
4.3999739 1.5600722 6.0613151 0 0 0 0 28.238165
4.9083958 1.8203423 6.1082206 0 0 0 0 28.243111
5.478116 2.1231923 6.2621241 0 0 0 0 28.248058
6.1511927 2.4844356 6.4840131 0 0 0 0 28.253004
4.3684134 1.6493499 6.0544591 0 0 0 0 28.257952
4.8628917 1.9217074 6.0973859 0 0 0 0 28.262899
5.4066424 2.2337213 6.2353168 0 0 0 0 28.267845
6.0828571 2.6199424 6.4772277 0 0 0 0 28.272793
4.3428655 1.7405871 6.0555997 0 0 0 0 28.27774
4.8264132 2.0270112 6.0995483 0 0 0 0 28.282686
5.3251333 2.3393075 6.2005105 0 0 0 0 28.287634
6.0034919 2.7515106 6.4644446 0 0 0 0 28.292582
4.3123016 1.8298527 6.0537415 0 0 0 0 28.297527
4.7758904 2.1264002 6.0877132 0 0 0 0 28.302475
5.2365899 2.4399333 6.1597028 0 0 0 0 28.307423
5.8187633 2.8297336 6.3386822 0 0 0 0 28.312368
4.2837477 1.921104 6.054883 0 0 0 0 28.317316
4.7283721 2.2267663 6.0818763 0 0 0 0 28.322264
5.170115 2.5504131 6.1478887 0 0 0 0 28.327209
5.6259694 2.8969984 6.2049127 0 0 0 0 28.332157
4.2499309 2.0135665 6.0552702 0 0 0 0 28.972692
4.6794138 2.3305767 6.0793095 0 0 0 0 28.977638
5.0919523 2.6576509 6.1263661 0 0 0 0 28.982586
5.5436769 3.0225279 6.1974335 0 0 0 0 28.987534
4.2233291 2.1067817 6.0653982 0 0 0 0 28.992479
4.6288252 2.429924 6.0734558 0 0 0 0 28.997427
5.0284047 2.7670643 6.1225286 0 0 0 0 29.002375
5.459156 3.1400509 6.1886134 0 0 0 0 29.00732
4.1917119 2.1980236 6.0705271 0 0 0 0 29.012268
4.5762243 2.5272779 6.0686011 0 0 0 0 29.017216
4.9648547 2.8764729 6.1216893 0 0 0 0 29.022161
5.3746324 3.2575691 6.1817927 0 0 0 0 29.027109
4.1651144 2.2932339 6.0846553 0 0 0 0 29.032057
4.5256314 2.626617 6.0687456 0 0 0 0 29.037003
4.9013066 2.9868762 6.1248498 0 0 0 0 29.04195
5.2810688 3.3681302 6.1689692 0 0 0 0 29.046898
4.1455431 2.3934004 6.1117835 0 0 0 0 29.051844
4.4589849 2.7170415 6.0508904 0 0 0 0 29.056791
4.8126621 3.0804155 6.0980086 0 0 0 0 29.061737
5.1885085 3.4796798 6.1601443 0 0 0 0 29.066685
4.0868402 2.4717872 6.0859132 0 0 0 0 29.071632
4.4003544 2.8104174 6.0450325 0 0 0 0 29.076578
4.7420826 3.1858478 6.0981665 0 0 0 0 29.081526
5.0899081 3.584259 6.1443162 0 0 0 0 29.086473
3.988996 2.5263963 6.0010428 0 0 0 0 29.091419
4.3457432 2.9077668 6.0471745 0 0 0 0 29.096367
4.656436 3.2793589 6.0813212 0 0 0 0 29.101315
4.9852853 3.6848633 6.1264863 0 0 0 0 29.10626
3.9453373 2.6126895 6.0001698 0 0 0 0 29.111208
4.2760839 2.9971945 6.0333166 0 0 0 0 29.116156
4.5717878 3.37286 6.0674744 0 0 0 0 29.121101
4.8896828 3.7894127 6.1216536 0 0 0 0 29.126049
3.9036908 2.7019691 6.0032969 0 0 0 0 29.130997
4.2094197 3.085602 6.024456 0 0 0 0 29.135942
4.4931693 3.4723213 6.0656281 0 0 0 0 29.14089
4.7790155 3.8820379 6.1018176 0 0 0 0 29.145838
3.8499937 2.7823124 5.9924221 0 0 0 0 29.150784
4.1407528 3.1740165 6.0155945 0 0 0 0 29.155731
4.4014854 3.55985 6.0487776 0 0 0 0 29.160679
4.6713524 3.9756405 6.0879793 0 0 0 0 29.165625
3.8013251 2.8686237 5.9905486 0 0 0 0 29.170572
4.0700679 3.2594378 6.0057316 0 0 0 0 29.175518
4.311801 3.6473629 6.0359249 0 0 0 0 29.180466
4.5687037 4.0722103 6.0831404 0 0 0 0 29.185413
3.7456231 2.9489701 5.9816728 0 0 0 0 29.190359
3.9953654 3.3418765 5.9928665 0 0 0 0 29.195307
4.2251306 3.7378531 6.0310721 0 0 0 0 29.200254
4.4580073 4.1598182 6.0692959 0 0 0 0 29.2052
3.6889234 3.0303183 5.9737978 0 0 0 0 29.210148
3.9236815 3.428293 5.9880023 0 0 0 0 29.215096
4.1294112 3.8193882 6.0152149 0 0 0 0 29.220041
4.3442893 4.2434363 6.0544491 0 0 0 0 29.224989
3.6322165 3.1106632 5.9669209 0 0 0 0 29.229937
3.8489847 3.5127215 5.9811368 0 0 0 0 29.234882
4.0336819 3.8989184 6.0013552 0 0 0 0 29.23983
4.227541 4.3210654 6.0365973 0 0 0 0 29.244778
3.5755174 3.1930029 5.9640446 0 0 0 0 29.249723
3.7692513 3.590174 5.968267 0 0 0 0 29.254671
3.9409702 3.9824264 5.9944963 0 0 0 0 29.259619
4.1107955 4.3996873 6.0227451 0 0 0 0 29.264565
3.5117846 3.2693789 5.9511662 0 0 0 0 29.269512
3.6885159 3.6676259 5.957397 0 0 0 0 29.27446
3.8432274 4.0599556 5.9836335 0 0 0 0 29.279406
3.9869957 4.4673419 5.9998865 0 0 0 0 29.284353
3.4490597 3.3477445 5.9432878 0 0 0 0 29.289301
3.6117992 3.7490516 5.9545269 0 0 0 0 29.294247
3.7424586 4.1324964 5.9697671 0 0 0 0 29.299194
3.8712256 4.5409479 5.990027 0 0 0 0 29.30414
3.3863342 3.4261045 5.9394088 0 0 0 0 29.309088
3.5210044 3.8155513 5.9306507 0 0 0 0 29.314035
3.6447082 4.2090149 5.963901 0 0 0 0 29.318981
3.7473998 4.6035919 5.969162 0 0 0 0 29.323929
3.3105443 3.4925344 5.914525 0 0 0 0 29.328876
3.4412701 3.8939822 5.9297776 0 0 0 0 29.333822
3.5358822 4.2705903 5.9400282 0 0 0 0 29.33877
3.6215549 4.6622405 5.9482932 0 0 0 0 29.343718
3.2488286 3.5738804 5.9166455 0 0 0 0 29.348663
3.352488 3.9634588 5.9159012 0 0 0 0 29.353611
3.4310763 4.3361368 5.927155 0 0 0 0 29.358559
3.5097826 4.735806 5.950428 0 0 0 0 29.363504
3.1680105 3.6353292 5.8877592 0 0 0 0 29.368452
3.2646954 4.0309272 5.9030213 0 0 0 0 29.3734
3.3282743 4.402667 5.9182796 0 0 0 0 29.378345
3.4765582 4.9229255 6.095612 0 0 0 0 29.383293
3.1042867 3.7156765 5.8928776 0 0 0 0 29.388241
3.1769164 4.1013865 5.8971424 0 0 0 0 29.393187
3.2194273 4.4602261 5.9004002 0 0 0 0 29.398134
3.3728666 5.0144305 6.1247544 0 0 0 0 29.403082
3.0305152 3.7870748 5.8839931 0 0 0 0 29.408028
3.0830872 4.1618776 5.8792577 0 0 0 0 29.412975
3.1045415 4.5098119 5.8755155 0 0 0 0 29.417921
3.2500248 5.075038 6.1198802 0 0 0 0 29.422869
2.9557376 3.8574736 5.8761077 0 0 0 0 29.427816
2.9892662 4.2243614 5.8663735 0 0 0 0 29.432762
2.9986989 4.5683432 5.8666325 0 0 0 0 29.43771
3.1161022 5.1186991 6.0989976 0 0 0 0 29.442657
2.8769727 3.9198518 5.85882 0 0 0 0 29.165068
2.902626 4.2927532 5.866107 0 0 0 0 29.170013
2.9172795 4.6626782 5.9073968 0 0 0 0 29.174961
2.9865794 5.1632552 6.0827608 0 0 0 0 29.179909
2.8012152 3.9912655 5.8559408 0 0 0 0 29.184855
2.8017583 4.3432946 5.8432226 0 0 0 0 29.189802
2.8760107 4.8318319 6.0425744 0 0 0 0 29.19475
2.8546481 5.2029319 6.0648804 0 0 0 0 29.199696
2.7204244 4.056705 5.8450584 0 0 0 0 29.204643
2.6998799 4.3918362 5.8203359 0 0 0 0 29.209591
2.7681918 4.8933816 6.0446992 0 0 0 0 29.214537
2.7196822 5.2356191 6.042995 0 0 0 0 29.219484
2.6386182 4.1191459 5.8341732 0 0 0 0 29.22443
2.605057 4.4513292 5.8154535 0 0 0 0 29.229378
2.6553316 4.9469566 6.0388198 0 0 0 0 29.234325
2.5897467 5.274272 6.0311103 0 0 0 0 29.239271
2.555825 4.1845851 5.8272891 0 0 0 0 29.244219
2.5001431 4.4928784 5.7895608 0 0 0 0 29.249166
2.5353973 4.9855685 6.01893 0 0 0 0 29.254112
2.4597929 5.3089194 6.0202217 0 0 0 0 29.25906
2.4669797 4.2400565 5.8084002 0 0 0 0 29.264008
2.4436767 4.6241231 5.8807135 0 0 0 0 29.268953
2.4194875 5.0291514 6.0080419 0 0 0 0 29.273901
2.3217411 5.3236127 5.9893198 0 0 0 0 29.278849
2.3751047 4.2895408 5.7855062 0 0 0 0 29.283794
2.3912981 4.7743306 5.9948769 0 0 0 0 29.288742
2.301554 5.06774 5.9961495 0 0 0 0 29.29369
2.1866958 5.3392825 5.9644165 0 0 0 0 29.298635
2.2902985 4.3529749 5.7836194 0 0 0 0 29.303583
2.2874272 4.8258529 5.9869881 0 0 0 0 29.308531
2.1765413 5.0903678 5.9662466 0 0 0 0 29.313477
2.056695 5.3639159 5.9515162 0 0 0 0 29.318424
2.2024753 4.4134221 5.77773 0 0 0 0 29.323372
2.1774921 4.8644066 5.9660907 0 0 0 0 29.328318
2.0606124 5.1299338 5.9603519 0 0 0 0 29.333265
1.9256668 5.3825502 5.9376111 0 0 0 0 29.338211
2.1379058 4.525713 5.8418684 0 0 0 0 29.343159
2.0736306 4.9179139 5.9672012 0 0 0 0 29.348106
1.9396168 5.1555262 5.9424477 0 0 0 0 29.353052
1.793601 5.3931885 5.9176989 0 0 0 0 29.358
2.0915654 4.6858773 5.9680338 0 0 0 0 29.362947
1.9606513 4.9474769 5.9402962 0 0 0 0 29.367893
1.819631 5.1831055 5.929543 0 0 0 0 29.372841
1.6625463 5.4058127 5.9037867 0 0 0 0 29.377789
1.9926859 4.7363696 5.9541388 0 0 0 0 29.382734
1.8486975 4.9820232 5.9243937 0 0 0 0 29.387682
1.7016504 5.211669 5.9206371 0 0 0 0 29.39263
1.5334784 5.4154234 5.8898706 0 0 0 0 29.397575
1.8907861 4.7828732 5.9372411 0 0 0 0 29.402523
1.7417861 5.0255351 5.9204941 0 0 0 0 29.407471
1.5785899 5.2232609 5.8967199 0 0 0 0 29.412416
1.4033597 5.4140401 5.8669448 0 0 0 0 29.417364
1.7929242 4.8373461 5.9333463 0 0 0 0 29.422312
1.6267891 5.0510907 5.8985844 0 0 0 0 29.427258
1.4565305 5.2348409 5.8758016 0 0 0 0 29.432205
1.2742521 5.4146438 5.8500199 0 0 0 0 29.437153
1.6889994 4.8788509 5.9154439 0 0 0 0 29.442099
1.5137972 5.07763 5.8806729 0 0 0 0 29.447046
1.3375282 5.2583923 5.8708892 0 0 0 0 29.451992
1.1451275 5.4112425 5.8320909 0 0 0 0 29.45694
1.5830561 4.9163613 5.8965378 0 0 0 0 29.461887
1.4028431 5.1121478 5.8747654 0 0 0 0 29.466833
1.2154424 5.2639647 5.8489642 0 0 0 0 29.471781
1.0190228 5.411819 5.8211622 0 0 0 0 29.476728
1.4801593 4.9638448 5.8916368 0 0 0 0 29.481674
1.2888335 5.1346812 5.85885 0 0 0 0 29.486622
1.0943488 5.2675271 5.8280354 0 0 0 0 29.49157
0.89289248 5.4063926 5.808228 0 0 0 0 29.496515
1.37322 5.0023465 5.8787298 0 0 0 0 29.501463
1.1738007 5.1522179 5.8389297 0 0 0 0 29.506411
0.97529286 5.2790689 5.8181114 0 0 0 0 29.511356
0.76771706 5.390964 5.7862854 0 0 0 0 29.516304
1.2642478 5.0338573 5.859818 0 0 0 0 29.521252
1.0587969 5.1757417 5.8300128 0 0 0 0 29.526197
0.85519701 5.2816143 5.8021798 0 0 0 0 29.531145
