# .PCD v0.7 - Point Cloud Data file format
VERSION 0.7
FIELDS x y z normal_x normal_y normal_z intensity curvature
SIZE 4 4 4 4 4 4 4 4
TYPE F F F F F F F F
COUNT 1 1 1 1 1 1 1 1
WIDTH 979
HEIGHT 1
VIEWPOINT 0 0 0 1 0 0 0
POINTS 979
DATA ascii
-0.44126126 0.06820035 0.20934692 0 0 0 0 19.63748
-0.47836018 0.037803236 0.25966415 0 0 0 0 19.647375
-0.45944697 0.042585529 0.2330941 0 0 0 0 19.411009
-0.54340923 0.0088705067 0.31966275 0 0 0 0 19.420904
-0.43455243 0.046179887 0.20298417 0 0 0 0 19.425852
-0.45169914 0.015527895 0.24420604 0 0 0 0 19.435747
-0.45569929 0.021514259 0.23023179 0 0 0 0 19.450586
-0.53966922 -0.014192256 0.31980681 0 0 0 0 19.460482
-0.42481968 0.025029834 0.19709255 0 0 0 0 19.465429
-0.51972049 -0.0045526247 0.28669852 0 0 0 0 19.475321
-0.44794425 0.0013938566 0.22634573 0 0 0 0 19.490164
-0.54391879 -0.038148616 0.32399383 0 0 0 0 19.500055
-0.45196691 0.0053804461 0.21237913 0 0 0 0 19.505003
-0.54292488 -0.029250691 0.30198306 0 0 0 0 19.514898
-0.51502532 -0.022711869 0.2658473 0 0 0 0 19.529737
-0.55215335 -0.063040972 0.33320385 0 0 0 0 19.539633
-0.43324104 -0.014886778 0.20243886 0 0 0 0 19.54458
-0.55018055 -0.055161759 0.30919197 0 0 0 0 19.554472
-0.52527523 -0.048584234 0.27407119 0 0 0 0 19.569315
-0.4833881 -0.040228594 0.23085967 0 0 0 0 19.584154
-0.5584411 -0.082058206 0.31740901 0 0 0 0 19.594049
-0.54551607 -0.076321617 0.28835097 0 0 0 0 19.608892
-0.52868277 -0.1073772 0.32540375 0 0 0 0 19.618784
-0.44568315 -0.058744043 0.21181831 0 0 0 0 19.623732
-0.49176425 -0.09497498 0.27920207 0 0 0 0 19.633627
-0.51680696 -0.11653987 0.32041678 0 0 0 0 19.638571
-0.49881315 -0.092958823 0.26425728 0 0 0 0 19.648466
-0.51288527 -0.093856201 0.25135797 0 0 0 0 19.663309
-0.5251497 -0.12269567 0.26260135 0 0 0 0 19.702883
-0.55143958 -0.15734889 0.28193465 0 0 0 0 19.74246
-4.5926471 -1.7040876 3.2465899 0 0 0 0 19.757299
-4.5543947 -1.6674783 3.0062671 0 0 0 0 19.772142
-0.51569808 -0.17482463 0.26689869 0 0 0 0 19.782034
-4.4462075 -1.6297123 2.7485981 0 0 0 0 19.786982
-4.4201403 -1.6268164 2.5474625 0 0 0 0 19.801825
-3.7970264 -2.476943 2.8480434 0 0 0 0 20.801275
-3.7728043 -2.5474682 3.0571871 0 0 0 0 20.806223
-3.7311642 -2.4081299 2.4364963 0 0 0 0 20.811171
-3.7069225 -2.4667363 2.6225975 0 0 0 0 20.816118
-3.735858 -2.5586536 2.8470604 0 0 0 0 20.821066
-3.6905115 -2.6094625 3.0380373 0 0 0 0 20.82601
-3.6740763 -2.5007703 2.4425712 0 0 0 0 20.830957
-3.6206722 -2.534755 2.6074517 0 0 0 0 20.835905
-3.5803058 -2.5735931 2.775409 0 0 0 0 20.840853
-3.6353073 -2.6900914 3.042078 0 0 0 0 20.8458
-3.5396369 -2.5383909 2.398098 0 0 0 0 20.850748
-3.5615182 -2.6204219 2.6114926 0 0 0 0 20.855692
-3.5843709 -2.7014289 2.8288884 0 0 0 0 20.86064
-3.6052079 -2.7913723 3.0703065 0 0 0 0 20.865587
-3.5226905 -2.6585 2.4354539 0 0 0 0 20.870535
-3.5224502 -2.7228112 2.6346848 0 0 0 0 20.875483
-3.555306 -2.8066943 2.8581357 0 0 0 0 20.88043
-3.5961897 -2.9093633 3.1186898 0 0 0 0 20.885374
-3.4635668 -2.7501421 2.4455163 0 0 0 0 20.890322
-3.5105104 -2.8468442 2.6790767 0 0 0 0 20.895269
-3.5332961 -2.9218504 2.8974497 0 0 0 0 20.900217
-3.5701301 -3.0175805 3.1529603 0 0 0 0 20.905165
-3.4898996 -2.9136717 2.5202215 0 0 0 0 20.910112
-3.4684548 -2.9522526 2.7052648 0 0 0 0 20.915056
-3.522357 -3.0488529 2.9478552 0 0 0 0 20.920004
-3.5269945 -3.1140127 3.176111 0 0 0 0 20.924952
-3.422744 -3.0023985 2.5292366 0 0 0 0 20.929899
-3.4817054 -3.10693 2.7768776 0 0 0 0 20.934847
-3.4702272 -3.1443906 2.9669621 0 0 0 0 20.939791
-3.4185195 -3.1523271 3.1397598 0 0 0 0 20.944738
-3.4491577 -3.1779003 2.6119821 0 0 0 0 20.949686
-3.403465 -3.1838024 2.7767999 0 0 0 0 20.954634
-3.4160852 -3.2389479 2.9860561 0 0 0 0 20.959581
-3.4155993 -3.2881935 3.2052319 0 0 0 0 20.964529
-3.3588877 -3.2509058 2.6088364 0 0 0 0 20.969473
-3.2889757 -3.2251413 2.7494335 0 0 0 0 20.974421
-3.3307455 -3.3029199 2.977901 0 0 0 0 20.979368
-3.437876 -3.4547093 3.2969248 0 0 0 0 20.984316
-3.3521671 -3.4068093 2.6743608 0 0 0 0 20.989264
-3.3637314 -3.4569635 2.884594 0 0 0 0 20.994211
-3.39237 -3.5198963 3.107949 0 0 0 0 20.999155
-3.4209616 -3.5887456 3.355325 0 0 0 0 21.004103
-3.323339 -3.5469866 2.7267287 0 0 0 0 21.00905
-3.3489671 -3.6089511 2.9500663 0 0 0 0 21.013998
-3.3765426 -3.6649029 3.171392 0 0 0 0 21.018946
-3.404083 -3.7287643 3.4187453 0 0 0 0 21.023893
-3.3076661 -3.7099688 2.7962353 0 0 0 0 21.028837
-3.3281939 -3.7600043 3.014508 0 0 0 0 21.033785
-3.3557239 -3.811954 3.2368186 0 0 0 0 21.038733
-3.3902676 -3.8787236 3.4902132 0 0 0 0 21.04368
-3.2920375 -3.8789403 2.868762 0 0 0 0 21.048628
-3.3054502 -3.9160633 3.082957 0 0 0 0 21.053572
-3.3409996 -3.9729075 3.3123207 0 0 0 0 21.058519
-3.3724592 -4.0297241 3.561666 0 0 0 0 21.063467
-3.2653677 -4.0430355 2.9382207 0 0 0 0 21.068415
-3.2908273 -4.0890012 3.1625006 0 0 0 0 21.073362
-3.3666513 -4.1912842 3.4352038 0 0 0 0 21.07831
-3.5623522 -4.4467974 3.8649821 0 0 0 0 21.083254
-3.4466929 -4.4893041 3.2105994 0 0 0 0 21.088202
-3.473032 -4.5292168 3.4478614 0 0 0 0 21.093149
-3.5094302 -4.5770097 3.6901958 0 0 0 0 21.098097
-3.553823 -4.6386061 3.9656148 0 0 0 0 21.103045
-3.4222977 -4.6912999 3.3031964 0 0 0 0 21.107992
-3.4455383 -4.7202559 3.5374057 0 0 0 0 21.112936
-3.4949784 -4.7768788 3.7908294 0 0 0 0 21.117884
-3.5332341 -4.8215671 4.0581613 0 0 0 0 21.122831
-3.4010217 -4.9102259 3.4068649 0 0 0 0 21.127779
-3.4322569 -4.9420733 3.6491199 0 0 0 0 21.132727
-3.4664786 -4.9699121 3.8853743 0 0 0 0 21.137674
-3.5087051 -5.0125542 4.154716 0 0 0 0 21.142618
-3.3838918 -5.1500621 3.5246232 0 0 0 0 21.147566
-3.4079657 -5.1630073 3.7597802 0 0 0 0 21.152514
-3.4471436 -5.1877861 3.9990458 0 0 0 0 21.157461
-3.4801981 -5.2065783 4.2522631 0 0 0 0 21.162409
-3.3567789 -5.392993 3.6443462 0 0 0 0 21.167356
-3.3847761 -5.397903 3.8784926 0 0 0 0 21.1723
-3.4349754 -5.4295325 4.1288304 0 0 0 0 21.177248
-3.3779955 -5.296639 4.266118 0 0 0 0 21.182196
-3.2303481 -5.4824944 3.6600749 0 0 0 0 20.92169
-3.2835536 -5.5190463 3.9174497 0 0 0 0 20.926634
-3.3498602 -5.5674462 4.1799254 0 0 0 0 20.931581
-3.2684219 -5.3739657 4.2718782 0 0 0 0 20.936529
-3.027113 -5.4349113 3.5869842 0 0 0 0 20.941477
-3.0813236 -5.4674892 3.8343492 0 0 0 0 20.946424
-3.1486189 -5.5099187 4.0858083 0 0 0 0 20.951372
-3.1611884 -5.4590983 4.2836909 0 0 0 0 20.956316
-2.8298554 -5.3872423 3.5189228 0 0 0 0 20.961264
-2.8819985 -5.4049091 3.7472262 0 0 0 0 20.966211
-2.9594088 -5.4592285 4.0007725 0 0 0 0 20.971159
-3.0296512 -5.5015869 4.2642441 0 0 0 0 20.976107
-2.6405783 -5.3384771 3.4528968 0 0 0 0 20.981054
-2.702832 -5.3680305 3.6842875 0 0 0 0 20.985998
-2.7741683 -5.4054914 3.9157467 0 0 0 0 20.990946
-2.855525 -5.4597301 4.1813102 0 0 0 0 20.995893
-2.4552674 -5.2876554 3.3898845 0 0 0 0 21.000841
-2.5245912 -5.3221512 3.6173241 0 0 0 0 21.005789
-2.6009817 -5.3625789 3.843816 0 0 0 0 21.010736
-2.685365 -5.4158163 4.1013894 0 0 0 0 21.01568
-2.284039 -5.248651 3.3359797 0 0 0 0 21.020628
-2.3553691 -5.2801557 3.5554173 0 0 0 0 21.025576
-2.4337769 -5.3195848 3.7759147 0 0 0 0 21.030523
-2.5191696 -5.3688521 4.0224781 0 0 0 0 21.035471
-2.1147606 -5.2056146 3.2840717 0 0 0 0 21.040415
-2.1911347 -5.2390862 3.498539 0 0 0 0 21.045362
-2.2735744 -5.2785001 3.712054 0 0 0 0 21.05031
-2.3630154 -5.3297486 3.952642 0 0 0 0 21.055258
-1.958582 -5.1773968 3.2442772 0 0 0 0 21.060205
-2.0369561 -5.2068806 3.449739 0 0 0 0 21.065153
-2.1193905 -5.2413311 3.6532362 0 0 0 0 21.070097
-2.2098365 -5.2886052 3.8838141 0 0 0 0 21.075045
-1.8022987 -5.1371884 3.2004423 0 0 0 0 21.079992
-1.880672 -5.1617122 3.3948865 0 0 0 0 21.08494
-1.9712206 -5.2080746 3.6004612 0 0 0 0 21.089888
-2.0616438 -5.2473965 3.8180108 0 0 0 0 21.094835
-1.6500286 -5.0999207 3.1606381 0 0 0 0 21.099779
-1.7365102 -5.1353598 3.3561566 0 0 0 0 21.104727
-1.8270532 -5.1767588 3.5517132 0 0 0 0 21.109674
-1.9164323 -5.2051449 3.7542195 0 0 0 0 21.114622
-1.5047928 -5.0685558 3.1268883 0 0 0 0 21.11957
-1.5902314 -5.0940523 3.3093667 0 0 0 0 21.124517
-1.682802 -5.1354527 3.4989321 0 0 0 0 21.129461
-1.7793096 -5.176765 3.7025149 0 0 0 0 21.134409
-1.3625164 -5.0331564 3.0931394 0 0 0 0 21.139357
-1.4530475 -5.0676022 3.2756715 0 0 0 0 21.144304
-1.547628 -5.1060147 3.4562349 0 0 0 0 21.149252
-1.6461792 -5.1493254 3.6548331 0 0 0 0 21.154196
-1.2242678 -5.0017009 3.0624244 0 0 0 0 21.159143
-1.3188591 -5.0411139 3.2429914 0 0 0 0 21.164091
-1.4144343 -5.074553 3.4135413 0 0 0 0 21.169039
-1.5149909 -5.1148729 3.6041374 0 0 0 0 21.173986
-1.0890017 -4.9701967 3.0357246 0 0 0 0 21.178934
-1.1845556 -5.0006437 3.2042642 0 0 0 0 21.183878
-1.2841954 -5.0390534 3.3718491 0 0 0 0 21.188826
-1.3898641 -5.090323 3.5625055 0 0 0 0 21.193773
-0.9577269 -4.9386411 3.0110443 0 0 0 0 21.198721
-1.0563385 -4.9720793 3.1736071 0 0 0 0 21.203669
-1.1590598 -5.0184598 3.341233 0 0 0 0 21.208616
-1.2626586 -5.0558076 3.515831 0 0 0 0 21.21356
-0.82740068 -4.9010787 2.9843493 0 0 0 0 21.218508
-0.9311468 -4.9494529 3.150986 0 0 0 0 21.223455
-1.0338238 -4.9848876 3.3035731 0 0 0 0 21.228403
-1.14046 -5.0232272 3.4721875 0 0 0 0 21.233351
-0.70320368 -4.8814092 2.9697452 0 0 0 0 21.238298
-0.80582231 -4.9088621 3.1173038 0 0 0 0 21.243242
-0.91159642 -4.9542637 3.2709386 0 0 0 0 21.24819
-1.0212741 -4.9935985 3.4325693 0 0 0 0 21.253138
-0.57996655 -4.8577261 2.955133 0 0 0 0 21.258085
-0.68352789 -4.8742127 3.0906577 0 0 0 0 21.263033
-0.79236478 -4.9236021 3.2393188 0 0 0 0 21.267977
-0.9030695 -4.9629498 3.3949537 0 0 0 0 21.272924
-0.45761511 -4.8200512 2.9344783 0 0 0 0 21.277872
-0.56736201 -4.8574562 3.076102 0 0 0 0 21.28282
-0.6751315 -4.8948998 3.2127168 0 0 0 0 21.287767
-0.78786641 -4.9332595 3.3593564 0 0 0 0 21.292715
-0.33936104 -4.7962966 2.9238918 0 0 0 0 21.297659
-0.45015064 -4.83571 3.0605264 0 0 0 0 21.302607
-0.56089163 -4.8641739 3.1831224 0 0 0 0 21.307554
-0.67567039 -4.9055252 3.3267806 0 0 0 0 21.312502
-0.22210303 -4.7725253 2.9143112 0 0 0 0 21.31745
-0.33586663 -4.804945 3.0409341 0 0 0 0 21.322397
-0.44868279 -4.8403931 3.1625626 0 0 0 0 21.327341
-0.56447589 -4.8787708 3.2962143 0 0 0 0 21.332289
-0.10677266 -4.7397447 2.9007094 0 0 0 0 21.337236
-0.22266398 -4.7861347 3.0303891 0 0 0 0 21.342184
-0.33646432 -4.8156095 3.1420009 0 0 0 0 21.347132
-0.45531541 -4.8579721 3.2716792 0 0 0 0 21.352079
0.0064651235 -4.720902 2.8981664 0 0 0 0 21.357023
-0.11136206 -4.7543263 3.0128095 0 0 0 0 21.361971
-0.22721037 -4.7867956 3.1204398 0 0 0 0 21.366919
-0.3471463 -4.837153 3.2491496 0 0 0 0 21.371866
0.11975376 -4.6960635 2.8936045 0 0 0 0 21.376814
-0.0020999722 -4.7294698 3.0022645 0 0 0 0 21.381758
-0.11901181 -4.7669406 3.1069157 0 0 0 0 21.386705
-0.24086127 -4.8003459 3.2165749 0 0 0 0 21.391653
0.23043311 -4.6690974 2.8897443 0 0 0 0 21.154104
0.10652839 -4.7054763 2.9934335 0 0 0 0 21.159052
-0.013370555 -4.7369318 3.0870869 0 0 0 0 21.164
-0.13528243 -4.7753224 3.1937735 0 0 0 0 21.168947
0.34263128 -4.6582232 2.8962293 0 0 0 0 21.173895
0.21383364 -4.6766124 2.982877 0 0 0 0 21.178839
0.091854542 -4.7150555 3.0745635 0 0 0 0 21.183786
-0.033110149 -4.7564349 3.1762731 0 0 0 0 21.188734
0.4519763 -4.629344 2.8946662 0 0 0 0 21.193682
0.32113254 -4.6487422 2.9733255 0 0 0 0 21.198629
0.19708242 -4.6941667 3.0650446 0 0 0 0 21.203577
0.070102334 -4.7335544 3.1587555 0 0 0 0 21.208521
0.56032509 -4.6004481 2.8941088 0 0 0 0 21.213469
0.4273639 -4.6318235 2.9738185 0 0 0 0 21.218416
0.30036426 -4.6652746 3.0495086 0 0 0 0 21.223364
0.17238902 -4.7006826 3.1352091 0 0 0 0 21.228312
0.66958708 -4.5835309 2.9015901 0 0 0 0 21.233259
0.53263092 -4.6108956 2.9733033 0 0 0 0 21.238203
0.40356734 -4.6493387 3.0460188 0 0 0 0 21.243151
0.27359375 -4.6797657 3.1207101 0 0 0 0 21.248098
0.777915 -4.5596042 2.9080532 0 0 0 0 21.253046
0.63790625 -4.5899577 2.9747891 0 0 0 0 21.257994
0.50779581 -4.6304126 3.0415154 0 0 0 0 21.262941
0.3738026 -4.6588321 3.1072171 0 0 0 0 21.267885
0.8852579 -4.5336685 2.9135149 0 0 0 0 21.272833
0.74414253 -4.5750093 2.981293 0 0 0 0 21.277781
0.60911286 -4.6004715 3.0319886 0 0 0 0 21.282728
0.47401872 -4.6388822 3.0977287 0 0 0 0 21.287676
0.99551189 -4.5217175 2.9310138 0 0 0 0 21.29262
0.8474471 -4.5510454 2.98278 0 0 0 0 21.297567
0.71038646 -4.5765133 3.0264838 0 0 0 0 21.302515
0.57327712 -4.6129332 3.0842252 0 0 0 0 21.307463
1.1018769 -4.4947557 2.9394791 0 0 0 0 21.31241
0.95176536 -4.5260854 2.9852607 0 0 0 0 21.317358
0.81261992 -4.5595374 3.0280006 0 0 0 0 21.322302
0.67252374 -4.588974 3.0727301 0 0 0 0 21.32725
1.2082341 -4.46978 2.9509532 0 0 0 0 21.332197
1.0560762 -4.5031118 2.9907498 0 0 0 0 21.337145
0.91486293 -4.5415597 3.0295148 0 0 0 0 21.342093
0.77178746 -4.5649986 3.0652363 0 0 0 0 21.34704
1.3165566 -4.4508009 2.9684405 0 0 0 0 21.351984
1.159405 -4.4791193 2.9982409 0 0 0 0 21.356932
1.0161568 -4.5175757 3.0290141 0 0 0 0 21.361879
0.87099922 -4.5470128 3.0597644 0 0 0 0 21.366827
1.4249285 -4.4268188 2.9859121 0 0 0 0 21.371775
1.264685 -4.4621258 3.0107491 0 0 0 0 21.376722
1.1184063 -4.5005779 3.0345347 0 0 0 0 21.381666
0.97025383 -4.5260148 3.0572836 0 0 0 0 21.386614
1.5332683 -4.406827 3.0053988 0 0 0 0 21.391562
1.3699788 -4.4441261 3.0242548 0 0 0 0 21.396509
1.218738 -4.4735713 3.0360308 0 0 0 0 21.401457
1.0685248 -4.5020137 3.0517979 0 0 0 0 21.406404
1.6436305 -4.3858423 3.0278745 0 0 0 0 21.411348
1.4743288 -4.4191246 3.0347426 0 0 0 0 21.416296
1.3200476 -4.4495654 3.0395341 0 0 0 0 21.421244
1.1697502 -4.4860125 3.0543282 0 0 0 0 21.426191
1.752022 -4.3618345 3.0503502 0 0 0 0 21.431139
1.5786854 -4.3951063 3.0492349 0 0 0 0 21.436083
1.4223328 -4.4305453 3.0490518 0 0 0 0 21.441031
1.2690277 -4.4630022 3.0528445 0 0 0 0 21.445978
1.8634109 -4.3388472 3.0748179 0 0 0 0 21.450926
1.6869833 -4.3791075 3.0687387 0 0 0 0 21.455873
1.5226808 -4.4025235 3.0525482 0 0 0 0 21.460821
1.3663511 -4.43398 3.0483501 0 0 0 0 21.465765
1.9787388 -4.3258653 3.1083035 0 0 0 0 21.470713
1.7943304 -4.3580961 3.0882311 0 0 0 0 21.47566
1.6260244 -4.3775091 3.0620434 0 0 0 0 21.480608
1.4685912 -4.4189596 3.0568831 0 0 0 0 21.485556
2.0911479 -4.3028655 3.1377697 0 0 0 0 21.490503
1.8997332 -4.3300729 3.1047096 0 0 0 0 21.495447
1.7322884 -4.3634963 3.0785649 0 0 0 0 21.500395
1.5698783 -4.396944 3.0603981 0 0 0 0 21.505342
2.2065437 -4.2828779 3.1712344 0 0 0 0 21.51029
2.012038 -4.3170748 3.1332104 0 0 0 0 21.515238
1.8386166 -4.342485 3.0940635 0 0 0 0 21.520185
1.6701893 -4.3729124 3.0649116 0 0 0 0 21.525129
2.3219781 -4.2588882 3.2046869 0 0 0 0 21.530077
2.124403 -4.2970805 3.1596887 0 0 0 0 21.535025
1.9449276 -4.3244605 3.1125739 0 0 0 0 21.539972
1.7764448 -4.3579092 3.0774314 0 0 0 0 21.54492
2.4403989 -4.2379107 3.2421381 0 0 0 0 21.549864
2.2308357 -4.2670484 3.1791601 0 0 0 0 21.554811
2.0522828 -4.301446 3.1300642 0 0 0 0 21.559759
1.8787729 -4.3328853 3.0839357 0 0 0 0 21.564707
2.5598373 -4.2159343 3.2815831 0 0 0 0 21.569654
2.3481896 -4.2510738 3.2126334 0 0 0 0 21.574602
2.1635897 -4.2854519 3.1525626 0 0 0 0 21.579546
1.9840866 -4.3118672 3.096442 0 0 0 0 21.584494
2.6793044 -4.1909547 3.3210196 0 0 0 0 21.589441
2.4625833 -4.2300739 3.2441039 0 0 0 0 21.594389
2.2709775 -4.259429 3.1710453 0 0 0 0 21.599337
2.0923772 -4.2948623 3.1129503 0 0 0 0 21.604284
2.8047454 -4.1720037 3.3684521 0 0 0 0 21.609228
2.5819778 -4.2111034 3.2805612 0 0 0 0 21.614176
2.3843405 -4.2384415 3.1955209 0 0 0 0 21.619123
2.2006869 -4.2758546 3.1294534 0 0 0 0 21.624071
2.9296834 -4.1484203 3.4143071 0 0 0 0 21.366812
2.7008188 -4.1914592 3.3164747 0 0 0 0 21.371759
2.4981256 -4.2197437 3.2234755 0 0 0 0 21.376707
2.3064818 -4.2471099 3.1394238 0 0 0 0 21.381655
3.0591826 -4.125514 3.4647007 0 0 0 0 21.386602
2.8212764 -4.1675062 3.354903 0 0 0 0 21.39155
2.6135156 -4.1977806 3.2509317 0 0 0 0 21.396494
2.4227784 -4.2341619 3.165906 0 0 0 0 21.401442
3.198643 -4.1116633 3.5270832 0 0 0 0 21.406389
2.9476993 -4.1495895 3.3993275 0 0 0 0 21.411337
2.7319226 -4.1758304 3.2823765 0 0 0 0 21.416285
2.5321805 -4.2061749 3.1823683 0 0 0 0 21.421232
3.3331754 -4.0877805 3.5834546 0 0 0 0 21.426176
3.0751662 -4.1266832 3.4427319 0 0 0 0 21.431124
2.8523273 -4.1548905 3.3158171 0 0 0 0 21.436071
2.6455636 -4.1822076 3.2038286 0 0 0 0 21.441019
3.4757063 -4.0679431 3.648807 0 0 0 0 21.445967
3.2026613 -4.1017671 3.488131 0 0 0 0 21.450914
2.9727905 -4.1279478 3.3492391 0 0 0 0 21.455858
2.7659106 -4.1652803 3.2332835 0 0 0 0 21.460806
3.6123149 -4.0370669 3.7071493 0 0 0 0 21.465754
3.3361464 -4.0798903 3.5385163 0 0 0 0 21.470701
3.1021979 -4.110064 3.3906541 0 0 0 0 21.475649
2.8853135 -4.1413503 3.2597206 0 0 0 0 21.480593
3.7588899 -4.0142488 3.7764773 0 0 0 0 21.48554
3.4756465 -4.0590501 3.5948801 0 0 0 0 21.490488
3.2306535 -4.0871668 3.4320581 0 0 0 0 21.495436
3.0087225 -4.118443 3.2901454 0 0 0 0 21.500383
3.9154582 -3.9954996 3.8537772 0 0 0 0 21.505331
3.6122017 -4.0311861 3.6482351 0 0 0 0 21.510275
3.363127 -4.0632997 3.4754429 0 0 0 0 21.515223
3.1331449 -4.0945392 3.3215637 0 0 0 0 21.52017
4.0770707 -3.9747758 3.9370508 0 0 0 0 21.525118
3.7487853 -4.0003195 3.7015812 0 0 0 0 21.530066
3.4986067 -4.0404453 3.5228195 0 0 0 0 21.535013
3.2635722 -4.0726714 3.3589644 0 0 0 0 21.539957
4.2297673 -3.9409935 4.0103207 0 0 0 0 21.544905
3.9152548 -3.9936471 3.7838812 0 0 0 0 21.549852
3.6351342 -4.0125976 3.5701768 0 0 0 0 21.5548
3.3950238 -4.0478134 3.3953524 0 0 0 0 21.559748
4.4004464 -3.9163277 4.1005454 0 0 0 0 21.564695
4.0658631 -3.9648745 3.8481774 0 0 0 0 21.569639
3.7766724 -3.985779 3.6225173 0 0 0 0 21.574587
3.5315003 -4.0229812 3.4377203 0 0 0 0 21.579535
4.5681748 -3.8856351 4.188765 0 0 0 0 21.584482
4.2274675 -3.9411695 3.9234452 0 0 0 0 21.58943
3.9252062 -3.9610124 3.6788363 0 0 0 0 21.594374
3.6729529 -4.0021811 3.4840825 0 0 0 0 21.599321
4.7469292 -3.8560166 4.2859421 0 0 0 0 21.604269
4.3931069 -3.9154866 4.0026908 0 0 0 0 21.609217
4.0787592 -3.937268 3.7421393 0 0 0 0 21.614164
3.8124859 -3.9713721 3.5264206 0 0 0 0 21.619112
4.9506526 -3.8395624 4.4060588 0 0 0 0 21.624056
4.561779 -3.886826 4.0829148 0 0 0 0 21.629004
4.2453189 -3.9166169 3.8143983 0 0 0 0 21.633951
3.9620111 -3.9456236 3.5787344 0 0 0 0 21.638899
5.1374922 -3.8039911 4.5101857 0 0 0 0 21.643847
4.7384934 -3.8572133 4.171104 0 0 0 0 21.648794
4.4089284 -3.8899395 3.8846517 0 0 0 0 21.653738
4.1274972 -3.9289882 3.643012 0 0 0 0 21.658686
5.3353634 -3.7684963 4.6222677 0 0 0 0 21.663633
4.929203 -3.8326964 4.2702518 0 0 0 0 21.668581
4.5775833 -3.8593009 3.9568722 0 0 0 0 21.673529
4.2810926 -3.8962686 3.6962886 0 0 0 0 21.678476
5.5562577 -3.7401481 4.7562776 0 0 0 0 21.68342
5.1179814 -3.8001628 4.367383 0 0 0 0 21.688368
4.7502737 -3.8266835 4.0330706 0 0 0 0 21.693316
4.4427066 -3.8645999 3.7565367 0 0 0 0 21.698263
5.7752151 -3.7037861 4.8872714 0 0 0 0 21.703211
5.3168068 -3.7656991 4.4714675 0 0 0 0 21.708158
4.9429522 -3.8022041 4.1252131 0 0 0 0 21.713102
4.6203151 -3.8390398 3.8297381 0 0 0 0 21.71805
6.0251727 -3.6786346 5.0441728 0 0 0 0 21.722998
5.5266485 -3.7333078 4.5845137 0 0 0 0 21.727945
5.1416602 -3.7757688 4.2203255 0 0 0 0 21.732893
4.7979679 -3.8074858 3.8999219 0 0 0 0 21.737837
6.2353301 -3.6181984 5.1681294 0 0 0 0 21.742785
5.7435484 -3.6969638 4.7025194 0 0 0 0 21.747732
5.330493 -3.7332551 4.3084283 0 0 0 0 21.75268
4.9886417 -3.7780209 3.9800589 0 0 0 0 21.757627
6.5034285 -3.5851583 5.3409324 0 0 0 0 21.762575
5.9844856 -3.6657782 4.8414426 0 0 0 0 21.767519
5.5542779 -3.7069905 4.4224391 0 0 0 0 21.772467
5.1813807 -3.7425644 4.0621696 0 0 0 0 21.777414
6.7656398 -3.5370779 5.5067134 0 0 0 0 21.782362
6.2294831 -3.6286228 4.9813309 0 0 0 0 21.78731
5.7721605 -3.6686761 4.5324373 0 0 0 0 21.792257
5.3881402 -3.7092056 4.1542301 0 0 0 0 21.797201
7.0768943 -3.5023308 5.7133331 0 0 0 0 21.802149
6.4915371 -3.5915804 5.13515 0 0 0 0 21.807096
6.0040841 -3.6294658 4.6503749 0 0 0 0 21.812044
5.6049428 -3.6739194 4.2522435 0 0 0 0 21.816992
7.3902473 -3.457593 5.9209142 0 0 0 0 21.821939
6.7836509 -3.5577497 5.3108544 0 0 0 0 21.826883
6.2540488 -3.592375 4.783246 0 0 0 0 21.831831
5.8288026 -3.6346793 4.3552165 0 0 0 0 21.836779
7.744431 -3.4129288 6.1659713 0 0 0 0 22.819105
7.0289111 -3.4867435 5.4520631 0 0 0 0 22.824053
6.5192523 -3.5498083 4.9283018 0 0 0 0 22.829
6.0720377 -3.5942178 4.4732318 0 0 0 0 22.833948
8.0758924 -3.3511167 6.3875346 0 0 0 0 22.838892
7.3341093 -3.4388163 5.6377697 0 0 0 0 22.84384
6.8072758 -3.5098169 5.0870986 0 0 0 0 22.848787
6.3339105 -3.5580904 4.6021428 0 0 0 0 22.853735
8.2625275 -3.2193513 6.4964557 0 0 0 0 22.858683
7.6654005 -3.3890526 5.8433719 0 0 0 0 22.86363
7.1023784 -3.4628658 5.2508497 0 0 0 0 22.868574
6.5988827 -3.5109808 4.7320099 0 0 0 0 22.873522
8.319232 -3.0347311 6.5057292 0 0 0 0 22.878469
8.0487633 -3.3486221 6.0888009 0 0 0 0 22.883417
7.3826056 -3.3968091 5.4036036 0 0 0 0 22.888365
6.887888 -3.4670298 4.8777952 0 0 0 0 22.893312
8.418952 -2.864378 6.5518794 0 0 0 0 22.898256
8.4862375 -3.3125439 6.3730354 0 0 0 0 22.903204
7.7248611 -3.3471587 5.6011672 0 0 0 0 22.908152
7.200983 -3.4202332 5.0404801 0 0 0 0 22.913099
8.4736671 -2.6787271 6.5641618 0 0 0 0 22.918047
8.7889013 -3.2095702 6.5555973 0 0 0 0 22.922991
8.0912323 -3.291662 5.8156223 0 0 0 0 22.927938
7.5001931 -3.3553395 5.1921682 0 0 0 0 22.932886
8.5734053 -2.5073538 6.6153135 0 0 0 0 22.937834
8.9536934 -3.0466754 6.6375189 0 0 0 0 22.942781
8.4996901 -3.2384439 6.0579233 0 0 0 0 22.947729
7.8494687 -3.2977777 5.3776851 0 0 0 0 22.952673
8.6421347 -2.3267679 6.6455612 0 0 0 0 22.957621
9.0634813 -2.8654153 6.6786032 0 0 0 0 22.962568
8.9412813 -3.1804357 6.3240848 0 0 0 0 22.967516
8.229826 -3.2394216 5.5830817 0 0 0 0 22.972464
8.7268877 -2.1492789 6.6897569 0 0 0 0 22.977411
9.1103096 -2.6607206 6.678864 0 0 0 0 22.982355
9.4200354 -3.1146686 6.6150808 0 0 0 0 22.987303
8.6503019 -3.1793282 5.815321 0 0 0 0 22.99225
8.8407049 -1.9759614 6.7608547 0 0 0 0 22.997198
9.2091446 -2.4723611 6.7189741 0 0 0 0 23.002146
9.6939602 -2.9645243 6.7616239 0 0 0 0 23.007093
9.0959196 -3.1094003 6.0624366 0 0 0 0 23.012037
9.3460445 -2.2902367 6.790957 0 0 0 0 23.021933
9.8079119 -2.7622952 6.7996354 0 0 0 0 23.02688
9.6157007 -3.0419686 6.357275 0 0 0 0 23.031828
9.4219236 -2.0907028 6.8201275 0 0 0 0 23.041719
9.9309216 -2.557112 6.8476052 0 0 0 0 23.046667
10.206665 -2.9740071 6.6988406 0 0 0 0 23.051615
8.9389105 -1.402385 6.8009472 0 0 0 0 23.056562
9.5088253 -1.8932269 6.8612633 0 0 0 0 23.06151
10.004917 -2.3385925 6.863728 0 0 0 0 23.066454
10.57782 -2.8195374 6.8970032 0 0 0 0 23.071402
9.0006962 -1.2166938 6.8422184 0 0 0 0 23.076349
9.5767326 -1.6886219 6.8894539 0 0 0 0 23.081297
10.12797 -2.1293886 6.9166908 0 0 0 0 23.086245
10.756003 -2.6047521 6.9687357 0 0 0 0 23.091192
9.0945616 -1.0331997 6.9103742 0 0 0 0 23.096136
9.6766882 -1.4902102 6.9455414 0 0 0 0 23.101084
10.258076 -1.9172155 6.9786196 0 0 0 0 23.106031
10.877211 -2.3715627 7.0076365 0 0 0 0 23.110979
9.0481672 -0.83278966 6.8760257 0 0 0 0 23.115927
9.6685019 -1.274078 6.9269972 0 0 0 0 23.120874
10.436271 -1.7093563 7.074379 0 0 0 0 23.125818
11.015487 -2.1364737 7.0614686 0 0 0 0 23.130766
9.0017281 -0.6373775 6.8426924 0 0 0 0 23.135714
9.7745323 -1.0706819 6.994051 0 0 0 0 23.140661
10.602506 -1.4944 7.1661663 0 0 0 0 23.145609
11.149791 -1.897346 7.1153073 0 0 0 0 23.150553
9.0395031 -0.44749063 6.8780522 0 0 0 0 23.1555
9.8455114 -0.86204731 7.0382266 0 0 0 0 23.160448
10.613575 -1.2523929 7.1574745 0 0 0 0 23.165396
11.285138 -1.6542115 7.1731329 0 0 0 0 23.170343
9.0582237 -0.25747651 6.9004865 0 0 0 0 23.175291
9.7832346 -0.6415267 6.9918838 0 0 0 0 23.180235
10.620613 -1.0133501 7.1488099 0 0 0 0 23.185183
11.54072 -1.4198714 7.3125238 0 0 0 0 23.19013
9.0839739 -0.066501796 6.9298925 0 0 0 0 23.195078
9.7760601 -0.42735904 6.9873486 0 0 0 0 23.200026
10.694809 -0.77773899 7.1898975 0 0 0 0 23.204973
11.562006 -1.1529336 7.3057241 0 0 0 0 23.209917
9.1057272 0.12451451 6.9613156 0 0 0 0 23.214865
9.8310375 -0.21559153 7.0285821 0 0 0 0 23.219812
10.745965 -0.53996527 7.218071 0 0 0 0 23.22476
11.575285 -0.88592517 7.2989573 0 0 0 0 23.229708
9.1274891 0.31653735 6.9947376 0 0 0 0 23.234655
9.9040937 -0.0019245651 7.0877428 0 0 0 0 23.239599
10.648794 -0.29619536 7.1507988 0 0 0 0 23.244547
11.556523 -0.61568677 7.2763062 0 0 0 0 23.249495
9.1382236 0.50863785 7.022203 0 0 0 0 23.254442
9.9039545 0.21222618 7.0971866 0 0 0 0 23.25939
10.714019 -0.056490749 7.1959157 0 0 0 0 23.264334
11.582849 -0.34874195 7.2854934 0 0 0 0 23.269281
9.1469698 0.70176196 7.0516748 0 0 0 0 23.274229
9.9258976 0.42824376 7.1255407 0 0 0 0 23.279177
10.778257 0.18423319 7.2440367 0 0 0 0 23.284124
11.67235 -0.080208935 7.3384361 0 0 0 0 23.289072
9.1553946 0.89353871 7.0798383 0 0 0 0 23.029062
9.9495287 0.64576983 7.1585207 0 0 0 0 23.03401
10.818069 0.42547673 7.2778282 0 0 0 0 23.038958
11.778504 0.18940012 7.4048271 0 0 0 0 23.043905
9.1451111 1.0848 7.0993829 0 0 0 0 23.048853
9.9554882 0.86290836 7.1809249 0 0 0 0 23.053797
10.856364 0.67239851 7.3180189 0 0 0 0 23.058744
11.847083 0.4640964 7.4538183 0 0 0 0 23.063692
9.1438913 1.2790152 7.1298842 0 0 0 0 23.06864
9.9684896 1.0810162 7.2133012 0 0 0 0 23.073587
10.892662 0.92033869 7.3582163 0 0 0 0 23.078535
11.88863 0.74199224 7.4899073 0 0 0 0 23.083479
9.1396532 1.4722536 7.1594024 0 0 0 0 23.088427
9.9895706 1.3040872 7.2566323 0 0 0 0 23.093374
10.920957 1.169347 7.3974438 0 0 0 0 23.098322
11.93926 1.0248464 7.5379486 0 0 0 0 23.10327
9.1183491 1.6636075 7.1779938 0 0 0 0 23.108217
9.9845409 1.5233322 7.2820783 0 0 0 0 23.113161
10.934246 1.4204755 7.432725 0 0 0 0 23.118109
11.984888 1.3087459 7.5860085 0 0 0 0 23.123056
9.0960684 1.8559849 7.2015867 0 0 0 0 23.128004
9.9895725 1.7455226 7.3184781 0 0 0 0 23.132952
10.945541 1.6726247 7.4690132 0 0 0 0 23.137899
12.007505 1.5958234 7.6261511 0 0 0 0 23.142843
9.0777931 2.0483356 7.2281656 0 0 0 0 23.147791
9.9584799 1.9639615 7.3330312 0 0 0 0 23.152739
10.953846 1.9258064 7.5073118 0 0 0 0 23.157686
12.04719 1.8857921 7.6792212 0 0 0 0 23.162634
9.046464 2.2387753 7.2468019 0 0 0 0 23.167578
10.325306 2.2688484 7.6457791 0 0 0 0 23.172525
10.932065 2.1772017 7.5297346 0 0 0 0 23.177473
12.06485 2.1779265 7.723372 0 0 0 0 23.182421
9.0161619 2.4302232 7.2714329 0 0 0 0 23.187368
10.29531 2.4963083 7.6693053 0 0 0 0 23.192316
11.347329 2.5257401 7.8601713 0 0 0 0 23.19726
12.136792 2.4847171 7.8092709 0 0 0 0 23.202208
8.9848537 2.6216791 7.2960687 0 0 0 0 23.207155
10.253281 2.7228568 7.6878819 0 0 0 0 23.212103
11.317634 2.7872207 7.8866 0 0 0 0 23.217051
12.473992 2.8577485 8.0719461 0 0 0 0 23.221998
8.9374704 2.8092461 7.311779 0 0 0 0 23.226942
10.227333 2.9533067 7.7203865 0 0 0 0 23.23189
11.289984 3.0517042 7.920013 0 0 0 0 23.236837
12.472769 3.1640708 8.1221361 0 0 0 0 23.241785
8.9011631 3.0007522 7.3394361 0 0 0 0 23.246733
10.189355 3.1828482 7.7489414 0 0 0 0 23.25168
11.267368 3.3181643 7.9604025 0 0 0 0 23.256624
12.433421 3.4656658 8.1534901 0 0 0 0 23.261572
8.846736 3.1853712 7.3531842 0 0 0 0 23.26652
10.136296 3.4074948 7.7695704 0 0 0 0 23.271467
11.209623 3.5788698 7.9819455 0 0 0 0 23.276415
12.38604 3.7653224 8.1828814 0 0 0 0 23.281359
8.8003769 3.3739495 7.3768902 0 0 0 0 23.286306
10.095332 3.6380749 7.8031359 0 0 0 0 23.291254
11.149856 3.837594 8.0045052 0 0 0 0 23.296202
12.3578 4.0738711 8.2311754 0 0 0 0 23.301149
8.7258568 3.5527146 7.3827353 0 0 0 0 23.306097
10.019158 3.8558841 7.8128767 0 0 0 0 23.311041
11.086081 4.0953569 8.0290833 0 0 0 0 23.315989
12.286378 4.3727207 8.2566652 0 0 0 0 23.320936
8.6634035 3.7354038 7.3985229 0 0 0 0 23.325884
9.962141 4.0835872 7.8425145 0 0 0 0 23.330832
10.996176 4.3453012 8.0397854 0 0 0 0 23.335779
12.231059 4.6774783 8.2980776 0 0 0 0 23.340723
8.5999746 3.920109 7.4173083 0 0 0 0 23.345671
9.8829784 4.3014364 7.8582687 0 0 0 0 23.350618
10.934487 4.6090822 8.0773401 0 0 0 0 23.355566
12.122439 4.962595 8.3077545 0 0 0 0 23.360514
8.5244455 4.0978885 7.4271617 0 0 0 0 23.365461
9.7978001 4.5193291 7.872046 0 0 0 0 23.370405
10.851661 4.8640003 8.1010036 0 0 0 0 23.375353
12.05514 5.2694669 8.3542089 0 0 0 0 23.380301
8.453969 4.2786474 7.4449873 0 0 0 0 23.385248
9.7166405 4.7372031 7.8918085 0 0 0 0 23.390196
10.740685 5.1091113 8.1098042 0 0 0 0 23.39514
11.898258 5.5359249 8.3421288 0 0 0 0 23.400087
8.374445 4.4564695 7.4588566 0 0 0 0 23.405035
9.1649418 4.7149301 7.5290885 0 0 0 0 23.409983
10.647825 5.3611159 8.1355162 0 0 0 0 23.41493
11.804828 5.8339844 8.3787117 0 0 0 0 23.419878
8.2797861 4.624382 7.460814 0 0 0 0 23.424822
9.0847282 4.9248042 7.5548697 0 0 0 0 23.42977
10.530817 5.6022844 8.1483536 0 0 0 0 23.434717
11.702359 6.1281219 8.4163418 0 0 0 0 23.439665
8.1901979 4.7972755 7.4717374 0 0 0 0 23.444613
8.9934311 5.1287489 7.5737114 0 0 0 0 23.44956
10.411825 5.8444791 8.1651955 0 0 0 0 23.454504
11.535429 6.3886752 8.4113188 0 0 0 0 23.459452
8.0965652 4.9671893 7.4786849 0 0 0 0 23.464399
9.0010023 5.3941283 7.6839938 0 0 0 0 23.469347
10.300894 6.0906291 8.1909952 0 0 0 0 23.474295
10.976455 6.4206934 8.122468 0 0 0 0 23.479242
8.005971 5.1390958 7.4926157 0 0 0 0 23.484186
8.8290644 5.5525632 7.6402788 0 0 0 0 23.489134
9.8844547 6.1506419 7.9775114 0 0 0 0 23.494081
10.855792 6.695961 8.1572227 0 0 0 0 23.499029
7.8996639 5.3000979 7.4933176 0 0 0 0 23.260313
8.7312727 5.754437 7.6627512 0 0 0 0 23.265261
9.6369009 6.2983356 7.894629 0 0 0 0 23.270208
10.698635 6.9500256 8.1705799 0 0 0 0 23.275156
7.8081055 5.4720364 7.511251 0 0 0 0 23.2801
8.62397 5.9545388 7.6856651 0 0 0 0 23.285048
9.4966898 6.515698 7.9056239 0 0 0 0 23.289995
10.50141 7.1778226 8.1577702 0 0 0 0 23.294943
7.6923361 5.6281257 7.5113254 0 0 0 0 23.299891
8.4894133 6.1358051 7.6867418 0 0 0 0 23.304838
9.3484402 6.7301197 7.9146585 0 0 0 0 23.309782
10.251669 7.3639469 8.106288 0 0 0 0 23.31473
7.5886927 5.7931504 7.5253263 0 0 0 0 23.319677
8.3477888 6.31112 7.6848626 0 0 0 0 23.324625
9.1900873 6.9356089 7.9187598 0 0 0 0 23.329573
10.506815 7.9309955 8.4687138 0 0 0 0 23.33452
7.4759588 5.9522223 7.5303798 0 0 0 0 23.339464
8.211215 6.4904051 7.6889524 0 0 0 0 23.344412
8.9953985 7.1143265 7.8970799 0 0 0 0 23.34936
10.292551 8.1549425 8.4609833 0 0 0 0 23.354307
7.3450546 6.0974107 7.5235453 0 0 0 0 23.359255
8.0696039 6.66573 7.6930728 0 0 0 0 23.364202
9.1938219 7.6127539 8.2289286 0 0 0 0 23.369146
10.08134 8.3818855 8.4622307 0 0 0 0 23.374094
7.2100925 6.2376208 7.5137401 0 0 0 0 23.379042
7.9269981 6.8410687 7.7001972 0 0 0 0 23.383989
8.5674896 7.4249845 7.8240075 0 0 0 0 23.388937
9.9924364 8.7131071 8.5716953 0 0 0 0 23.393881
7.0893059 6.3907609 7.521842 0 0 0 0 23.398829
7.7611227 6.9945412 7.6874762 0 0 0 0 23.403776
8.3869047 7.6076322 7.8242598 0 0 0 0 23.408724
9.6841707 8.8526373 8.4975767 0 0 0 0 23.413671
6.9594073 6.5349512 7.5220056 0 0 0 0 23.418619
7.6023498 7.154985 7.6867056 0 0 0 0 23.423563
6.8285003 6.6781492 7.5231748 0 0 0 0 23.438406
7.4243207 7.2945304 7.6670709 0 0 0 0 23.443354
9.1332626 9.1753197 8.4169512 0 0 0 0 23.453245
6.6814051 6.8064361 7.5094504 0 0 0 0 23.458193
7.2807207 7.4678936 7.6852026 0 0 0 0 23.46314
7.9180536 8.2242041 7.9165282 0 0 0 0 23.468088
6.5997324 6.949297 6.2373915 0 0 0 0 23.473036
6.5333123 6.9337397 7.4997315 0 0 0 0 23.477983
7.6807947 8.3481922 7.8771691 0 0 0 0 23.487875
8.2102842 9.0640459 7.9820328 0 0 0 0 23.492823
6.3821754 7.0570583 7.4880357 0 0 0 0 23.49777
7.0544767 7.8903527 7.8070073 0 0 0 0 23.502718
7.4465022 8.4681511 7.838809 0 0 0 0 23.507662
8.0181236 9.2828989 8.023221 0 0 0 0 23.512609
6.2563968 7.2082586 7.5091596 0 0 0 0 23.517557
5.7880034 6.7623615 6.5652881 0 0 0 0 23.522505
5.7087722 6.7948532 6.1725092 0 0 0 0 23.527452
7.7945499 9.46593 8.0376358 0 0 0 0 23.5324
6.1854806 7.429213 7.6028666 0 0 0 0 23.537344
6.6072187 8.0649557 7.6963892 0 0 0 0 23.542292
7.0255675 8.7578392 7.8247552 0 0 0 0 23.547239
7.532393 9.5981627 8.0133467 0 0 0 0 23.552187
6.121737 7.6651464 7.7105026 0 0 0 0 23.557135
6.3591352 8.111867 7.6122904 0 0 0 0 23.562082
6.8876672 8.9913206 7.9026875 0 0 0 0 23.567026
7.2692018 9.7254066 7.9920745 0 0 0 0 23.571974
6.1018081 7.9689088 7.8837724 0 0 0 0 23.576921
6.1353555 8.1826487 7.5550265 0 0 0 0 23.581869
6.5811954 9.0056458 7.7929091 0 0 0 0 23.586817
6.9937639 9.8297062 7.9579153 0 0 0 0 23.591764
5.846137 7.9657359 7.755846 0 0 0 0 23.596708
6.0823936 8.4886589 7.7184162 0 0 0 0 23.601656
6.345788 9.1086187 7.7665958 0 0 0 0 23.606604
6.7386684 9.961915 7.9525938 0 0 0 0 23.611551
5.6850357 8.0901585 7.7581816 0 0 0 0 23.616499
4.4930768 6.5664663 5.8772182 0 0 0 0 23.621443
6.096108 9.186657 7.7244081 0 0 0 0 23.62639
6.4407854 10.023324 7.8976417 0 0 0 0 23.631338
5.4903135 8.1627131 7.7127967 0 0 0 0 23.636286
5.824297 8.9204445 7.8793068 0 0 0 0 23.641233
5.8789444 9.3085365 7.7219663 0 0 0 0 23.646181
6.162138 10.103626 7.8635583 0 0 0 0 23.651125
5.3017139 8.2442503 7.6803603 0 0 0 0 23.656073
5.6291375 9.0411425 7.8797832 0 0 0 0 23.66102
4.4119129 7.3506908 6.017385 0 0 0 0 23.665968
5.8793702 10.171941 7.824523 0 0 0 0 23.670916
5.3789415 9.0720673 7.8057303 0 0 0 0 23.680807
4.1782746 7.3304257 5.9304094 0 0 0 0 23.685755
4.0783262 7.4564872 5.668426 0 0 0 0 23.690702
5.1704588 9.1628094 7.7883415 0 0 0 0 23.700598
3.9802673 7.3640018 5.8911381 0 0 0 0 23.705545
3.7988093 7.3524523 5.5338664 0 0 0 0 23.710489
4.792923 8.5706272 7.6725879 0 0 0 0 23.715437
4.0239072 7.5089102 6.3046179 0 0 0 0 23.720385
3.7259734 7.2827754 5.7644153 0 0 0 0 23.725332
3.7932932 7.7843633 5.8056946 0 0 0 0 23.73028
4.660583 8.7485418 7.7373734 0 0 0 0 23.484854
4.7302012 9.2989426 7.7254715 0 0 0 0 23.489801
3.6390865 7.5236006 5.8979683 0 0 0 0 23.494749
3.6517715 7.9634886 5.8886142 0 0 0 0 23.499697
4.4290338 8.7452679 7.6453586 0 0 0 0 23.504644
4.1528444 8.622921 7.08779 0 0 0 0 23.509592
4.5478311 9.9736509 7.7532535 0 0 0 0 23.514536
4.3023748 9.9924793 7.3371449 0 0 0 0 23.519484
4.2281113 8.7938776 7.6020689 0 0 0 0 23.524431
3.8854163 8.5367956 6.9481544 0 0 0 0 23.529379
4.3297343 10.091617 7.7778254 0 0 0 0 23.534327
4.3470092 10.793788 7.8706713 0 0 0 0 23.539274
4.0333095 8.8514671 7.5707278 0 0 0 0 23.544218
3.6722322 8.5564814 6.898993 0 0 0 0 23.549166
4.0777822 10.132699 7.749754 0 0 0 0 23.554113
3.5845635 9.5423107 6.9104033 0 0 0 0 23.559061
3.6144481 8.389596 7.1007857 0 0 0 0 23.564009
3.4826152 8.624095 6.8925972 0 0 0 0 23.568956
3.5679157 9.4753208 7.1917439 0 0 0 0 23.5739
3.3921552 9.7142248 6.9947081 0 0 0 0 23.578848
3.3966 8.3531561 7.0008059 0 0 0 0 23.583796
3.2692883 8.6287594 6.8394775 0 0 0 0 23.588743
3.3803494 9.6341543 7.2640691 0 0 0 0 23.593691
3.4827247 10.779738 7.7252746 0 0 0 0 23.598635
3.2075436 8.3836517 6.960515 0 0 0 0 23.603582
3.0775812 8.6863766 6.8321152 0 0 0 0 23.60853
3.3192556 10.189839 7.6367321 0 0 0 0 23.613478
3.189887 10.734026 7.6596098 0 0 0 0 23.618425
3.0246928 8.4301481 6.9391513 0 0 0 0 23.623373
2.8756471 8.7230339 6.8118525 0 0 0 0 23.628317
3.0659158 10.190866 7.5957747 0 0 0 0 23.633265
2.9197321 10.748258 7.640677 0 0 0 0 23.638212
2.840755 8.4686327 6.9128132 0 0 0 0 23.64316
2.6735072 8.7406511 6.779645 0 0 0 0 23.648108
2.5425649 9.2069168 6.8267622 0 0 0 0 23.653055
2.3928516 9.7013369 6.8728657 0 0 0 0 23.657999
2.7014043 8.6450891 7.0008965 0 0 0 0 23.662947
2.4953785 8.8462839 6.8200836 0 0 0 0 23.667894
2.322361 9.2146988 6.8016505 0 0 0 0 23.672842
2.3705568 10.693637 7.5580831 0 0 0 0 23.67779
2.67783 9.2406092 7.4282994 0 0 0 0 23.682737
2.3476017 9.0719442 6.954051 0 0 0 0 23.687681
2.3197677 10.173818 7.4828939 0 0 0 0 23.692629
2.0965881 10.628754 7.4983907 0 0 0 0 23.697577
2.4788718 9.277215 7.4050212 0 0 0 0 23.702524
2.2894628 9.710824 7.406456 0 0 0 0 23.707472
2.0741515 10.143736 7.4369884 0 0 0 0 23.712416
1.8308194 10.580839 7.4536138 0 0 0 0 23.717363
2.2746167 9.2868013 7.3628416 0 0 0 0 23.722311
2.0640678 9.7035894 7.3664041 0 0 0 0 23.727259
1.8326812 10.12565 7.4030294 0 0 0 0 23.732206
1.5649041 10.516907 7.404881 0 0 0 0 23.737154
2.0776677 9.3223953 7.3445549 0 0 0 0 23.742098
1.8447734 9.7043257 7.3353043 0 0 0 0 23.747046
1.5898263 10.071499 7.346179 0 0 0 0 23.751993
1.3039289 10.445923 7.3551478 0 0 0 0 23.756941
1.8733976 9.3279858 7.3073821 0 0 0 0 23.761889
1.6212312 9.6810513 7.2912884 0 0 0 0 23.766836
1.3502946 10.044393 7.3152332 0 0 0 0 23.77178
1.0467451 10.354864 7.2934561 0 0 0 0 23.776728
1.670139 9.3335714 7.2732034 0 0 0 0 23.781675
1.4049997 9.6847801 7.2701626 0 0 0 0 23.786623
1.1133637 9.9801817 7.2593851 0 0 0 0 23.791571
0.76438391 9.8791933 6.9649911 0 0 0 0 23.796518
1.4688352 9.3341322 7.2380295 0 0 0 0 23.801462
1.1854528 9.6584759 7.2311354 0 0 0 0 23.80641
0.84977841 9.581459 6.9646196 0 0 0 0 23.811357
0.52740741 9.8030109 6.9221721 0 0 0 0 23.816305
1.2686515 9.3447084 7.2128201 0 0 0 0 23.821253
0.93296462 9.2746296 6.9262819 0 0 0 0 23.8262
0.62905228 9.5321589 6.9276595 0 0 0 0 23.831144
0.2953155 9.7147665 6.8743677 0 0 0 0 23.836092
1.0264972 8.997612 6.9187436 0 0 0 0 23.84104
0.72565359 9.2730341 6.9150629 0 0 0 0 23.845987
0.40602827 9.4635277 6.8846817 0 0 0 0 23.850935
0.065379396 9.6521845 6.8523784 0 0 0 0 23.855879
0.83429563 9.0040855 6.8984876 0 0 0 0 23.860826
0.51886356 9.2195387 6.8660221 0 0 0 0 23.865774
0.19007526 9.3900995 6.8357258 0 0 0 0 23.870722
-0.15891388 9.5397968 6.7965574 0 0 0 0 23.875669
0.6419996 9.0005436 6.8742571 0 0 0 0 23.880617
0.31426027 9.1820631 6.8329263 0 0 0 0 23.885561
-0.021799922 9.321661 6.7967391 0 0 0 0 23.890509
-0.37992898 9.4524364 6.7616525 0 0 0 0 23.895456
0.44724604 8.9529314 6.8201537 0 0 0 0 23.900404
0.1104446 9.1235399 6.7868829 0 0 0 0 23.905352
-0.23183243 9.2371759 6.7487864 0 0 0 0 23.910299
-0.59428608 9.3319511 6.7038112 0 0 0 0 23.915243
0.2551083 8.9624186 6.8108816 0 0 0 0 23.920191
-0.08726199 9.0739908 6.7507896 0 0 0 0 23.925138
-0.43684801 9.1526566 6.7048125 0 0 0 0 23.930086
-0.8036412 9.2094316 6.6499538 0 0 0 0 23.935034
0.065436967 8.9207802 6.765738 0 0 0 0 23.939981
-0.28615677 9.005414 6.7037501 0 0 0 0 23.944925
-0.63884217 9.0691147 6.6638222 0 0 0 0 23.949873
-1.0069622 9.0888691 6.6000671 0 0 0 0 23.954821
-0.12500201 8.8973961 6.7380719 0 0 0 0 23.842607
-0.47994 8.944046 6.6642094 0 0 0 0 23.847551
-0.83495867 8.9707584 6.6134014 0 0 0 0 23.852499
-1.2033116 8.962533 6.5477352 0 0 0 0 23.857447
-0.31175962 8.8457365 6.6919489 0 0 0 0 23.862394
-0.67365736 8.890481 6.6341138 0 0 0 0 23.867342
-1.0291367 8.8681364 6.5644393 0 0 0 0 23.872286
-1.3966932 8.8348961 6.4978361 0 0 0 0 23.877234
-0.50125653 8.8171511 6.666769 0 0 0 0 23.882181
-0.86266887 8.8078213 6.5860777 0 0 0 0 23.887129
-1.2201498 8.7795248 6.5294247 0 0 0 0 23.892076
-1.5870336 8.7092457 6.4539175 0 0 0 0 23.897024
-0.68798232 8.7655029 6.6286402 0 0 0 0 23.901968
-1.0525552 8.735198 6.550015 0 0 0 0 23.906916
-1.4083276 8.6738577 6.4854431 0 0 0 0 23.911863
-1.7704595 8.5745201 6.4049959 0 0 0 0 23.916811
-0.87276483 8.7078247 6.5875182 0 0 0 0 23.921759
-1.237447 8.6615286 6.5139341 0 0 0 0 23.926706
-1.589564 8.5621185 6.4374504 0 0 0 0 23.93165
-1.9508085 8.4457846 6.3630438 0 0 0 0 23.936598
-1.0564957 8.6541462 6.5513783 0 0 0 0 23.941545
-1.4185117 8.5697975 6.4688859 0 0 0 0 23.946493
-1.7687092 8.4573832 6.3984284 0 0 0 0 23.951441
-2.126127 8.3190136 6.3240652 0 0 0 0 23.956388
-1.2373537 8.5864267 6.5102644 0 0 0 0 23.961332
-1.5984849 8.4860725 6.4308095 0 0 0 0 23.96628
-1.9439446 8.3426008 6.3554173 0 0 0 0 23.971228
-2.2887616 8.1610756 6.2641239 0 0 0 0 23.976175
-1.4171053 8.5287123 6.4761157 0 0 0 0 23.981123
-1.7754871 8.3983192 6.3927302 0 0 0 0 23.986067
-2.1131682 8.2287655 6.3123784 0 0 0 0 23.991014
-2.4521921 8.0211859 6.2201333 0 0 0 0 23.995962
-1.5930679 8.4489326 6.4310112 0 0 0 0 24.00091
-1.9466025 8.2984972 6.3486609 0 0 0 0 24.005857
-2.2765627 8.0968533 6.260366 0 0 0 0 24.010805
-2.6067443 7.8691955 6.167141 0 0 0 0 24.015749
-1.7708293 8.3872061 6.4018617 0 0 0 0 24.020697
-2.1186471 8.2036991 6.3125772 0 0 0 0 24.025644
-2.4368918 7.9699302 6.2143259 0 0 0 0 24.030592
-2.7737966 7.7624111 6.1540666 0 0 0 0 24.03554
-1.940884 8.29636 6.3537607 0 0 0 0 24.040487
-2.2818646 8.091794 6.2645068 0 0 0 0 24.045431
-2.595176 7.8459997 6.1732674 0 0 0 0 24.050379
-2.9913285 7.7973433 6.2567797 0 0 0 0 24.055326
-2.11762 8.2346334 6.3306017 0 0 0 0 24.060274
-2.4420795 7.9788661 6.2184258 0 0 0 0 24.065222
-2.764003 7.764245 6.1671286 0 0 0 0 24.070169
-3.1729455 7.7287683 6.2816453 0 0 0 0 24.075113
-2.2817466 8.1347256 6.2804995 0 0 0 0 24.080061
-2.6022494 7.868947 6.1773334 0 0 0 0 24.085009
-2.9688106 7.7769909 6.2408552 0 0 0 0 24.089956
-3.3135188 7.569665 6.234612 0 0 0 0 24.094904
-2.4497306 8.0468807 6.2433743 0 0 0 0 24.099848
-2.7671432 7.784122 6.1581864 0 0 0 0 24.104795
-3.1669242 7.7596216 6.2946377 0 0 0 0 24.109743
-3.4530189 7.4165659 6.1935554 0 0 0 0 24.114691
-2.6088831 7.9419303 6.1952629 0 0 0 0 24.119638
-2.9437325 7.7264552 6.1650038 0 0 0 0 24.124586
-3.3093867 7.6145277 6.2465701 0 0 0 0 24.12953
-3.5904737 7.2664604 6.1574802 0 0 0 0 24.134478
-2.77192 7.8460402 6.1591368 0 0 0 0 24.139425
-3.1573195 7.762291 6.2506933 0 0 0 0 24.144373
-3.4567103 7.4805059 6.2124863 0 0 0 0 24.149321
-3.7121811 7.0911784 6.1034164 0 0 0 0 24.154268
-2.9309425 7.7511158 6.123992 0 0 0 0 24.159212
-3.3398197 7.7106919 6.2695088 0 0 0 0 24.16416
-3.594116 7.3383837 6.1713872 0 0 0 0 24.169107
-3.8415773 6.9450159 6.0722971 0 0 0 0 24.174055
-3.1075149 7.6974263 6.125793 0 0 0 0 24.179003
-3.4822266 7.5725846 6.2194171 0 0 0 0 24.18395
-3.7275596 7.1912236 6.1292853 0 0 0 0 24.188894
-3.9581351 6.7827177 6.0291743 0 0 0 0 24.193842
-3.3006651 7.6829538 6.1615429 0 0 0 0 24.19879
-3.6324122 7.453589 6.1892967 0 0 0 0 24.203737
-3.8569682 7.0470343 6.0891581 0 0 0 0 24.208685
-4.0677557 6.6133509 5.9820442 0 0 0 0 24.213629
-3.5095162 7.6956687 6.2232709 0 0 0 0 24.218576
-3.7688158 7.3134351 6.1421838 0 0 0 0 24.223524
-3.9794672 6.8927736 6.0440321 0 0 0 0 24.228472
-4.1792212 6.4580283 5.9468794 0 0 0 0 24.233419
-3.6695542 7.5937567 6.1971369 0 0 0 0 24.238367
-3.905144 7.179296 6.1020508 0 0 0 0 24.243311
-4.1018405 6.7505312 6.0068707 0 0 0 0 24.248259
-4.2768455 6.2875576 5.897706 0 0 0 0 24.253206
-3.8226686 7.4837723 6.1659975 0 0 0 0 24.258154
-4.0374913 7.0421224 6.0619102 0 0 0 0 24.263102
-4.2084575 6.5831189 5.9537196 0 0 0 0 24.268049
-4.3802938 6.1321726 5.8645091 0 0 0 0 24.272993
-3.9689288 7.3587041 6.1248722 0 0 0 0 24.277941
-4.1687942 6.9079504 6.0267553 0 0 0 0 24.282888
-4.3198867 6.4327822 5.9155369 0 0 0 0 24.287836
-4.4876308 5.9858446 5.842298 0 0 0 0 24.292784
-4.113153 7.2356291 6.0887318 0 0 0 0 24.297731
-4.2951455 6.7677312 5.9895964 0 0 0 0 24.302675
-4.4371815 6.2945175 5.888339 0 0 0 0 24.307623
-4.5761514 5.8223228 5.8030672 0 0 0 0 24.312571
-4.2506027 7.0918298 6.0419021 0 0 0 0 24.88323
-4.4174085 6.6167655 5.9466386 0 0 0 0 24.888178
-4.5412836 6.1333771 5.847259 0 0 0 0 24.893126
-4.6610985 5.6519918 5.7608595 0 0 0 0 24.898073
-4.383852 6.9576006 6.0017061 0 0 0 0 24.903017
-4.5337348 6.4704132 5.9074163 0 0 0 0 24.907965
-4.646565 5.9879661 5.8169956 0 0 0 0 24.912912
-4.6111293 5.3360243 5.5645299 0 0 0 0 24.91786
-4.5121531 6.8173223 5.9575067 0 0 0 0 24.922808
-4.6411257 6.316978 5.8621802 0 0 0 0 24.927755
-4.7458854 5.837503 5.7847238 0 0 0 0 24.932699
-4.6449733 5.1339545 5.4801784 0 0 0 0 24.937647
-4.6413956 6.6810675 5.9212971 0 0 0 0 24.942595
-4.7553802 6.1756248 5.8309331 0 0 0 0 24.947542
-4.6564555 5.4701085 5.5323973 0 0 0 0 24.95249
-4.7153192 4.9782767 5.4458227 0 0 0 0 24.957434
-4.7666612 6.5417752 5.88308 0 0 0 0 24.962381
-4.7293758 5.8628387 5.6366706 0 0 0 0 24.967329
-4.7338367 5.3134599 5.4900665 0 0 0 0 24.972277
-4.7935209 4.83569 5.425457 0 0 0 0 24.977224
-4.8869591 6.3974433 5.8448572 0 0 0 0 24.982172
-4.7763028 5.6548281 5.5393729 0 0 0 0 24.987116
-4.8260164 5.1749701 5.4687352 0 0 0 0 24.992064
-4.8608022 4.6850019 5.3970752 0 0 0 0 24.997011
-4.808722 6.0080976 5.5786195 0 0 0 0 25.001959
-4.8804703 5.5194178 5.5160713 0 0 0 0 25.006907
-4.9062781 5.0283689 5.4383841 0 0 0 0 25.011854
-4.9201198 4.5302439 5.364676 0 0 0 0 25.016798
-4.9248767 5.8767619 5.5513453 0 0 0 0 25.021746
-4.9747133 5.3759155 5.4857559 0 0 0 0 25.026693
-4.9795876 4.8757086 5.4050236 0 0 0 0 25.031641
-4.9754252 4.3764567 5.3322597 0 0 0 0 25.036589
-5.0370741 5.7393918 5.5230713 0 0 0 0 25.041536
-5.0580349 5.2243118 5.4474244 0 0 0 0 25.04648
-5.0518365 4.7290483 5.3756428 0 0 0 0 25.051428
-5.0326681 4.2276988 5.3068352 0 0 0 0 25.056376
-5.1334081 5.587872 5.481781 0 0 0 0 25.061323
-5.152215 5.0848246 5.4250946 0 0 0 0 25.066271
-5.117126 4.5773287 5.3432508 0 0 0 0 25.071218
-5.0829363 4.0768776 5.2763915 0 0 0 0 25.076162
-5.238615 5.4474487 5.4544873 0 0 0 0 25.08111
-5.2265482 4.9301524 5.3867378 0 0 0 0 25.086058
-5.1794076 4.4255886 5.3118472 0 0 0 0 25.091005
-5.1361289 3.9320984 5.2549405 0 0 0 0 25.095953
-5.3289399 5.2948861 5.415175 0 0 0 0 25.100897
-5.2939315 4.7694187 5.3443723 0 0 0 0 25.105844
-5.2356982 4.2727995 5.2784252 0 0 0 0 25.110792
-5.1744084 3.7791843 5.2224612 0 0 0 0 25.11574
-5.4231925 5.1483693 5.3838577 0 0 0 0 25.120687
-5.3533263 4.6076193 5.2989821 0 0 0 0 25.125635
-5.2364402 4.0784812 5.1919322 0 0 0 0 25.130579
-5.1203861 3.5653903 5.1008439 0 0 0 0 25.135527
-5.3490076 4.8492541 5.1933928 0 0 0 0 25.140474
-5.265986 4.3264284 5.1144304 0 0 0 0 25.145422
-5.1537819 3.8303864 5.031312 0 0 0 0 25.15037
-5.0404797 3.3423681 4.9601688 0 0 0 0 25.155317
-5.2588134 4.5520172 4.9978724 0 0 0 0 25.160261
-5.1784806 4.0622683 4.940835 0 0 0 0 25.165209
-5.0769677 3.5973699 4.8836708 0 0 0 0 25.170156
-4.9872704 3.1476159 4.8505058 0 0 0 0 25.175104
-5.197228 4.2930779 4.8383441 0 0 0 0 25.180052
-5.1107006 3.8243167 4.7932348 0 0 0 0 25.184999
-4.9980512 3.3753548 4.7409959 0 0 0 0 25.189943
-4.9141226 2.9486935 4.7277904 0 0 0 0 25.194891
-5.1216278 4.0360351 4.6757674 0 0 0 0 25.199839
-5.0150313 3.5771272 4.6275706 0 0 0 0 25.204786
-4.9964738 3.212085 4.6774139 0 0 0 0 25.209734
-4.8438649 2.7608149 4.6130562 0 0 0 0 25.214678
-5.0498757 3.7940533 4.5251641 0 0 0 0 25.219625
-4.9291701 3.349051 4.4778881 0 0 0 0 25.224573
-5.0186768 3.068048 4.6398559 0 0 0 0 25.229521
-4.7894301 2.5890977 4.5173297 0 0 0 0 25.234468
-4.9532022 3.5458627 4.359498 0 0 0 0 25.239416
-5.0209246 3.2456381 4.4944448 0 0 0 0 25.24436
-4.8700166 2.8274298 4.44801 0 0 0 0 25.249308
-4.8173962 2.4661667 4.5047359 0 0 0 0 25.254255
-4.918941 3.3532705 4.256887 0 0 0 0 25.259203
-4.982574 3.0620337 4.3987966 0 0 0 0 25.264151
-4.9308486 2.715775 4.4544883 0 0 0 0 25.269098
-5.4217873 2.6235948 5.0292153 0 0 0 0 25.274042
-4.9590902 3.2143717 4.2233701 0 0 0 0 25.27899
-4.9709778 2.9006872 4.3311753 0 0 0 0 25.283937
-5.6008196 2.921726 5.0090475 0 0 0 0 25.288885
-5.440897 2.4835696 5.0086303 0 0 0 0 25.293833
-4.9128017 3.0246933 4.1187124 0 0 0 0 25.29878
-5.1332231 2.8389323 4.4168391 0 0 0 0 25.303724
-5.6349292 2.7808101 4.9915094 0 0 0 0 25.308672
-5.4569879 2.3455231 4.98803 0 0 0 0 25.31362
-4.985662 2.9111061 4.1192303 0 0 0 0 25.318567
-5.471065 2.2084646 4.9684196 0 0 0 0 25.333406
-5.0654602 2.8025846 4.1277552 0 0 0 0 25.338354
-5.4771638 2.0693407 4.9447889 0 0 0 0 25.353197
-5.4625835 1.9283792 4.9059224 0 0 0 0 25.11849
-5.4587007 1.7911747 4.8782616 0 0 0 0 25.138277
-5.4995661 1.6703948 4.8936982 0 0 0 0 25.158064
-5.5563464 1.5537685 4.9261718 0 0 0 0 25.177851
-5.4146452 1.677768 4.5524383 0 0 0 0 25.192694
-5.5570636 1.5849028 4.6481152 0 0 0 0 25.212481
-0.52936769 0.074026212 0.44554824 0 0 0 0 25.296579
-0.50752449 0.059816733 0.42655417 0 0 0 0 25.31637
-0.52545953 0.074902683 0.41360015 0 0 0 0 25.331209
-0.49165833 0.046661891 0.41257581 0 0 0 0 25.336157
-0.52255279 0.062864721 0.41065824 0 0 0 0 25.350996
-0.47976857 0.035542615 0.40160465 0 0 0 0 25.355944
-0.50967693 0.049738288 0.39968884 0 0 0 0 25.370787
-0.48482677 0.02458255 0.40768424 0 0 0 0 25.375734
