# .PCD v0.7 - Point Cloud Data file format
VERSION 0.7
FIELDS x y z normal_x normal_y normal_z intensity curvature
SIZE 4 4 4 4 4 4 4 4
TYPE F F F F F F F F
COUNT 1 1 1 1 1 1 1 1
WIDTH 975
HEIGHT 1
VIEWPOINT 0 0 0 1 0 0 0
POINTS 975
DATA ascii
13.165387 -8.4884024 6.6133909 0 0 0 0 62.802925
12.664193 -8.083169 7.8088465 0 0 0 0 62.807869
13.274935 -8.3610229 7.6040683 0 0 0 0 62.81282
13.397134 -8.3055334 7.1353369 0 0 0 0 62.817764
13.492358 -8.2499065 6.6594381 0 0 0 0 62.822708
12.943205 -7.8830199 7.8649349 0 0 0 0 62.82766
13.385372 -8.0207748 7.5498815 0 0 0 0 62.832603
13.499001 -7.9455581 7.0779223 0 0 0 0 62.837555
13.597648 -7.8698497 6.5988669 0 0 0 0 62.842499
13.256508 -7.6966577 7.9423561 0 0 0 0 62.847443
13.496918 -7.6854548 7.4997425 0 0 0 0 62.852394
13.633331 -7.6044798 7.0368724 0 0 0 0 62.857338
13.709197 -7.500535 6.5464258 0 0 0 0 62.862289
13.43664 -7.4238935 7.9411912 0 0 0 0 62.867233
13.451507 -7.2714539 7.3709354 0 0 0 0 62.872177
13.490075 -7.1207609 6.8618436 0 0 0 0 62.877129
13.619292 -7.0349259 6.4068856 0 0 0 0 62.882072
13.330523 -7.006587 7.7749124 0 0 0 0 62.596611
13.458417 -6.9011741 7.2757716 0 0 0 0 62.601555
13.61404 -6.7964807 6.8288088 0 0 0 0 62.606506
13.719375 -6.6784482 6.3604221 0 0 0 0 62.61145
13.418894 -6.6989312 7.7308874 0 0 0 0 62.616402
13.562396 -6.5810099 7.236732 0 0 0 0 62.621346
13.624524 -6.4184189 6.7466888 0 0 0 0 62.626289
13.848754 -6.3404036 6.3353796 0 0 0 0 62.631241
13.514255 -6.3920312 7.6909089 0 0 0 0 62.636185
13.628994 -6.2460613 7.1833305 0 0 0 0 62.641136
13.812922 -6.1203899 6.7513556 0 0 0 0 62.64608
13.909327 -5.9706268 6.2806344 0 0 0 0 62.651024
13.613751 -6.0919275 7.6600127 0 0 0 0 62.655975
13.794594 -5.9547358 7.1839156 0 0 0 0 62.660919
13.949788 -5.8020153 6.7385268 0 0 0 0 62.665871
14.158748 -5.6785426 6.3137245 0 0 0 0 62.670815
13.708185 -5.7899776 7.6280675 0 0 0 0 62.675758
14.055064 -5.7021651 7.2364211 0 0 0 0 62.68071
13.776346 -5.4769101 7.5828595 0 0 0 0 62.695549
14.841053 -4.901104 7.4075789 0 0 0 0 62.740074
14.087848 -4.5898042 7.5313363 0 0 0 0 62.754913
15.426511 -3.3546286 6.435914 0 0 0 0 62.809334
15.512733 -2.9856503 6.4253068 0 0 0 0 62.829117
15.298613 -3.2298059 7.3252683 0 0 0 0 62.839012
15.597951 -2.6186261 6.4227071 0 0 0 0 62.848907
15.177486 -3.215975 7.7845244 0 0 0 0 62.853851
15.692071 -2.249306 6.4231381 0 0 0 0 62.868698
15.832293 -1.8883812 6.4499254 0 0 0 0 62.888481
15.931166 -1.5138084 6.4613328 0 0 0 0 62.908272
16.029028 -1.1402252 6.4767394 0 0 0 0 62.928062
15.796681 -1.5392722 7.3449602 0 0 0 0 62.93795
16.147619 -0.75991821 6.503211 0 0 0 0 62.947845
15.60095 -0.36372784 6.2694235 0 0 0 0 62.967636
15.524433 -0.39696425 6.6873541 0 0 0 0 62.982475
15.578959 0.0089479387 6.2470827 0 0 0 0 62.987419
15.500026 -0.46953481 7.119957 0 0 0 0 62.997314
15.495864 -0.037543517 6.6590886 0 0 0 0 63.002266
15.689744 0.37910739 6.2835827 0 0 0 0 63.00721
15.397143 -0.12668967 7.0523767 0 0 0 0 63.017105
15.615072 0.31788224 6.6977706 0 0 0 0 63.022049
15.743389 0.75639778 6.3006616 0 0 0 0 63.027
15.343461 -0.2610096 7.5013485 0 0 0 0 63.031944
15.486739 0.21868739 7.0729632 0 0 0 0 63.036896
15.644285 0.67831135 6.7008467 0 0 0 0 63.04184
15.838815 1.1371216 6.337965 0 0 0 0 63.046783
15.38463 0.069673121 7.4947643 0 0 0 0 63.051735
15.530375 0.56455976 7.0782561 0 0 0 0 63.056679
15.746031 1.0482219 6.7382841 0 0 0 0 63.06163
15.980762 1.5294544 6.3984499 0 0 0 0 63.066574
15.335582 0.39275008 7.4463496 0 0 0 0 62.818733
15.633296 0.9118709 7.1115913 0 0 0 0 62.823685
15.911033 1.4246339 6.8027678 0 0 0 0 62.828629
16.068542 1.9203329 6.4383531 0 0 0 0 62.833572
15.467356 0.73054332 7.488277 0 0 0 0 62.838524
15.678667 1.2678351 7.1218233 0 0 0 0 62.843468
15.973712 1.8002862 6.8309302 0 0 0 0 62.848419
16.995251 2.4408007 6.8175535 0 0 0 0 62.853363
15.565104 1.0702442 7.5199742 0 0 0 0 62.858315
15.858184 1.6413666 7.196723 0 0 0 0 62.863258
16.225039 2.2073014 6.9429741 0 0 0 0 62.868202
17.00869 2.8579705 6.8380413 0 0 0 0 62.873154
15.58905 1.4084514 7.5172267 0 0 0 0 62.878098
15.988758 2.0152915 7.253315 0 0 0 0 62.883049
16.961617 2.7056627 7.2661996 0 0 0 0 62.887993
17.125383 3.2916481 6.9070158 0 0 0 0 62.892937
15.826634 1.7739842 7.6225519 0 0 0 0 62.897888
17.229673 3.7389328 6.9717884 0 0 0 0 62.912727
16.036999 2.1486053 7.7146263 0 0 0 0 62.917671
17.398113 4.2084479 7.0707564 0 0 0 0 62.932518
16.894358 2.6393161 8.1176672 0 0 0 0 62.937462
17.442383 4.6568422 7.1221399 0 0 0 0 62.952301
17.625797 5.1569567 7.2349205 0 0 0 0 62.972092
17.725643 5.6463232 7.3182745 0 0 0 0 62.991882
17.943718 6.1847677 7.4599199 0 0 0 0 63.011665
17.230127 4.6459703 8.3063688 0 0 0 0 63.0364
17.517113 7.4549198 7.4621973 0 0 0 0 63.07103
17.528563 7.9545889 7.5368843 0 0 0 0 63.09082
17.379824 7.5789876 7.8353858 0 0 0 0 63.105659
17.583038 8.4817877 7.6365876 0 0 0 0 63.110611
17.415352 8.0744324 7.916254 0 0 0 0 63.12545
17.749933 9.0849066 7.7933073 0 0 0 0 63.130394
17.314816 7.6659675 8.1833477 0 0 0 0 63.140289
17.547804 8.6302557 8.0461807 0 0 0 0 63.145233
17.335001 8.1408386 8.2522984 0 0 0 0 63.16008
17.708147 9.2181463 8.1989889 0 0 0 0 63.165024
17.263216 7.6402431 8.5253983 0 0 0 0 63.174919
17.48238 8.6981354 8.3842983 0 0 0 0 63.179863
18.822807 10.353993 8.8008404 0 0 0 0 63.184814
17.276768 8.1047945 8.5813942 0 0 0 0 63.19471
17.688122 9.3025608 8.5542364 0 0 0 0 63.199654
19.238636 12.238673 8.8816166 0 0 0 0 63.209549
17.41762 8.647789 8.7014771 0 0 0 0 63.214493
18.735985 10.399271 9.1380186 0 0 0 0 63.219444
17.619717 9.2420006 8.859478 0 0 0 0 63.234283
19.086456 12.288206 9.2403336 0 0 0 0 63.244179
17.620001 9.7442827 8.9260378 0 0 0 0 63.254074
18.775826 13.886753 9.0790968 0 0 0 0 63.268913
17.942282 10.450852 9.1577721 0 0 0 0 63.273857
18.298193 11.843758 9.203496 0 0 0 0 63.278809
18.350044 14.2381 9.0273199 0 0 0 0 63.288696
17.977144 11.001029 9.25245 0 0 0 0 63.042152
18.281492 12.423307 9.2976732 0 0 0 0 63.047096
18.690916 13.926588 9.4338255 0 0 0 0 63.052048
17.691797 14.393945 8.8624592 0 0 0 0 63.056992
18.137308 11.659091 9.4216347 0 0 0 0 63.061943
18.462858 13.16641 9.5062256 0 0 0 0 63.066887
18.227535 14.240549 9.3441916 0 0 0 0 63.071831
17.085691 14.572104 8.7231417 0 0 0 0 63.076782
18.313028 12.361782 9.6055126 0 0 0 0 63.081726
18.608097 13.91339 9.7085123 0 0 0 0 63.086678
17.586071 14.404304 9.1667824 0 0 0 0 63.091621
16.494795 14.741761 8.5919876 0 0 0 0 63.096565
18.446932 13.059121 9.7771721 0 0 0 0 63.101517
18.151764 14.228409 9.6039038 0 0 0 0 63.106461
16.995033 14.582771 9.0145473 0 0 0 0 63.111412
15.920827 14.911981 8.4699259 0 0 0 0 63.116356
18.636278 13.833543 9.9904814 0 0 0 0 63.121307
17.554688 14.412502 9.4295816 0 0 0 0 63.126251
16.404474 14.745213 8.8614511 0 0 0 0 63.131195
15.351503 15.060315 8.349082 0 0 0 0 63.136147
18.230164 14.174108 9.8909502 0 0 0 0 63.14109
16.966976 14.583863 9.2574224 0 0 0 0 63.146042
15.838897 14.905512 8.7235241 0 0 0 0 63.150986
14.807783 15.219515 8.241293 0 0 0 0 63.15593
17.630594 14.345874 9.6917143 0 0 0 0 63.160881
16.37882 14.736186 9.0864248 0 0 0 0 63.165825
15.281642 15.054068 8.5897446 0 0 0 0 63.170776
14.27554 15.361101 8.1417274 0 0 0 0 63.17572
17.045822 14.523123 9.4995146 0 0 0 0 63.180672
15.8174 14.894433 8.9315329 0 0 0 0 63.185616
14.749105 15.209471 8.4700527 0 0 0 0 63.190559
14.155343 15.960393 8.2786303 0 0 0 0 63.195511
16.470522 14.682704 9.3165255 0 0 0 0 63.200455
15.282598 15.062595 8.7917128 0 0 0 0 63.205406
14.224857 15.354141 8.3555021 0 0 0 0 63.21035
14.382078 16.9893 8.6348438 0 0 0 0 63.215294
15.908318 14.837715 9.1406507 0 0 0 0 63.220245
14.741598 15.204501 8.6480808 0 0 0 0 63.225189
14.088502 15.928735 8.4705162 0 0 0 0 63.230141
14.343127 17.762877 8.8546762 0 0 0 0 63.235085
15.372661 15.004661 8.9818296 0 0 0 0 63.240028
14.227995 15.363368 8.5214634 0 0 0 0 63.24498
14.324144 16.959904 8.8247566 0 0 0 0 63.249924
13.788804 17.90283 8.763957 0 0 0 0 63.254875
14.816145 15.135811 8.8091927 0 0 0 0 63.259819
14.0139 15.839049 8.5788717 0 0 0 0 63.264771
14.310412 17.75828 9.047514 0 0 0 0 63.269714
13.245518 18.040155 8.6803246 0 0 0 0 63.274658
14.30769 15.292677 8.6676178 0 0 0 0 63.27961
14.230317 16.847431 8.9101858 0 0 0 0 63.284554
13.758513 17.887135 8.9409046 0 0 0 0 63.289505
12.70656 18.165621 8.6008186 0 0 0 0 63.294449
13.966483 15.622576 8.6285315 0 0 0 0 63.299393
14.315352 17.744267 9.1806688 0 0 0 0 63.304344
13.232565 18.047907 8.8501625 0 0 0 0 63.309288
12.197688 18.318144 8.5392523 0 0 0 0 63.31424
14.071928 16.477791 8.8765182 0 0 0 0 63.319183
13.777583 17.903475 9.0668669 0 0 0 0 63.324127
12.69097 18.165087 8.7507076 0 0 0 0 63.329079
11.684254 18.456474 8.4747782 0 0 0 0 63.334023
14.382325 17.6387 9.2730322 0 0 0 0 63.338974
13.233753 18.032412 8.9472933 0 0 0 0 63.343918
12.174512 18.308147 8.666172 0 0 0 0 63.348869
11.177117 18.584007 8.4144354 0 0 0 0 63.353813
13.887832 17.854286 9.1659899 0 0 0 0 63.358757
12.705691 18.166901 8.8387613 0 0 0 0 63.363708
11.667241 18.443525 8.5887575 0 0 0 0 63.368652
10.346931 18.128193 8.1043072 0 0 0 0 63.373604
13.349762 17.99328 9.0353546 0 0 0 0 63.378548
12.183764 18.295609 8.7363148 0 0 0 0 63.383492
11.165059 18.575071 8.5154028 0 0 0 0 63.388443
9.8687944 18.25367 8.0571547 0 0 0 0 63.393387
12.813989 18.122316 8.9048176 0 0 0 0 63.398338
11.682043 18.44804 8.6477737 0 0 0 0 63.403282
10.360604 18.162029 8.206048 0 0 0 0 63.408234
9.4288635 18.432596 8.0417557 0 0 0 0 63.413177
12.291804 18.262846 8.7852564 0 0 0 0 63.418121
11.17992 18.580433 8.5594063 0 0 0 0 63.423073
9.8552303 18.236282 8.1201801 0 0 0 0 63.428017
9.2129478 19.070347 8.2266235 0 0 0 0 63.432968
11.789227 18.413107 8.6827259 0 0 0 0 63.437912
10.344007 18.124039 8.2122421 0 0 0 0 63.442856
9.4228859 18.430357 8.0966854 0 0 0 0 63.447807
8.7357988 19.192907 8.1914845 0 0 0 0 63.452751
11.278388 18.540022 8.5733461 0 0 0 0 63.457703
9.8690653 18.248316 8.1371088 0 0 0 0 63.462646
9.2098866 19.0721 8.2715263 0 0 0 0 63.46759
8.2637796 19.309668 8.1634245 0 0 0 0 63.472542
10.424266 18.063757 8.1962452 0 0 0 0 63.477486
9.4244146 18.423773 8.0896988 0 0 0 0 63.482437
8.7364607 19.205671 8.226306 0 0 0 0 63.487381
7.704329 19.193785 8.0419102 0 0 0 0 63.492332
9.9623451 18.220428 8.1208954 0 0 0 0 63.497276
9.2063732 19.06921 8.2484646 0 0 0 0 63.50222
8.2635021 19.323246 8.1832275 0 0 0 0 63.507172
7.1530795 19.071138 7.9225039 0 0 0 0 63.512115
9.4850435 18.383217 8.0460625 0 0 0 0 64.353775
8.7204123 19.223295 8.1932869 0 0 0 0 64.358727
7.7216668 19.313229 8.0839624 0 0 0 0 64.36367
6.5867996 18.89785 7.7864499 0 0 0 0 64.368614
9.2880764 19.070227 8.2073631 0 0 0 0 64.373566
8.2428799 19.327112 8.1321802 0 0 0 0 64.37851
7.1770544 19.207205 7.9583683 0 0 0 0 64.383461
6.0752058 18.787064 7.6861124 0 0 0 0 64.388405
8.8096247 19.205917 8.133955 0 0 0 0 64.393356
7.7797198 19.479551 8.0887098 0 0 0 0 64.3983
6.6445084 19.098572 7.8368726 0 0 0 0 64.403244
5.5590978 18.631945 7.5701547 0 0 0 0 64.408195
8.3295813 19.328526 8.0596504 0 0 0 0 64.413139
7.2812424 19.520473 8.0100422 0 0 0 0 64.418091
6.1183586 18.977127 7.7175345 0 0 0 0 64.423035
4.8802228 17.814915 7.1973009 0 0 0 0 64.427979
7.8531046 19.463305 7.9932528 0 0 0 0 64.43293
6.7432122 19.428589 7.8813496 0 0 0 0 64.437874
5.5993638 18.820782 7.5895653 0 0 0 0 64.442825
4.4681206 17.896154 7.189815 0 0 0 0 64.447769
7.3715143 19.569872 7.9250779 0 0 0 0 64.452721
6.2167468 19.349138 7.7616129 0 0 0 0 64.457664
4.8610401 17.811924 7.1291142 0 0 0 0 64.462608
4.0626092 17.988674 7.1912632 0 0 0 0 64.46756
6.9026136 19.714994 7.8736205 0 0 0 0 64.472504
5.2658834 17.794117 7.0688734 0 0 0 0 64.477455
4.4476438 17.904036 7.1135149 0 0 0 0 64.482399
3.6404572 18.010386 7.1682591 0 0 0 0 64.487343
6.4300537 19.84898 7.822238 0 0 0 0 64.492294
4.8298454 17.819082 7.0107522 0 0 0 0 64.497238
4.03865 18.013363 7.1067777 0 0 0 0 64.50219
3.1779606 17.774754 7.0483909 0 0 0 0 64.507133
5.2892308 17.729557 6.9085379 0 0 0 0 64.512077
4.4123073 17.917936 6.9830565 0 0 0 0 64.517029
3.6317506 18.118774 7.1040864 0 0 0 0 64.521973
2.7381041 17.609127 6.9580145 0 0 0 0 64.526924
4.8651032 17.819021 6.861887 0 0 0 0 64.531868
4.0021996 18.032146 6.9692616 0 0 0 0 64.536819
3.2162597 18.181749 7.0877309 0 0 0 0 64.541763
2.2996457 17.342157 6.8345938 0 0 0 0 64.546707
4.4432774 17.928644 6.825058 0 0 0 0 64.551659
3.5876179 18.130154 6.9515843 0 0 0 0 64.556602
2.7739112 18.091265 7.0176315 0 0 0 0 64.561554
1.9136014 17.417328 6.8503141 0 0 0 0 64.566498
4.0242686 18.042416 6.7962041 0 0 0 0 64.571442
3.1688578 18.233046 6.9368291 0 0 0 0 64.576393
2.3236177 17.850908 6.89288 0 0 0 0 64.581337
1.5335047 17.612173 6.9119492 0 0 0 0 64.586288
3.6051915 18.157217 6.7723351 0 0 0 0 64.591232
2.7529011 18.340103 6.9320483 0 0 0 0 64.596176
1.8870339 17.648169 6.7878652 0 0 0 0 64.601128
1.129125 17.488955 6.8573985 0 0 0 0 64.606071
3.1748908 18.24856 6.7406073 0 0 0 0 64.611023
2.3317184 18.423893 6.9194469 0 0 0 0 64.615967
1.4725261 17.531511 6.7201867 0 0 0 0 64.620918
0.72557741 17.223156 6.7491879 0 0 0 0 64.625862
2.7516854 18.365282 6.7256832 0 0 0 0 64.630806
1.8970565 18.431978 6.8834629 0 0 0 0 64.635757
1.0812037 17.67469 6.7552214 0 0 0 0 64.640701
0.32045084 16.355738 6.4096084 0 0 0 0 64.645653
2.3237047 18.474825 6.7097902 0 0 0 0 64.650597
1.4457562 18.162422 6.7489705 0 0 0 0 64.65554
0.65308088 17.073601 6.5099936 0 0 0 0 64.660492
-0.043537878 16.191645 6.3477049 0 0 0 0 64.665436
1.8918931 18.608343 6.7046423 0 0 0 0 64.670387
1.01205 17.963732 6.6449275 0 0 0 0 64.675331
0.26221105 16.936672 6.4476552 0 0 0 0 64.680283
-0.3989577 15.95152 6.2605715 0 0 0 0 64.685226
1.4554999 18.698586 6.6898656 0 0 0 0 64.69017
0.58696276 17.805492 6.5595598 0 0 0 0 64.695122
-0.12096818 16.749783 6.368835 0 0 0 0 64.700066
-0.72815031 15.35267 6.0339794 0 0 0 0 64.705017
1.0153757 18.779705 6.677146 0 0 0 0 64.709961
0.17266689 17.652657 6.4822111 0 0 0 0 64.714905
-0.49550441 16.455717 6.2510786 0 0 0 0 64.719856
-0.97155464 13.939044 5.4936152 0 0 0 0 64.7248
0.56484938 18.754065 6.627357 0 0 0 0 64.729752
-0.23354396 17.437847 6.3864961 0 0 0 0 64.734695
-0.76743436 14.555243 5.5361071 0 0 0 0 64.739639
-1.1872081 12.886848 5.0960484 0 0 0 0 64.744591
0.11786509 18.533823 6.5164194 0 0 0 0 64.749535
-0.57141328 15.56249 5.6908593 0 0 0 0 64.754486
-1.0097854 13.375701 5.093565 0 0 0 0 64.75943
-1.4319816 12.484509 4.9511828 0 0 0 0 64.764381
-0.29158068 16.730646 5.8626361 0 0 0 0 64.769325
-0.84068173 14.024735 5.1275139 0 0 0 0 64.774269
-1.2538919 12.719282 4.8490958 0 0 0 0 64.779221
-1.8267381 13.30977 5.2917714 0 0 0 0 64.784164
-1.0782148 12.938803 4.729135 0 0 0 0 64.79406
-1.5145365 12.46004 4.7597804 0 0 0 0 64.799004
-2.1569169 13.473227 5.376009 0 0 0 0 64.803955
-0.89716011 13.741561 4.7897072 0 0 0 0 64.808899
-1.3367699 12.50183 4.5675092 0 0 0 0 64.81385
-1.926549 13.324712 5.0948706 0 0 0 0 64.818794
-2.475692 13.536619 5.4232607 0 0 0 0 64.823738
-1.1323439 12.72602 4.4292893 0 0 0 0 64.563774
-1.628756 12.509693 4.5720782 0 0 0 0 64.568726
-2.2663844 13.510017 5.1775618 0 0 0 0 64.573669
-2.3939502 11.64741 4.6981597 0 0 0 0 64.578621
-1.4119428 12.465152 4.3298612 0 0 0 0 64.583565
-2.0723398 13.460588 4.9182343 0 0 0 0 64.588509
-2.2244694 11.639646 4.4822922 0 0 0 0 64.59346
-1.8401933 13.38114 4.6374388 0 0 0 0 64.603355
-2.0783675 11.673272 4.2768855 0 0 0 0 64.608299
-2.1927619 13.533572 4.6836534 0 0 0 0 64.623138
-2.7354865 9.916708 4.077024 0 0 0 0 64.637985
-2.1777213 11.651835 4.0403471 0 0 0 0 64.642929
-2.6039119 9.9048195 3.8689568 0 0 0 0 64.652824
-2.4353442 6.9836588 2.9524384 0 0 0 0 64.69735
-2.5556705 9.7215729 3.3918827 0 0 0 0 64.702293
-2.3632407 7.0074778 2.802665 0 0 0 0 64.712189
-2.4884562 6.6556797 2.8391583 0 0 0 0 64.717133
-2.4161403 8.3668098 2.9355054 0 0 0 0 64.722084
-2.7954764 8.5375357 3.2064192 0 0 0 0 64.727028
-2.4355538 6.7140694 2.7059355 0 0 0 0 64.731972
-2.5419352 6.3678765 2.7435014 0 0 0 0 64.736923
-2.4605718 7.8093061 2.7524366 0 0 0 0 64.741867
-2.4101198 6.8157458 2.5861247 0 0 0 0 64.746819
-2.5133214 6.4636683 2.6257682 0 0 0 0 64.751762
-2.5855644 6.0853839 2.647862 0 0 0 0 64.756706
-2.3633161 6.9089494 2.4515326 0 0 0 0 64.761658
-2.4772747 6.5175118 2.4914784 0 0 0 0 64.766602
-2.5441289 6.1273818 2.5127206 0 0 0 0 64.771553
-2.6375914 5.8438134 2.5697854 0 0 0 0 64.776497
-2.4228168 6.56178 2.3413985 0 0 0 0 64.781448
-2.5082784 6.1571493 2.3726578 0 0 0 0 64.786392
-2.5946519 5.8708129 2.4307961 0 0 0 0 64.791336
-2.6819293 5.6115365 2.4966743 0 0 0 0 64.796288
-2.4650762 6.2081299 2.2294424 0 0 0 0 64.801231
-2.5668762 5.9023523 2.2936645 0 0 0 0 64.806183
-2.6415088 5.6243997 2.3528025 0 0 0 0 64.811127
-2.7472403 5.4368491 2.4468846 0 0 0 0 64.816071
-2.528383 5.9441786 2.1505053 0 0 0 0 64.821022
-2.6100962 5.6369963 2.2108746 0 0 0 0 64.825966
-2.7118523 5.4505615 2.3039725 0 0 0 0 64.830917
-2.7926199 5.2356629 2.3854773 0 0 0 0 64.835861
-2.5763812 5.6716762 2.0687528 0 0 0 0 64.840813
-2.6799285 5.4481177 2.1571903 0 0 0 0 64.845757
-2.7600682 5.2442813 2.2425959 0 0 0 0 64.8507
-2.837544 5.0505629 2.3309236 0 0 0 0 64.855652
-2.6316991 5.4381008 2.0015872 0 0 0 0 64.860596
-2.737422 5.2495933 2.1006806 0 0 0 0 64.865547
-2.7992029 5.0362668 2.1792974 0 0 0 0 64.870491
-2.8967385 4.9021883 2.2929308 0 0 0 0 64.875435
-2.7048676 5.2591634 1.9527898 0 0 0 0 64.880386
-2.7730973 5.0276613 2.0355375 0 0 0 0 64.88533
-2.8666 4.893662 2.1441967 0 0 0 0 64.890282
-2.9910991 4.8160019 2.2831194 0 0 0 0 64.895226
-2.7358098 5.0153222 1.8828865 0 0 0 0 64.900169
-2.8485954 4.8878179 2.0023577 0 0 0 0 64.905121
-2.9670887 4.8112903 2.135309 0 0 0 0 64.910065
-3.1331911 4.8076973 2.310257 0 0 0 0 64.915016
-2.8343883 4.9068732 1.8612578 0 0 0 0 64.91996
-2.9530735 4.8053074 1.9924452 0 0 0 0 64.924911
-3.1130948 4.8008285 2.1594405 0 0 0 0 64.929855
-3.2592654 4.7697768 2.3267794 0 0 0 0 64.934799
-2.9416914 4.8192487 1.849375 0 0 0 0 64.939751
-3.1072266 4.7995758 2.0154777 0 0 0 0 64.944695
-3.3199384 4.6354241 2.2966466 0 0 0 0 64.95459
-3.1018848 4.8152943 1.8693498 0 0 0 0 64.959534
-3.5161505 5.1604142 2.190351 0 0 0 0 64.964485
-3.3735456 4.4992924 2.2665782 0 0 0 0 64.97438
-3.5883963 5.2819734 2.0707023 0 0 0 0 64.979324
-3.5651736 4.9772563 2.1457553 0 0 0 0 64.984268
-3.4242125 4.365253 2.236511 0 0 0 0 64.994164
-3.6051166 4.7923651 2.0992384 0 0 0 0 65.004059
-3.478128 4.2381587 2.2113574 0 0 0 0 65.013954
-3.6610153 4.6350918 2.0643551 0 0 0 0 65.023849
-3.5291734 4.1151657 2.1871848 0 0 0 0 65.033745
-3.7367585 4.5112391 2.0451069 0 0 0 0 64.791016
-3.5729113 3.9892211 2.1611223 0 0 0 0 64.800911
-3.8003509 4.3728395 2.0199888 0 0 0 0 64.810806
-3.6324713 3.8800526 2.1447592 0 0 0 0 64.820702
-3.8392191 4.2141156 1.9852262 0 0 0 0 64.830589
-3.8071136 4.0339422 2.0811472 0 0 0 0 64.835541
-3.8800669 3.9680874 2.2372994 0 0 0 0 64.840485
-3.8139265 3.9941168 1.9224659 0 0 0 0 64.85038
-3.8611014 3.9078867 2.0599799 0 0 0 0 64.855324
-3.8686767 4.0109768 1.7819333 0 0 0 0 64.865219
-3.9402854 3.9351203 1.934189 0 0 0 0 64.870171
-3.8603866 3.734293 2.0136225 0 0 0 0 64.875114
-3.9002616 3.6056614 1.9905751 0 0 0 0 64.894905
-3.9391699 3.4780686 1.9685253 0 0 0 0 64.914688
-3.9648626 3.3448527 1.9426172 0 0 0 0 64.934479
-4.0092101 3.2301469 1.926412 0 0 0 0 64.954269
-4.0474219 3.111623 1.9092846 0 0 0 0 64.974052
-4.0847316 2.9961371 1.8931355 0 0 0 0 64.993843
-4.1210432 2.8806906 1.8779937 0 0 0 0 65.013634
-4.1635714 2.7710953 1.8677564 0 0 0 0 65.033417
-4.1970162 2.6597583 1.8545967 0 0 0 0 65.053207
-4.2325001 2.5493743 1.8434156 0 0 0 0 65.072998
-4.2506156 2.4294617 1.8244412 0 0 0 0 65.092781
-4.188334 2.2995675 1.6450858 0 0 0 0 65.10762
-4.210691 2.2821887 1.7851138 0 0 0 0 65.112572
-4.2515354 2.2763894 1.9419096 0 0 0 0 65.117516
-4.310637 2.2110469 1.8031348 0 0 0 0 65.132362
-4.3249264 2.0962946 1.7881405 0 0 0 0 65.152145
-0.4500376 0.19975628 0.20797193 0 0 0 0 65.162041
-0.4486115 0.18389174 0.22017705 0 0 0 0 65.186775
-0.44356045 0.18015568 0.23125587 0 0 0 0 65.191727
-0.47211099 0.19150455 0.25796735 0 0 0 0 65.196671
-0.44714952 0.17275508 0.20331816 0 0 0 0 65.201614
-0.4437165 0.15694547 0.21453652 0 0 0 0 65.226349
-0.43873608 0.15521823 0.2265958 0 0 0 0 65.2313
-0.43679279 0.15440369 0.23962615 0 0 0 0 65.236244
-0.44630343 0.14670831 0.20064245 0 0 0 0 65.241196
-0.40237504 0.12024947 0.19779845 0 0 0 0 65.020805
-0.40856099 0.12318569 0.21173923 0 0 0 0 65.025757
-0.41475359 0.12613142 0.22667988 0 0 0 0 65.030701
-0.38574985 0.10457678 0.17908297 0 0 0 0 65.035645
-0.39258042 0.096462421 0.19215994 0 0 0 0 65.060387
-0.40991476 0.1030829 0.20999181 0 0 0 0 65.065331
-0.41510808 0.10606051 0.22493875 0 0 0 0 65.070274
-0.39721936 0.087191224 0.18124327 0 0 0 0 65.075226
-0.39700115 0.078272402 0.19137463 0 0 0 0 65.09996
-0.40622434 0.082121447 0.20628645 0 0 0 0 65.104904
-0.41649228 0.086956963 0.22318202 0 0 0 0 65.109856
-0.39857039 0.067088425 0.17949671 0 0 0 0 65.114799
-0.38527438 0.056558672 0.18673055 0 0 0 0 65.139534
-0.40360883 0.063146144 0.20455569 0 0 0 0 65.144485
-0.40274704 0.065278366 0.21555063 0 0 0 0 65.149429
-0.38584325 0.045406699 0.17485921 0 0 0 0 65.154373
-0.38165751 0.037616145 0.18500683 0 0 0 0 65.179108
-0.40599576 0.044020142 0.20379359 0 0 0 0 65.184059
-0.40016204 0.047302857 0.21381061 0 0 0 0 65.189003
-0.38220015 0.025474178 0.17414548 0 0 0 0 65.193954
-0.38207564 0.01955439 0.18424837 0 0 0 0 65.218689
-0.39733487 0.024219161 0.2001119 0 0 0 0 65.223633
-0.38952109 0.028546816 0.20813204 0 0 0 0 65.228584
-0.38061842 0.0074765352 0.17339996 0 0 0 0 65.233528
-0.37848771 0.0016116526 0.1825159 0 0 0 0 65.258263
-0.39978942 0.0071016038 0.20033109 0 0 0 0 65.263206
-0.39999154 0.011201047 0.21130012 0 0 0 0 65.268158
-0.39001727 -0.011845637 0.17559443 0 0 0 0 65.273102
-0.38892418 -0.016733715 0.18569431 0 0 0 0 65.297836
-0.40621495 -0.011134839 0.20153494 0 0 0 0 65.302788
-0.40043926 -0.0058617708 0.2105325 0 0 0 0 65.307732
-0.37945619 -0.028573267 0.17289755 0 0 0 0 65.312683
-0.38938338 -0.033777192 0.18692717 0 0 0 0 65.337418
-0.40062541 -0.029013593 0.19981594 0 0 0 0 65.342361
-0.39087087 -0.022630921 0.20682938 0 0 0 0 65.347305
-0.38685977 -0.047821984 0.17610551 0 0 0 0 65.352257
-0.38779664 -0.051774785 0.1861832 0 0 0 0 65.376991
-0.40702915 -0.048230756 0.20303026 0 0 0 0 65.381935
-0.40334278 -0.040032931 0.21098562 0 0 0 0 65.386887
-0.404212 -0.06936425 0.18226936 0 0 0 0 65.39183
-0.38121113 -0.069610618 0.18547171 0 0 0 0 65.416565
-0.40845293 -0.066306546 0.20426726 0 0 0 0 65.421516
-0.40176177 -0.058021091 0.21124184 0 0 0 0 65.42646
-0.39258918 -0.088048048 0.1806 0 0 0 0 65.431404
-0.39158389 -0.089946859 0.18967123 0 0 0 0 65.456146
-0.41281569 -0.086468764 0.2065051 0 0 0 0 65.46109
-0.40415153 -0.077128425 0.21248269 0 0 0 0 65.466034
-0.38897386 -0.10697073 0.18087989 0 0 0 0 65.470985
-0.39098585 -0.10884868 0.19067168 0 0 0 0 65.355347
-0.39824861 -0.10297594 0.20157637 0 0 0 0 65.360298
-0.39959794 -0.093930542 0.21048999 0 0 0 0 65.365242
-0.39629665 -0.12910022 0.18485802 0 0 0 0 65.370193
-0.38737798 -0.12776181 0.19195126 0 0 0 0 65.394928
-0.41156855 -0.12538867 0.20777625 0 0 0 0 65.399872
-0.39898902 -0.11294071 0.21175016 0 0 0 0 65.404816
-0.38871533 -0.1468945 0.18515371 0 0 0 0 65.409767
-0.39863259 -0.15210879 0.19818422 0 0 0 0 65.434502
-0.40097523 -0.1431053 0.20609134 0 0 0 0 65.439445
-0.39343244 -0.12980944 0.21102329 0 0 0 0 65.444397
-0.43060589 -0.18513151 0.20231576 0 0 0 0 65.449341
-0.43460894 -0.18717369 0.21335535 0 0 0 0 65.474075
-0.41520098 -0.16854006 0.21331519 0 0 0 0 65.479027
-0.40471828 -0.15315747 0.21724661 0 0 0 0 65.483971
-0.43180981 -0.21018504 0.20562361 0 0 0 0 65.488914
-0.42395371 -0.20687962 0.21269131 0 0 0 0 65.513657
-0.43922642 -0.20124783 0.22554404 0 0 0 0 65.5186
-0.43478003 -0.18505043 0.23042686 0 0 0 0 65.523544
-0.46058482 -0.25103208 0.21989974 0 0 0 0 65.528496
-0.4577063 -0.24886933 0.22894521 0 0 0 0 65.55323
-0.42365628 -0.21781202 0.22288309 0 0 0 0 65.558174
-0.43500856 -0.20908159 0.23273186 0 0 0 0 65.563126
-5.1821022 -3.0237913 1.9330795 0 0 0 0 65.568069
-5.2201428 -3.2148087 1.9767101 0 0 0 0 65.58786
-5.1930451 -3.0151644 2.044971 0 0 0 0 65.592804
-0.47511956 -0.27031466 0.24612013 0 0 0 0 65.597755
-0.43822128 -0.2341806 0.23802781 0 0 0 0 65.602699
-5.234447 -3.3961 2.0154083 0 0 0 0 65.607643
-5.2479177 -3.2126734 2.094552 0 0 0 0 65.612595
-5.1982403 -2.9945517 2.1357832 0 0 0 0 65.617538
-5.036624 -3.4391932 1.9761969 0 0 0 0 65.627434
-5.2564154 -3.3868217 2.1282213 0 0 0 0 65.632378
-5.2561979 -3.1891704 2.1843166 0 0 0 0 65.637329
-0.4817377 -0.28444579 0.25929704 0 0 0 0 65.642273
-4.8507867 -3.4836307 1.94092 0 0 0 0 65.647224
-5.0753222 -3.4384594 2.0889807 0 0 0 0 65.652168
-5.2991691 -3.3823316 2.2299387 0 0 0 0 65.657112
-5.2484617 -3.1322773 2.2588632 0 0 0 0 65.662064
-4.6808429 -3.532531 1.9105812 0 0 0 0 65.667007
-4.8836217 -3.4767873 2.0446849 0 0 0 0 65.671959
-5.1200399 -3.4340792 2.1856871 0 0 0 0 65.676903
-5.3289433 -3.3435416 2.3174095 0 0 0 0 65.681854
-4.4983897 -3.5650592 1.87517 0 0 0 0 65.686798
-4.7087946 -3.5205917 2.0073304 0 0 0 0 65.691742
-4.941071 -3.4808223 2.1413877 0 0 0 0 65.696693
-5.1998453 -3.4287841 2.2881463 0 0 0 0 65.701637
-4.334784 -3.6041186 1.8476969 0 0 0 0 65.706589
-4.5391059 -3.5605354 1.9719057 0 0 0 0 65.711533
-4.757473 -3.5154319 2.0940034 0 0 0 0 65.716476
-5.013073 -3.4673653 2.2338207 0 0 0 0 65.721428
-4.1733379 -3.6382399 1.820163 0 0 0 0 65.726372
-4.3784313 -3.6007373 1.9394245 0 0 0 0 65.731323
-4.5926628 -3.5585625 2.0555778 0 0 0 0 65.736267
-4.8411813 -3.5113485 2.1874495 0 0 0 0 65.741219
-4.0246892 -3.6797268 1.7976164 0 0 0 0 65.746162
-4.2169838 -3.6339042 1.9068819 0 0 0 0 65.751106
-4.4290466 -3.5957234 2.0170872 0 0 0 0 65.756058
-4.6704822 -3.549361 2.1410139 0 0 0 0 65.761002
-3.8782067 -3.7162664 1.7760086 0 0 0 0 65.765953
-4.0654254 -3.6713507 1.8783162 0 0 0 0 65.770897
-4.2714705 -3.632055 1.9805499 0 0 0 0 65.775841
-4.5106721 -3.5916858 2.0985487 0 0 0 0 65.780792
-3.735786 -3.7509325 1.7543566 0 0 0 0 65.785736
-3.9160273 -3.7038596 1.8496892 0 0 0 0 65.790688
-4.1199427 -3.6675484 1.9469655 0 0 0 0 65.795631
-4.3481817 -3.6239219 2.0550048 0 0 0 0 65.800575
-3.5837734 -3.7723024 1.7296417 0 0 0 0 65.805527
-3.7726448 -3.7365298 1.8240248 0 0 0 0 65.810471
-3.9782782 -3.7083116 1.9183673 0 0 0 0 65.815422
-4.1887341 -3.655231 2.0134335 0 0 0 0 65.820366
-3.451812 -3.8117085 1.7149037 0 0 0 0 66.232277
-3.6425135 -3.7811096 1.8053026 0 0 0 0 66.237221
-3.8294866 -3.7404749 1.8866267 0 0 0 0 66.242172
-4.0369015 -3.6884336 1.9756969 0 0 0 0 66.247116
-3.3215373 -3.8426411 1.6991538 0 0 0 0 66.252068
-3.5062606 -3.8099165 1.7825717 0 0 0 0 66.257011
-3.6872301 -3.7681453 1.8579247 0 0 0 0 66.261955
-3.9002247 -3.7283289 1.9440761 0 0 0 0 66.266907
-3.1923265 -3.8716035 1.6833786 0 0 0 0 66.271851
-3.361342 -3.8274753 1.7547903 0 0 0 0 66.276802
-3.5567276 -3.8041644 1.833226 0 0 0 0 66.281746
-3.7510822 -3.7508466 1.9073706 0 0 0 0 66.286697
-3.0632474 -3.8965628 1.6675644 0 0 0 0 66.291641
-3.239861 -3.8646958 1.7390442 0 0 0 0 66.296585
-3.4185653 -3.8289587 1.8044703 0 0 0 0 66.301537
-3.6127939 -3.7786818 1.8746448 0 0 0 0 66.30648
-2.9497082 -3.9369712 1.6587979 0 0 0 0 66.311432
-3.1098471 -3.8866708 1.7182071 0 0 0 0 66.316376
-3.2854528 -3.8528848 1.7786728 0 0 0 0 66.32132
-3.4881723 -3.8179111 1.8479393 0 0 0 0 66.326271
-2.8276432 -3.9621236 1.6459401 0 0 0 0 66.331215
-2.9876225 -3.9158633 1.7013896 0 0 0 0 66.336166
-3.1631351 -3.8841186 1.757875 0 0 0 0 66.34111
-3.3539994 -3.8428409 1.8181593 0 0 0 0 66.346062
-2.7047105 -3.9832408 1.6330497 0 0 0 0 66.351006
-2.8732204 -3.9512739 1.688581 0 0 0 0 66.355949
-3.0370104 -3.9092274 1.736044 0 0 0 0 66.360901
-3.2248027 -3.8689122 1.7903578 0 0 0 0 66.365845
-2.5934389 -4.0156965 1.6251928 0 0 0 0 66.370796
-2.7531984 -3.9745169 1.6726919 0 0 0 0 66.37574
-2.9177947 -3.9375429 1.7161986 0 0 0 0 66.380684
-3.1044607 -3.9002352 1.766549 0 0 0 0 66.385635
-2.4822721 -4.0451393 1.6183066 0 0 0 0 66.390579
-2.6400256 -4.0029559 1.6598085 0 0 0 0 66.395531
-2.8044093 -3.9720008 1.7013757 0 0 0 0 66.400475
-2.9794064 -3.9224124 1.7406831 0 0 0 0 66.405418
-2.3702314 -4.0705571 1.6103879 0 0 0 0 66.41037
-2.5287645 -4.0344353 1.6489437 0 0 0 0 66.415314
-2.6854239 -3.9933114 1.6814618 0 0 0 0 66.420265
-2.8640795 -3.9538634 1.7198437 0 0 0 0 66.425209
-2.2649133 -4.1051588 1.6065155 0 0 0 0 66.430161
-2.4196074 -4.0629692 1.6390363 0 0 0 0 66.435104
-2.5741677 -4.0238295 1.6665876 0 0 0 0 66.440048
-2.7546089 -3.9904673 1.7030168 0 0 0 0 66.445
-2.1588206 -4.1327362 1.6015797 0 0 0 0 66.449944
-2.3105164 -4.0895 1.6291099 0 0 0 0 66.454895
-2.465929 -4.0544133 1.6546947 0 0 0 0 66.459839
-2.6336956 -4.0087466 1.6790876 0 0 0 0 66.464783
-2.0490158 -4.1512017 1.5945802 0 0 0 0 66.469734
-2.2043025 -4.1201038 1.6212053 0 0 0 0 66.474678
-2.3558433 -4.0799489 1.6407654 0 0 0 0 66.47963
-2.5187387 -4.0291805 1.6591401 0 0 0 0 66.484573
-1.9458065 -4.1828389 1.5926675 0 0 0 0 66.489517
-2.0972476 -4.1456838 1.612258 0 0 0 0 66.494469
-2.24579 -4.1044812 1.6268274 0 0 0 0 66.499413
-2.4142153 -4.0679078 1.6453042 0 0 0 0 66.504364
-1.8427297 -4.2104745 1.5907155 0 0 0 0 66.509308
-1.9922382 -4.1703062 1.6052881 0 0 0 0 66.514259
-2.1425321 -4.136189 1.6179152 0 0 0 0 66.519203
-2.3032007 -4.0904455 1.6273531 0 0 0 0 66.524147
-1.7369068 -4.2300301 1.5867031 0 0 0 0 66.529099
-1.8881669 -4.1969471 1.5993333 0 0 0 0 66.534042
-2.0336092 -4.1567488 1.603932 0 0 0 0 66.538994
-2.1941981 -4.1130261 1.6113896 0 0 0 0 66.543938
-1.6358405 -4.2577043 1.5867399 0 0 0 0 66.548882
-1.7851011 -4.2236071 1.5943729 0 0 0 0 66.553833
-1.9304827 -4.1844501 1.5949814 0 0 0 0 66.558777
-2.0889785 -4.1427026 1.5984724 0 0 0 0 66.563728
-1.5367454 -4.2864308 1.5877749 0 0 0 0 66.568672
-1.680289 -4.2422204 1.5873454 0 0 0 0 66.573624
-1.8302068 -4.2172155 1.5890629 0 0 0 0 66.578568
-1.9838917 -4.1683774 1.5855153 0 0 0 0 66.583511
-1.4328991 -4.3070202 1.5857626 0 0 0 0 66.588463
-1.5820116 -4.2759957 1.5864254 0 0 0 0 66.593407
-1.7243404 -4.2368236 1.5790532 0 0 0 0 66.598358
-1.8798367 -4.1930819 1.5725427 0 0 0 0 66.603302
-1.3366606 -4.3407955 1.590831 0 0 0 0 66.608246
-1.480955 -4.302691 1.5834552 0 0 0 0 66.613197
-1.6222237 -4.2645264 1.5720993 0 0 0 0 66.618141
-1.7775991 -4.2238159 1.5626191 0 0 0 0 66.623093
-1.2348251 -4.361424 1.5908077 0 0 0 0 66.628036
-1.3790923 -4.3233614 1.5794315 0 0 0 0 66.63298
-1.5212128 -4.2892509 1.5661094 0 0 0 0 66.637932
-1.6726499 -4.2454705 1.5506246 0 0 0 0 66.642876
-1.1348742 -4.3860822 1.5938129 0 0 0 0 66.647827
-1.4182956 -4.3109155 1.5591033 0 0 0 0 66.657722
-1.5696453 -4.2691669 1.5406384 0 0 0 0 66.662666
-1.0358284 -4.4137588 1.5978434 0 0 0 0 66.66761
-1.1782895 -4.3677492 1.575398 0 0 0 0 66.672562
-1.466606 -4.2938585 1.5306637 0 0 0 0 66.682457
-0.93778759 -4.4414539 1.6028683 0 0 0 0 66.687401
-1.0790946 -4.3994412 1.5774701 0 0 0 0 66.692345
-1.3655787 -4.318593 1.5226766 0 0 0 0 66.70224
-0.83993685 -4.4678917 1.6080592 0 0 0 0 66.441566
-0.9830457 -4.430934 1.5797099 0 0 0 0 66.446518
-1.1192048 -4.3917747 1.5483862 0 0 0 0 66.451462
-0.73996925 -4.4935408 1.6130714 0 0 0 0 66.461357
-0.88224453 -4.4506059 1.5796671 0 0 0 0 66.466301
-1.0173768 -4.4114556 1.5443498 0 0 0 0 66.471252
-0.63826174 -4.5111346 1.6170167 0 0 0 0 66.481148
-0.77966344 -4.4632311 1.5775677 0 0 0 0 66.486092
-0.91636115 -4.4371424 1.5423689 0 0 0 0 66.491035
-1.0634929 -4.397438 1.5029609 0 0 0 0 66.495987
-0.53833961 -4.5357561 1.6240207 0 0 0 0 66.500931
-0.68127316 -4.501914 1.5847006 0 0 0 0 66.505882
-0.81637722 -4.4618587 1.5403723 0 0 0 0 66.510826
-0.95970398 -4.4150877 1.4949191 0 0 0 0 66.515778
-0.43829668 -4.5643511 1.6330668 0 0 0 0 66.520721
-0.58026326 -4.5285296 1.5887325 0 0 0 0 66.525665
-0.71366143 -4.478476 1.5383151 0 0 0 0 66.530617
-0.85951906 -4.4457994 1.4929843 0 0 0 0 66.535561
-0.33648095 -4.5858893 1.6410557 0 0 0 0 66.540512
-0.47863325 -4.5431442 1.5896499 0 0 0 0 66.545456
-0.61424869 -4.5171494 1.5424569 0 0 0 0 66.5504
-0.75749433 -4.4714527 1.4900129 0 0 0 0 66.555351
-0.23551053 -4.6124334 1.6510903 0 0 0 0 66.560295
-0.37735522 -4.5786958 1.5987757 0 0 0 0 66.565247
-0.51143765 -4.536746 1.5414326 0 0 0 0 66.57019
-0.6536566 -4.4910588 1.4849948 0 0 0 0 66.575134
-0.1332593 -4.6479044 1.6642245 0 0 0 0 66.580086
-0.2754502 -4.6022563 1.6037871 0 0 0 0 66.58503
-0.40838578 -4.5642939 1.5444909 0 0 0 0 66.589981
-0.55138284 -4.5246692 1.4851074 0 0 0 0 66.594925
-0.029455857 -4.6693425 1.6742302 0 0 0 0 66.599876
-0.17161246 -4.6237473 1.6087925 0 0 0 0 66.60482
-0.30530635 -4.5928264 1.5485607 0 0 0 0 66.609764
-0.44652408 -4.5452123 1.4821084 0 0 0 0 66.614716
0.075414777 -4.6927414 1.6842642 0 0 0 0 66.619659
-0.067500092 -4.6541882 1.617891 0 0 0 0 66.624611
-0.20031351 -4.6183095 1.5506145 0 0 0 0 66.629555
-0.34248379 -4.5717511 1.4821652 0 0 0 0 66.634499
0.17940009 -4.7201366 1.6973336 0 0 0 0 66.63945
0.038545158 -4.682559 1.6269834 0 0 0 0 66.644394
-0.095527932 -4.6377821 1.5536079 0 0 0 0 66.649345
-0.23628272 -4.6032052 1.4832876 0 0 0 0 66.654289
0.28625041 -4.7434292 1.7103831 0 0 0 0 66.659241
0.1444307 -4.7059379 1.635026 0 0 0 0 66.664185
0.011665611 -4.6701345 1.5607487 0 0 0 0 66.669128
-0.13025524 -4.6296482 1.4853599 0 0 0 0 66.67408
0.39544877 -4.7776132 1.7265598 0 0 0 0 66.679024
0.25050464 -4.7352886 1.6451311 0 0 0 0 66.683975
0.11873313 -4.6984949 1.5668499 0 0 0 0 66.688919
-0.021509815 -4.6470213 1.4843614 0 0 0 0 66.693863
0.50447339 -4.8067856 1.7436864 0 0 0 0 66.698814
0.36031547 -4.7565155 1.6541821 0 0 0 0 66.703758
0.22647907 -4.7168436 1.5708566 0 0 0 0 66.70871
0.08792685 -4.686306 1.4905895 0 0 0 0 66.713654
0.61650431 -4.8358622 1.7598344 0 0 0 0 66.718597
0.47037515 -4.7857022 1.6663164 0 0 0 0 66.723549
0.33878663 -4.7529817 1.5810755 0 0 0 0 66.728493
0.19669378 -4.7046494 1.4916035 0 0 0 0 66.733444
0.72818023 -4.85396 1.7738708 0 0 0 0 66.738388
0.58467466 -4.8227043 1.6825606 0 0 0 0 66.74334
0.44967979 -4.7761865 1.5881557 0 0 0 0 66.748283
0.30990219 -4.736805 1.4967892 0 0 0 0 66.753227
0.84437764 -4.8888383 1.7951095 0 0 0 0 66.758179
0.69875383 -4.852726 1.6967342 0 0 0 0 66.763123
0.56463182 -4.8012409 1.5962846 0 0 0 0 66.768074
0.42400327 -4.7659135 1.5029519 0 0 0 0 66.773018
0.96370214 -4.927597 1.8174107 0 0 0 0 66.777962
0.81467164 -4.8776889 1.7098713 0 0 0 0 66.782913
0.68079191 -4.8332119 1.608493 0 0 0 0 66.787857
0.53988242 -4.7879739 1.5070573 0 0 0 0 66.792809
1.0826714 -4.9553781 1.8376002 0 0 0 0 66.797752
0.93611109 -4.9193964 1.7302177 0 0 0 0 66.802696
0.80013967 -4.8710527 1.6227846 0 0 0 0 66.807648
0.65684903 -4.8129735 1.5132015 0 0 0 0 66.812592
1.2081354 -4.9988809 1.8639957 0 0 0 0 66.817543
1.0581751 -4.9491129 1.746449 0 0 0 0 66.822487
0.91992331 -4.8909264 1.6308994 0 0 0 0 66.827438
0.78054678 -4.8606911 1.5256237 0 0 0 0 66.832382
1.3364643 -5.0382786 1.8903718 0 0 0 0 66.837326
1.1833858 -4.9836893 1.765753 0 0 0 0 66.842278
1.0463834 -4.9324875 1.6482817 0 0 0 0 66.847221
0.9025324 -4.8864908 1.5338144 0 0 0 0 66.852173
1.4624118 -5.0657763 1.9136124 0 0 0 0 66.857117
1.3137765 -5.0240569 1.7881539 0 0 0 0 66.862061
1.1737769 -4.9720106 1.6656518 0 0 0 0 66.867012
1.0284829 -4.9111514 1.5420229 0 0 0 0 66.871956
1.5946323 -5.1020193 1.9409872 0 0 0 0 66.876907
1.4417586 -5.0515351 1.8064089 0 0 0 0 66.881851
1.3037857 -4.9994645 1.6799198 0 0 0 0 66.886803
1.1600919 -4.9565525 1.5574826 0 0 0 0 66.891747
1.729751 -5.1351571 1.9683527 0 0 0 0 66.89669
1.5770671 -5.0897031 1.8308256 0 0 0 0 66.901642
1.4392911 -5.0426726 1.7003876 0 0 0 0 66.906586
1.2922229 -4.9869652 1.568796 0 0 0 0 66.911537
1.8688841 -5.1756029 1.997877 0 0 0 0 66.675774
1.718493 -5.138061 1.8574562 0 0 0 0 66.680725
1.576598 -5.0861869 1.720951 0 0 0 0 66.685669
1.4285051 -5.0285206 1.5843437 0 0 0 0 66.69062
2.0185051 -5.2252026 2.0335033 0 0 0 0 66.695564
1.8607781 -5.1759977 1.8839128 0 0 0 0 66.700508
1.7188241 -5.1211886 1.7413764 0 0 0 0 66.70546
1.5719596 -5.0695276 1.600837 0 0 0 0 66.710403
2.1657734 -5.2638898 2.0670054 0 0 0 0 66.715355
2.008095 -5.2147579 1.9104146 0 0 0 0 66.720299
1.865297 -5.1640139 1.7649122 0 0 0 0 66.72525
1.7141207 -5.1015778 1.6162329 0 0 0 0 66.730194
2.3201258 -5.3053126 2.1025867 0 0 0 0 66.735138
2.1615767 -5.2592564 1.9420196 0 0 0 0 66.740089
2.0155811 -5.2007213 1.786415 0 0 0 0 66.745033
1.86024 -5.1324782 1.6326468 0 0 0 0 66.749985
2.4806497 -5.3524823 2.1422713 0 0 0 0 66.754929
2.3199966 -5.3015904 1.9726393 0 0 0 0 66.759872
2.1687768 -5.2352924 1.8109188 0 0 0 0 66.764824
2.0222383 -5.1907682 1.6574501 0 0 0 0 66.769768
2.6451054 -5.397511 2.1819642 0 0 0 0 66.774719
2.4845889 -5.3496718 2.0073626 0 0 0 0 66.779663
2.3344431 -5.2844028 1.8396586 0 0 0 0 66.784615
2.1827142 -5.2331142 1.6800842 0 0 0 0 66.789558
2.8165448 -5.4422765 2.2237055 0 0 0 0 66.794502
2.6541049 -5.3955669 2.0431006 0 0 0 0 66.799454
2.5073082 -5.3402143 1.8735189 0 0 0 0 66.804398
2.3480945 -5.2722974 1.7017229 0 0 0 0 66.809349
2.9962151 -5.4947081 2.2705841 0 0 0 0 66.814293
2.8348241 -5.4480391 2.0829859 0 0 0 0 66.819237
2.6829855 -5.3899412 1.9053398 0 0 0 0 66.824188
2.5270872 -5.3309402 1.7316558 0 0 0 0 66.829132
3.1796632 -5.5400214 2.3154202 0 0 0 0 66.834084
3.0120351 -5.4846549 2.1186888 0 0 0 0 66.839027
2.8612912 -5.428565 1.9370695 0 0 0 0 66.843971
2.7087228 -5.3785009 1.759498 0 0 0 0 66.848923
3.3786407 -5.6027064 2.3705435 0 0 0 0 66.853867
3.2058568 -5.5406284 2.1627066 0 0 0 0 66.858818
3.0540953 -5.4826474 1.9740598 0 0 0 0 66.863762
2.8931561 -5.4199562 1.7873006 0 0 0 0 66.868713
3.5802343 -5.6533189 2.4225659 0 0 0 0 66.873657
3.4077151 -5.5982804 2.2108006 0 0 0 0 66.878601
3.2496626 -5.529624 2.0110002 0 0 0 0 66.883553
3.0941131 -5.4777904 1.8213874 0 0 0 0 66.888496
3.7993915 -5.7222342 2.4849 0 0 0 0 66.893448
3.6184952 -5.6536107 2.2599366 0 0 0 0 66.898392
3.4617407 -5.5929589 2.0562253 0 0 0 0 66.903336
3.3030872 -5.5363235 1.8575407 0 0 0 0 66.908287
4.0159445 -5.7722697 2.5420275 0 0 0 0 66.913231
3.8478527 -5.7272277 2.3173919 0 0 0 0 66.918182
3.6869006 -5.6588211 2.1035709 0 0 0 0 66.923126
3.5200107 -5.5935574 1.8957398 0 0 0 0 66.928078
4.2572393 -5.846334 2.612576 0 0 0 0 66.933022
4.0807848 -5.7877283 2.3727427 0 0 0 0 66.937965
3.9126968 -5.7136569 2.1498125 0 0 0 0 66.942917
3.7542295 -5.6601477 1.9391586 0 0 0 0 66.947861
4.5126424 -5.9238801 2.6862631 0 0 0 0 66.952812
4.3216858 -5.8479056 2.4321494 0 0 0 0 66.957756
4.1651201 -5.7884855 2.2064478 0 0 0 0 66.9627
3.9911847 -5.7186413 1.9815176 0 0 0 0 66.967651
4.7706122 -5.9883313 2.7588387 0 0 0 0 66.972595
4.5943999 -5.9338818 2.5040462 0 0 0 0 66.977547
4.4066858 -5.8367305 2.2557402 0 0 0 0 66.982491
4.2525797 -5.7912188 2.0321956 0 0 0 0 66.987434
5.0582895 -6.0756388 2.8448603 0 0 0 0 66.992386
4.8676291 -6.0048509 2.5727978 0 0 0 0 66.99733
4.7008386 -5.9349866 2.3269153 0 0 0 0 67.002281
4.5322971 -5.8741055 2.0891116 0 0 0 0 67.007225
5.3505321 -6.1497808 2.9297841 0 0 0 0 67.012177
5.1642585 -6.0889268 2.6508522 0 0 0 0 67.01712
4.9954376 -6.0162358 2.3949251 0 0 0 0 67.022064
4.821713 -5.9476557 2.1450047 0 0 0 0 67.027016
5.6734481 -6.2457438 3.028151 0 0 0 0 67.03196
5.4881835 -6.182972 2.7382054 0 0 0 0 67.036911
5.3081222 -6.1007972 2.4691007 0 0 0 0 67.041855
5.1283164 -6.0275488 2.2070885 0 0 0 0 67.046799
6.0225048 -6.3467321 3.1337588 0 0 0 0 67.05175
5.8239818 -6.2735658 2.8286119 0 0 0 0 67.056694
5.6502185 -6.198277 2.5506203 0 0 0 0 67.061646
5.476757 -6.133883 2.2827413 0 0 0 0 67.066589
6.3865142 -6.4471335 3.2454717 0 0 0 0 67.071533
6.1828694 -6.3673077 2.9242187 0 0 0 0 67.076485
6.0185437 -6.3037591 2.6414123 0 0 0 0 67.081429
5.8368206 -6.2287998 2.3583658 0 0 0 0 67.08638
6.7756853 -6.5535698 3.3664296 0 0 0 0 67.091324
6.5834651 -6.4844475 3.037365 0 0 0 0 67.096275
6.4015241 -6.3987193 2.7322059 0 0 0 0 67.101219
6.223094 -6.3307385 2.4412522 0 0 0 0 67.106163
7.1929026 -6.6619711 3.4936118 0 0 0 0 67.111115
7.0214405 -6.6141868 3.1619108 0 0 0 0 67.116058
6.8251595 -6.5151315 2.8385122 0 0 0 0 67.12101
6.6570396 -6.4539199 2.5366993 0 0 0 0 67.125954
7.6557097 -6.7906113 3.6403306 0 0 0 0 67.130898
7.4832077 -6.7380505 3.2905717 0 0 0 0 67.135849
7.3128448 -6.6651483 2.9656224 0 0 0 0 67.140793
7.1355453 -6.5954251 2.646656 0 0 0 0 67.145744
8.1832514 -6.9455528 3.809607 0 0 0 0 67.289696
7.9718409 -6.8606863 3.4272292 0 0 0 0 67.29464
7.8045001 -6.7858572 3.0892715 0 0 0 0 67.299591
7.6355486 -6.72401 2.7594352 0 0 0 0 67.304535
8.7624559 -7.1206684 3.9996681 0 0 0 0 67.309479
8.5418139 -7.0243673 3.5931048 0 0 0 0 67.31443
8.3550406 -6.9324498 3.2308316 0 0 0 0 67.319374
8.1747322 -6.8562069 2.8797646 0 0 0 0 67.324326
9.3805799 -7.2943268 4.1990004 0 0 0 0 67.329269
9.1763973 -7.2086062 3.7796619 0 0 0 0 67.334213
9.0008955 -7.1214633 3.4025164 0 0 0 0 67.339165
8.8186846 -7.044476 3.0334265 0 0 0 0 67.344109
10.061041 -7.4806128 4.4189181 0 0 0 0 67.34906
9.8795147 -7.4112515 3.9879074 0 0 0 0 67.354004
9.7132406 -7.3269839 3.5928555 0 0 0 0 67.358955
9.5381413 -7.2489738 3.2028043 0 0 0 0 67.363899
10.863122 -7.7212248 4.6872745 0 0 0 0 67.368843
10.673344 -7.6384668 4.2250652 0 0 0 0 67.373795
10.548982 -7.5778875 3.8195555 0 0 0 0 67.378738
10.232709 -7.3963804 3.3604271 0 0 0 0 67.38369
11.75669 -7.9793901 4.9824786 0 0 0 0 67.388634
11.548617 -7.8816123 4.4859819 0 0 0 0 67.393578
11.40169 -7.7981539 4.0460734 0 0 0 0 67.398529
11.237814 -7.7172418 3.6100693 0 0 0 0 67.403473
12.731503 -8.2484426 5.3053899 0 0 0 0 67.408424
12.585571 -8.1806593 4.7986455 0 0 0 0 67.413368
12.453973 -8.1019173 4.3358941 0 0 0 0 67.41832
12.295137 -8.0161438 3.8698745 0 0 0 0 67.423264
13.660855 -8.4412489 5.6012034 0 0 0 0 67.428207
13.725833 -8.4927826 5.1432004 0 0 0 0 67.433159
13.720427 -8.476675 4.6869984 0 0 0 0 67.438103
13.61883 -8.4221449 4.2027097 0 0 0 0 67.443054
13.781946 -8.1109314 5.5668302 0 0 0 0 67.447998
13.836253 -8.1418867 5.1025386 0 0 0 0 67.452942
13.918966 -8.1624689 4.6753478 0 0 0 0 67.457893
13.98085 -8.1858978 4.2360363 0 0 0 0 67.462837
13.867609 -7.7669392 5.5210581 0 0 0 0 67.467789
13.937464 -7.7853107 5.0607491 0 0 0 0 67.472733
14.029888 -7.798492 4.6395526 0 0 0 0 67.477676
14.10238 -7.8105388 4.2012 0 0 0 0 67.482628
13.981773 -7.4398427 5.4876623 0 0 0 0 67.487572
14.052174 -7.4451795 5.0282235 0 0 0 0 67.492523
14.123539 -7.4261642 4.5975437 0 0 0 0 67.497467
14.205584 -7.4258342 4.1631327 0 0 0 0 67.502419
13.827976 -6.983911 5.3570037 0 0 0 0 67.507362
13.900677 -6.9700966 4.9033847 0 0 0 0 67.512306
13.99494 -6.9511147 4.4898705 0 0 0 0 67.517258
14.074375 -6.9347839 4.0632763 0 0 0 0 67.522202
13.9232 -6.6594777 5.3224907 0 0 0 0 67.527153
14.01572 -6.6418829 4.8779755 0 0 0 0 67.532097
14.103222 -6.6001644 4.4601789 0 0 0 0 67.537041
14.184194 -6.5707521 4.0354605 0 0 0 0 67.541992
13.998305 -6.3317657 5.2847962 0 0 0 0 67.546936
14.108393 -6.3024945 4.8462877 0 0 0 0 67.551888
14.207637 -6.2543039 4.4345083 0 0 0 0 67.556831
14.29911 -6.2105107 4.0107179 0 0 0 0 67.561775
14.09377 -6.0162578 5.256371 0 0 0 0 67.566727
14.169819 -5.9552631 4.8062892 0 0 0 0 67.571671
14.304883 -5.9037046 4.406734 0 0 0 0 67.576622
14.345251 -5.8267679 3.9722326 0 0 0 0 67.581566
14.214446 -5.7087727 5.2382078 0 0 0 0 67.586517
14.359898 -5.6631317 4.8127866 0 0 0 0 67.591461
14.524727 -5.6054754 4.419384 0 0 0 0 67.596405
14.657576 -5.545125 4.0067215 0 0 0 0 67.601357
14.954114 -5.6376476 5.4479637 0 0 0 0 67.6063
15.220628 -5.4733829 4.5751929 0 0 0 0 67.616196
15.082319 -5.3178282 5.4337273 0 0 0 0 67.626091
15.177237 -4.9892259 5.4121566 0 0 0 0 67.645882
15.335607 -4.6772065 5.4122138 0 0 0 0 67.665665
15.492679 -4.5592952 4.96913 0 0 0 0 67.670616
15.472791 -4.3599439 5.4090619 0 0 0 0 67.685455
15.484081 -4.184515 4.9213243 0 0 0 0 67.690399
15.538983 -3.8273382 4.893157 0 0 0 0 67.71019
15.668468 -3.4913034 4.8917475 0 0 0 0 67.72998
15.989017 -3.1383824 4.0804152 0 0 0 0 67.739868
15.750868 -3.3631063 5.363152 0 0 0 0 67.74482
15.749579 -3.1430759 4.8768568 0 0 0 0 67.749763
15.848133 -2.7985778 4.8685193 0 0 0 0 67.517723
15.99734 -2.4547729 4.8771815 0 0 0 0 67.537514
16.27795 -1.3933997 4.8716364 0 0 0 0 67.596878
16.03253 -0.42152399 3.9429412 0 0 0 0 67.626556
16.007238 -0.034980331 3.9258785 0 0 0 0 67.646347
15.914697 -0.28807512 4.6919403 0 0 0 0 67.656242
15.970181 0.034103915 4.31001 0 0 0 0 67.661186
16.141811 0.34953997 3.9509904 0 0 0 0 67.666138
15.808319 -0.26748249 5.0700717 0 0 0 0 67.671082
15.889519 0.067372739 4.6671939 0 0 0 0 67.676025
16.061268 0.40499556 4.323946 0 0 0 0 67.680977
16.197237 0.74013263 3.9574623 0 0 0 0 67.685921
15.820636 0.073301174 5.049747 0 0 0 0 67.690872
15.976991 0.42807209 4.6752062 0 0 0 0 67.695816
16.12726 0.77895844 4.3316636 0 0 0 0 67.70076
16.297434 1.1344545 3.9802167 0 0 0 0 67.705711
15.907745 0.41594878 5.0549417 0 0 0 0 67.710655
16.063431 0.78876108 4.6852083 0 0 0 0 67.715607
16.231819 1.1633868 4.3505502 0 0 0 0 67.720551
16.430256 1.5380046 4.0111084 0 0 0 0 67.725494
15.975638 0.76489395 5.0559287 0 0 0 0 67.730446
16.166548 1.1571227 4.703248 0 0 0 0 67.73539
16.362101 1.5538239 4.3795576 0 0 0 0 67.740341
16.507933 1.9465302 4.0305443 0 0 0 0 67.745285
16.09326 1.1187545 5.0742221 0 0 0 0 67.750237
16.283298 1.5350113 4.7252851 0 0 0 0 67.75518
16.436413 1.9442036 4.3971548 0 0 0 0 67.760124
16.21949 1.4829576 5.095468 0 0 0 0 67.77002
16.369921 1.9167955 4.7410593 0 0 0 0 67.774971
16.263979 1.8420955 5.0951691 0 0 0 0 67.78981
14.554564 2.7824888 3.5799577 0 0 0 0 67.804649
16.524866 2.2374945 5.1620655 0 0 0 0 67.809593
17.416494 2.8355656 5.0293474 0 0 0 0 67.814545
17.399145 2.7373624 5.4223471 0 0 0 0 67.829384
18.466394 6.2498341 5.0260587 0 0 0 0 67.938217
17.988567 7.6748862 4.6398644 0 0 0 0 67.982742
18.021658 7.5350556 4.9921274 0 0 0 0 68.395752
18.13982 8.2619152 4.7223229 0 0 0 0 68.400703
17.973457 8.0103102 5.0138264 0 0 0 0 68.415543
18.21924 8.8252449 4.7900348 0 0 0 0 68.420486
17.845737 7.7477202 5.2737298 0 0 0 0 68.430382
18.067331 8.5620813 5.0757651 0 0 0 0 68.435333
18.395056 9.4573555 4.8867292 0 0 0 0 68.440277
17.91186 7.5087061 5.597827 0 0 0 0 68.445221
17.990656 8.2973909 5.344069 0 0 0 0 68.450172
18.290236 9.1909399 5.1798429 0 0 0 0 68.455116
19.522346 10.633349 5.2407365 0 0 0 0 68.460068
17.837334 7.9407196 5.5937781 0 0 0 0 68.465012
18.125919 8.8647356 5.414144 0 0 0 0 68.469955
18.322083 9.7424459 5.2343125 0 0 0 0 68.474907
17.947157 8.4669533 5.6470976 0 0 0 0 68.484802
18.280371 9.4519348 5.4981465 0 0 0 0 68.489746
18.139772 9.0504856 5.7294216 0 0 0 0 68.504585
19.438704 10.61942 5.8824706 0 0 0 0 68.509537
18.232409 9.6081619 5.7842698 0 0 0 0 68.524376
19.85083 12.393405 5.843802 0 0 0 0 68.534271
19.267393 10.702971 6.1414418 0 0 0 0 68.544167
19.494017 13.823668 5.6040258 0 0 0 0 68.559006
19.222486 14.327937 5.6166987 0 0 0 0 68.578796
19.433447 14.094131 5.9408059 0 0 0 0 68.593636
18.520582 14.49334 5.508749 0 0 0 0 68.598579
19.440525 13.678759 6.1553187 0 0 0 0 68.608475
18.887415 14.373415 5.8568077 0 0 0 0 68.613419
17.8606 14.659328 5.4120979 0 0 0 0 68.61837
19.290869 14.24249 6.1762576 0 0 0 0 68.628265
18.239971 14.555686 5.7440753 0 0 0 0 68.633209
16.489079 14.198117 5.095788 0 0 0 0 68.638161
19.354639 13.754036 6.385973 0 0 0 0 68.643105
18.654114 14.436963 6.0464725 0 0 0 0 68.648048
17.595062 14.722999 5.6305122 0 0 0 0 68.653
16.73418 15.107811 5.2749796 0 0 0 0 68.657944
19.1549 14.268607 6.3760509 0 0 0 0 68.662895
18.020115 14.609528 5.9199338 0 0 0 0 68.667839
16.995703 14.900104 5.5341783 0 0 0 0 68.672783
15.98731 15.134206 5.1491399 0 0 0 0 68.677734
18.518902 14.445843 6.2254457 0 0 0 0 68.682678
17.403111 14.781705 5.7965183 0 0 0 0 68.68763
