# .PCD v0.7 - Point Cloud Data file format
VERSION 0.7
FIELDS x y z normal_x normal_y normal_z intensity curvature
SIZE 4 4 4 4 4 4 4 4
TYPE F F F F F F F F
COUNT 1 1 1 1 1 1 1 1
WIDTH 939
HEIGHT 1
VIEWPOINT 0 0 0 1 0 0 0
POINTS 939
DATA ascii
-0.80151486 12.175747 -0.8747223 0 0 0 0 6.8204842
-1.2410781 12.699231 -0.88298267 0 0 0 0 6.8254318
-1.7190912 13.431196 -0.88946915 0 0 0 0 6.8303776
-2.2470369 14.089749 -0.89263433 0 0 0 0 6.8353252
-1.128417 12.653056 -0.92747033 0 0 0 0 6.8402729
-1.5500503 12.784098 -0.89853138 0 0 0 0 6.8452187
-2.0927889 13.778916 -0.9131453 0 0 0 0 6.8501663
-2.5768981 14.03671 -0.8799848 0 0 0 0 6.855114
-1.4402329 12.745012 -0.95400226 0 0 0 0 6.8600597
-1.9580997 13.491446 -0.95766926 0 0 0 0 6.8650074
-2.4798784 14.096778 -0.93404925 0 0 0 0 6.8699551
-2.8961523 13.952524 -0.86541522 0 0 0 0 6.8749008
-1.8540969 13.53854 -1.0337559 0 0 0 0 6.8798485
-2.391686 14.157088 -1.0151709 0 0 0 0 6.8847961
-2.7813718 13.909386 -0.92386955 0 0 0 0 6.8897419
-2.2854221 14.22343 -1.1093912 0 0 0 0 6.7166824
-2.6983311 13.961021 -1.0153358 0 0 0 0 6.7216301
-3.0892804 13.777336 -0.91875112 0 0 0 0 6.7265759
-2.5921574 14.008209 -1.1174004 0 0 0 0 6.7364712
-2.9939256 13.761616 -1.0141916 0 0 0 0 6.7414169
-3.4075406 13.687204 -0.9152149 0 0 0 0 6.7463646
-2.8926556 13.810917 -1.1272771 0 0 0 0 6.756258
-3.2922821 13.580251 -1.0149729 0 0 0 0 6.7612057
-3.1862071 13.60953 -1.1361247 0 0 0 0 6.7760468
-3.592149 13.436917 -1.0185735 0 0 0 0 6.7809925
-3.4786444 13.416136 -1.1469219 0 0 0 0 6.7958336
-3.9167361 13.392935 -1.0308431 0 0 0 0 6.8007812
-3.7697532 13.248727 -1.1585792 0 0 0 0 6.8156223
-4.0503283 13.044172 -1.1683464 0 0 0 0 6.8354111
-3.4801419 10.327842 -0.9549256 0 0 0 0 6.8551979
-4.6657548 12.851283 -1.2088013 0 0 0 0 6.8749866
-4.2246938 10.813918 -1.0476381 0 0 0 0 6.8947754
-4.5142317 10.608664 -0.89246136 0 0 0 0 6.8997211
-5.651042 11.416389 -0.65388209 0 0 0 0 6.9096146
-4.4857206 10.729132 -1.0646816 0 0 0 0 6.9145622
-5.3511624 11.79845 -1.0051279 0 0 0 0 6.9195099
-5.5788088 11.438253 -0.81428707 0 0 0 0 6.9244556
-5.8786292 11.220021 -0.63923228 0 0 0 0 6.9294033
-5.2825327 11.835526 -1.1994867 0 0 0 0 6.934351
-5.522532 11.453408 -0.99482763 0 0 0 0 6.9392967
-5.8172269 11.25106 -0.80866241 0 0 0 0 6.9442444
-6.1217542 11.059855 -0.6275062 0 0 0 0 6.949192
-5.4422908 11.45735 -1.1912692 0 0 0 0 6.9541378
-5.7717466 11.27839 -0.99821341 0 0 0 0 6.9590855
-6.0535636 11.069842 -0.80399239 0 0 0 0 6.9640331
-6.349267 10.868484 -0.61382502 0 0 0 0 6.9689789
-5.688509 11.277336 -1.2036589 0 0 0 0 6.9739265
-5.9992886 11.077091 -0.99958181 0 0 0 0 6.9788742
-6.2899094 10.887622 -0.7993235 0 0 0 0 6.98382
-6.5932956 10.715326 -0.60306412 0 0 0 0 6.9887676
-5.9357309 11.097326 -1.2150513 0 0 0 0 6.9937153
-6.2326627 10.888866 -1.0019218 0 0 0 0 6.998661
-6.5310082 10.724465 -0.79659075 0 0 0 0 7.0036087
-6.8285589 10.543053 -0.59133452 0 0 0 0 7.0085564
-6.1740108 10.912204 -1.2264072 0 0 0 0 7.0135021
-6.4699359 10.707696 -1.0062494 0 0 0 0 7.0184498
-6.7740498 10.565334 -0.79484767 0 0 0 0 7.0233955
-7.0676365 10.384831 -0.58155894 0 0 0 0 7.0283432
-6.4269829 10.750277 -1.241743 0 0 0 0 7.0332909
-6.7208529 10.554699 -1.0125266 0 0 0 0 7.0382366
-7.0201306 10.403232 -0.7921344 0 0 0 0 7.0431843
-7.3283515 10.255877 -0.57277852 0 0 0 0 7.0481319
-6.6710868 10.578226 -1.2550664 0 0 0 0 7.0530777
-6.9679012 10.390648 -1.018828 0 0 0 0 7.0580254
-7.2828069 10.272347 -0.79337496 0 0 0 0 7.062973
-7.6058927 10.140133 -0.56603885 0 0 0 0 7.0679188
-6.9073043 10.397072 -1.2673792 0 0 0 0 7.0728664
-7.2374716 10.263889 -1.029092 0 0 0 0 7.0778141
-7.5603399 10.152644 -0.79565316 0 0 0 0 7.0827599
-7.1769514 10.259356 -1.286695 0 0 0 0 7.0926552
-7.5356007 10.171494 -1.0433706 0 0 0 0 7.0976009
-7.4908042 10.183212 -1.3139956 0 0 0 0 7.112442
-8.8784294 10.284355 -0.5722574 0 0 0 0 7.1272831
-8.797308 10.241608 -0.83990443 0 0 0 0 7.1421242
-8.7282019 10.190079 -1.1226703 0 0 0 0 7.1569653
-8.6479101 10.141528 -1.4293526 0 0 0 0 7.1718063
-10.206216 9.396493 -0.52960306 0 0 0 0 7.9836464
-10.401259 9.1496248 -0.51886243 0 0 0 0 8.0034332
-10.657737 8.9494915 -0.51127267 0 0 0 0 8.023222
-10.958767 8.7858944 -0.50677836 0 0 0 0 8.0430088
-11.832836 8.1924286 -0.8685168 0 0 0 0 8.1172142
-11.78366 8.0995941 -1.2535976 0 0 0 0 8.1320553
-12.116364 7.9806442 -0.87312251 0 0 0 0 8.1370029
-12.412893 7.768012 -0.87880605 0 0 0 0 8.1567898
-7.8088031 -4.9640398 -0.25044885 0 0 0 0 8.5983162
-7.4155555 -5.2045894 -1.104252 0 0 0 0 8.6032639
-7.5090613 -5.1829462 -0.80167186 0 0 0 0 8.6082096
-7.6826229 -5.129549 -0.25338659 0 0 0 0 8.6181049
-7.2946138 -5.3860788 -1.0982962 0 0 0 0 8.6230507
-7.3900886 -5.3634 -0.79872239 0 0 0 0 8.6279984
-7.4793301 -5.3356509 -0.52908927 0 0 0 0 8.632946
-7.5675592 -5.3059239 -0.25744072 0 0 0 0 8.6378918
-7.1706529 -5.5656061 -1.0913146 0 0 0 0 8.6428394
-7.2620225 -5.535955 -0.79568422 0 0 0 0 8.6477871
-7.3582377 -5.5081072 -0.53009111 0 0 0 0 8.6527328
-7.4534869 -5.4812903 -0.26049682 0 0 0 0 8.6576805
-7.0436945 -5.746161 -1.0853209 0 0 0 0 8.6626282
-7.1430206 -5.7144036 -0.79272717 0 0 0 0 8.6675739
-7.2382174 -5.6865544 -0.53012782 0 0 0 0 8.6725216
-7.326282 -5.6458006 -0.26442689 0 0 0 0 8.6774693
-6.9257784 -5.9316006 -1.0814039 0 0 0 0 8.682415
-7.0200453 -5.8958926 -0.79076195 0 0 0 0 8.6873627
-7.1110911 -5.856081 -0.53008276 0 0 0 0 8.6923103
-7.2051644 -5.8182392 -0.26843014 0 0 0 0 8.6972561
-6.801825 -6.1131172 -1.0754342 0 0 0 0 8.7022038
-6.8919821 -6.0694413 -0.78773129 0 0 0 0 8.7071495
-6.9890475 -6.0335417 -0.53110504 0 0 0 0 8.7120972
-7.0809994 -5.9867101 -0.27239826 0 0 0 0 8.7170448
-6.6748977 -6.2976608 -1.0704622 0 0 0 0 8.7219906
-6.7831135 -6.2617555 -0.78790009 0 0 0 0 8.7269382
-6.874052 -6.2159166 -0.53319198 0 0 0 0 8.7318859
-6.9548655 -6.1582022 -0.27636981 0 0 0 0 8.7368317
-6.5469394 -6.4802098 -1.0664759 0 0 0 0 8.7417793
-6.6470337 -6.434392 -0.78482038 0 0 0 0 8.746727
-6.7419009 -6.3844891 -0.53411621 0 0 0 0 8.7516727
-6.8458762 -6.3434873 -0.28250581 0 0 0 0 8.7566204
-6.4220338 -6.6677217 -1.0625312 0 0 0 0 8.7615681
-6.5180011 -6.6119418 -0.78280556 0 0 0 0 8.7665138
-6.6239057 -6.5678892 -0.53719229 0 0 0 0 8.7714615
-6.7166858 -6.5110054 -0.28744319 0 0 0 0 8.7764091
-6.2840586 -6.8483901 -1.0564801 0 0 0 0 8.7813549
-6.3970904 -6.8013873 -0.78289372 0 0 0 0 8.7863026
-6.496891 -6.7493954 -0.53920799 0 0 0 0 8.7912502
-6.5946064 -6.6884408 -0.29246861 0 0 0 0 8.796196
-6.1592102 -7.0418935 -1.0535653 0 0 0 0 8.8011436
-6.2671375 -6.9869385 -0.78191227 0 0 0 0 8.8060913
-6.3729076 -6.9338646 -0.54125595 0 0 0 0 8.8110371
-6.477643 -6.876812 -0.29857495 0 0 0 0 8.8159847
-6.0293474 -7.2344513 -1.0506181 0 0 0 0 8.8209324
-6.1381989 -7.1744723 -0.7819469 0 0 0 0 8.8258781
-6.2429042 -7.1173959 -0.54426563 0 0 0 0 8.8308258
-6.3454957 -7.0493536 -0.30452135 0 0 0 0 8.8357716
-5.8923316 -7.425488 -1.0485849 0 0 0 0 8.5960999
-6.0081444 -7.3624096 -0.78294724 0 0 0 0 8.6010456
-6.1137977 -7.3013039 -0.54825944 0 0 0 0 8.6059933
-6.2132964 -7.2262726 -0.31247094 0 0 0 0 8.6109409
-5.7565169 -7.6211233 -1.0456129 0 0 0 0 8.6158867
-5.87431 -7.5580082 -0.78298622 0 0 0 0 8.6208344
-5.9767618 -7.4809246 -0.55120552 0 0 0 0 8.625782
-6.0822697 -7.4088058 -0.31946549 0 0 0 0 8.6307278
-5.6177568 -7.8217907 -1.0426478 0 0 0 0 8.6356754
-5.7272739 -7.7357607 -0.78186637 0 0 0 0 8.6406231
-5.8438649 -7.673492 -0.55523682 0 0 0 0 8.6455688
-5.9593649 -7.6022444 -0.32655895 0 0 0 0 8.6505165
-5.4759593 -8.0194912 -1.0396523 0 0 0 0 8.6554642
-5.6026273 -7.9492407 -0.78404391 0 0 0 0 8.6604099
-5.7110119 -7.8700562 -0.55928773 0 0 0 0 8.6653576
-5.8203382 -7.785861 -0.33451372 0 0 0 0 8.6703053
-5.3372955 -8.2301435 -1.0387361 0 0 0 0 8.675251
-5.4557676 -8.1439772 -0.78500581 0 0 0 0 8.6801987
-5.5700812 -8.0607071 -0.56426525 0 0 0 0 8.6851463
-5.6843772 -7.9754405 -0.34251502 0 0 0 0 8.6900921
-5.1886001 -8.4379139 -1.0367489 0 0 0 0 8.6950397
-5.3139844 -8.3456554 -0.78603059 0 0 0 0 8.6999855
-5.4384098 -8.27425 -0.56940341 0 0 0 0 8.7049332
-5.5525613 -8.1779699 -0.35060123 0 0 0 0 8.7098808
-5.0450382 -8.6586142 -1.0368525 0 0 0 0 8.7148266
-5.176403 -8.5662727 -0.7891683 0 0 0 0 8.7197742
-5.2935762 -8.4739408 -0.57440192 0 0 0 0 8.7247219
-5.4066119 -8.3696547 -0.35955608 0 0 0 0 8.7296677
-4.8954673 -8.8783846 -1.0359178 0 0 0 0 8.7346153
-5.0206313 -8.7701006 -0.79112357 0 0 0 0 8.739563
-5.1437283 -8.6726856 -0.57936805 0 0 0 0 8.7445087
-5.2719049 -8.5832052 -0.36967832 0 0 0 0 8.7494564
-4.7379169 -9.1002455 -1.0349474 0 0 0 0 8.7544041
-4.8720441 -8.990839 -0.79419988 0 0 0 0 8.7593498
-4.9960823 -8.8903961 -0.5864355 0 0 0 0 8.7642975
-5.1250577 -8.7848911 -0.37967628 0 0 0 0 8.7692451
-4.583539 -9.3380632 -1.0350702 0 0 0 0 8.7741909
-4.7165108 -9.2166557 -0.79726028 0 0 0 0 8.7791386
-4.8423371 -9.0991774 -0.59242755 0 0 0 0 8.7840862
-4.9702425 -8.9896669 -0.38964328 0 0 0 0 8.789032
-4.4190903 -9.5699921 -1.0351083 0 0 0 0 8.7939796
-4.5651622 -9.4594183 -0.80142415 0 0 0 0 8.7989273
-4.6857648 -9.3239851 -0.59947807 0 0 0 0 8.8038731
-4.8236108 -9.2113419 -0.40073681 0 0 0 0 8.8088207
-4.2528024 -9.8169374 -1.0362064 0 0 0 0 8.8137684
-4.3924689 -9.6714296 -0.80332375 0 0 0 0 8.8187141
-4.5251613 -9.5468311 -0.60749751 0 0 0 0 8.8236618
-4.6670055 -9.4361238 -0.41278788 0 0 0 0 8.8286076
-4.079483 -10.060964 -1.0362513 0 0 0 0 8.8335552
-4.2271881 -9.9213419 -0.80844206 0 0 0 0 8.8385029
-4.367815 -9.7926388 -0.61564255 0 0 0 0 8.8434486
-4.5074086 -9.6619387 -0.42482758 0 0 0 0 8.8483963
-3.9022963 -10.318023 -1.0383352 0 0 0 0 8.853344
-4.0579309 -10.174292 -0.81455255 0 0 0 0 8.8582897
-4.1983471 -10.028577 -0.62467325 0 0 0 0 8.8632374
-4.3418312 -9.8898182 -0.4368434 0 0 0 0 8.868185
-3.7151463 -10.578197 -1.0393771 0 0 0 0 8.8731308
-3.8776145 -10.421375 -0.81857336 0 0 0 0 8.8780785
-4.0260916 -10.283545 -0.63377655 0 0 0 0 8.8830261
-4.1754088 -10.132696 -0.45092458 0 0 0 0 8.8879719
-3.527168 -10.854374 -1.0414891 0 0 0 0 8.8929195
-3.6956291 -10.699461 -0.82572836 0 0 0 0 8.8978672
-3.8437018 -10.52762 -0.64377266 0 0 0 0 8.902813
-3.9959614 -10.37372 -0.46492329 0 0 0 0 8.9077606
-3.2471693 -10.853687 -1.0187999 0 0 0 0 8.9127083
-3.501436 -10.958692 -0.8307277 0 0 0 0 8.917654
-3.6565585 -10.793748 -0.65384406 0 0 0 0 8.9226017
-3.8207653 -10.63769 -0.48005328 0 0 0 0 8.9275494
-2.9077432 -10.629748 -0.97574675 0 0 0 0 8.9324951
-3.1631258 -10.752672 -0.80276239 0 0 0 0 8.9374428
-3.4280934 -10.94136 -0.65813488 0 0 0 0 8.9423885
-3.6335716 -10.902787 -0.49612063 0 0 0 0 8.9473362
-2.5193834 -10.137433 -0.91218537 0 0 0 0 8.9522839
-2.8348002 -10.545528 -0.77585453 0 0 0 0 8.9572296
-3.0812399 -10.692384 -0.63992727 0 0 0 0 8.9621773
-3.3449209 -10.858069 -0.49918464 0 0 0 0 8.9671249
-2.1978822 -9.816288 -0.86580068 0 0 0 0 8.9720707
-2.4291933 -9.9483471 -0.72271836 0 0 0 0 8.9770184
-2.7598464 -10.485102 -0.6250627 0 0 0 0 8.981966
-3.0112481 -10.631876 -0.49516168 0 0 0 0 8.9869118
-1.9188474 -9.629612 -0.83128178 0 0 0 0 8.9918594
-2.1429584 -9.7497025 -0.69910234 0 0 0 0 8.9968071
-2.3621573 -9.8887472 -0.58898133 0 0 0 0 9.0017529
-2.6269021 -10.164285 -0.47974646 0 0 0 0 9.0067005
-1.6378144 -9.3519716 -0.79133874 0 0 0 0 9.0116482
-1.8678554 -9.5629225 -0.67660898 0 0 0 0 9.0165939
-2.0830524 -9.7069683 -0.57648706 0 0 0 0 9.0215416
-2.3051412 -9.8389587 -0.47134855 0 0 0 0 9.0264893
-1.3924209 -9.2248755 -0.76429445 0 0 0 0 9.031435
-1.5939076 -9.2991381 -0.64977372 0 0 0 0 9.0363827
-1.8097633 -9.5081205 -0.56295216 0 0 0 0 9.0413303
-2.0320587 -9.6640606 -0.46892363 0 0 0 0 9.0462761
-1.1800251 -9.2813463 -0.75228339 0 0 0 0 9.0512238
-1.3611338 -9.2338343 -0.6370874 0 0 0 0 9.0561695
-1.5429688 -9.2632017 -0.54724765 0 0 0 0 9.0611172
-1.7542516 -9.4232225 -0.46317387 0 0 0 0 9.0660648
-0.95725709 -9.2792892 -0.73481351 0 0 0 0 9.9218922
-1.1426021 -9.25875 -0.62771583 0 0 0 0 9.9268379
-1.3181288 -9.2662153 -0.54369068 0 0 0 0 9.9317856
-1.4983211 -9.2426338 -0.4585506 0 0 0 0 9.9367332
-0.93008846 -9.3101082 -0.62273949 0 0 0 0 9.9466267
-1.1009698 -9.2606058 -0.54243213 0 0 0 0 9.9515743
-1.2857246 -9.2929363 -0.46656784 0 0 0 0 9.9565201
-1.0674615 -9.2813034 -0.47227827 0 0 0 0 9.9763088
0.12618303 -9.1545048 -0.65313268 0 0 0 0 10.020832
0.33405796 -8.9798698 -0.62818033 0 0 0 0 10.040619
0.15265702 -9.2711077 -0.58545822 0 0 0 0 10.045567
-0.02167468 -9.1874189 -0.53801352 0 0 0 0 10.050514
0.53107268 -8.7921133 -0.60323101 0 0 0 0 10.060408
0.36090702 -9.0654411 -0.56736672 0 0 0 0 10.065355
0.010362484 -9.1769276 -0.50273812 0 0 0 0 10.075249
0.71556449 -8.5592232 -0.57614994 0 0 0 0 10.080196
0.55632353 -8.8436356 -0.54827541 0 0 0 0 10.085142
0.89994901 -8.4313021 -0.55654365 0 0 0 0 10.099983
0.74724764 -8.6687613 -0.53342217 0 0 0 0 10.104931
0.59307945 -8.8631496 -0.52211517 0 0 0 0 10.109877
1.0842882 -8.3073778 -0.53695822 0 0 0 0 10.119772
0.92007774 -8.4077063 -0.51328295 0 0 0 0 10.124718
0.78416491 -8.6762466 -0.5132094 0 0 0 0 10.129665
0.6242215 -8.8535404 -0.50885534 0 0 0 0 10.134613
1.2615393 -8.1923647 -0.51945376 0 0 0 0 10.139559
1.1024809 -8.2817221 -0.50170082 0 0 0 0 10.144506
0.9572258 -8.3971596 -0.4999904 0 0 0 0 10.149454
0.81444055 -8.6575947 -0.50691605 0 0 0 0 10.1544
1.4348977 -8.0673065 -0.50192785 0 0 0 0 10.159348
1.2806385 -8.1786861 -0.49124712 0 0 0 0 10.164295
1.1357687 -8.2611036 -0.49438602 0 0 0 0 10.169241
0.98376411 -8.3564415 -0.49862057 0 0 0 0 10.174189
1.6050537 -7.961206 -0.48550668 0 0 0 0 10.179136
1.4540223 -8.054594 -0.48072737 0 0 0 0 10.184082
1.3120657 -8.1480179 -0.48989934 0 0 0 0 10.18903
1.166958 -8.2563992 -0.50115466 0 0 0 0 10.193977
1.7742409 -7.8520923 -0.46907976 0 0 0 0 10.198923
1.6213939 -7.9314332 -0.47024667 0 0 0 0 10.203871
1.4883069 -8.0399275 -0.48543796 0 0 0 0 10.208817
1.3433183 -8.1402836 -0.5026561 0 0 0 0 10.213764
1.9344596 -7.7398782 -0.4526895 0 0 0 0 10.218712
1.7904767 -7.8352857 -0.46088022 0 0 0 0 10.223658
1.6575847 -7.9287553 -0.48200268 0 0 0 0 10.228605
1.5157043 -8.0221186 -0.50517225 0 0 0 0 10.233553
2.0966008 -7.635674 -0.43832728 0 0 0 0 10.238499
1.9536935 -7.7270665 -0.45249364 0 0 0 0 10.243446
1.8248501 -7.8185577 -0.47858503 0 0 0 0 10.248394
1.6880126 -7.9109492 -0.50772274 0 0 0 0 10.25334
2.2567081 -7.5344458 -0.42399168 0 0 0 0 10.258287
2.1178386 -7.6248598 -0.44313145 0 0 0 0 10.263235
1.9880925 -7.7103143 -0.47520012 0 0 0 0 10.268181
1.8601894 -7.8117771 -0.51033014 0 0 0 0 10.273129
2.4138303 -7.4311862 -0.40866527 0 0 0 0 10.278076
2.2760637 -7.5155816 -0.43477169 0 0 0 0 10.283022
2.1513979 -7.5960689 -0.47179049 0 0 0 0 10.28797
2.0235271 -7.697505 -0.51291966 0 0 0 0 10.292917
1.9115493 -5.467092 -0.30253842 0 0 0 0 10.297863
2.4341948 -7.4152951 -0.42745498 0 0 0 0 10.302811
2.3125181 -7.4997888 -0.47047532 0 0 0 0 10.307758
2.1906526 -7.6032681 -0.51658106 0 0 0 0 10.312704
1.9806098 -5.2748771 -0.28728715 0 0 0 0 10.317652
1.9249114 -5.4491348 -0.32035658 0 0 0 0 10.322598
2.47261 -7.4054999 -0.46817684 0 0 0 0 10.327545
2.3479979 -7.487927 -0.51920265 0 0 0 0 10.332493
2.8672273 -7.1201763 -0.36779034 0 0 0 0 10.337439
1.9939803 -5.2579012 -0.30911085 0 0 0 0 10.342386
1.9513623 -5.4312415 -0.35510617 0 0 0 0 10.347334
2.5023201 -7.3745499 -0.52185148 0 0 0 0 10.35228
2.5154657 -5.8655772 -0.30203575 0 0 0 0 10.357227
2.8965273 -7.1192918 -0.40560478 0 0 0 0 10.362175
2.017472 -5.2369661 -0.34586379 0 0 0 0 10.367121
1.9719142 -5.4082441 -0.39886498 0 0 0 0 10.372068
2.6237419 -5.7477684 -0.28991401 0 0 0 0 10.377016
2.3708177 -5.4758968 -0.31803772 0 0 0 0 10.381962
2.2425106 -5.4333124 -0.36152345 0 0 0 0 10.386909
2.0994892 -5.3635736 -0.40396562 0 0 0 0 10.391857
2.6645706 -5.5055251 -0.27285334 0 0 0 0 10.143141
2.4859803 -5.3953943 -0.31231606 0 0 0 0 10.148088
2.3107634 -5.2522869 -0.35461247 0 0 0 0 10.153036
2.1863537 -5.2217145 -0.40213978 0 0 0 0 10.157982
2.445365 -4.7742438 -0.23573387 0 0 0 0 10.16293
2.6801398 -5.4814663 -0.31663793 0 0 0 0 10.167877
2.4793787 -5.2970705 -0.36088604 0 0 0 0 10.172823
3.1280346 -6.9864058 -0.53896952 0 0 0 0 10.177771
2.5225892 -4.6620979 -0.22579685 0 0 0 0 10.182718
2.4853668 -4.8024502 -0.28062147 0 0 0 0 10.187664
2.6794508 -5.3941779 -0.37122726 0 0 0 0 10.192612
2.535404 -5.334352 -0.42772812 0 0 0 0 10.197559
2.5968444 -4.5469189 -0.21586353 0 0 0 0 10.202505
2.5813015 -4.7194853 -0.27571598 0 0 0 0 10.207453
2.5404532 -4.8297567 -0.33942509 0 0 0 0 10.212399
2.7169924 -5.3852406 -0.44096321 0 0 0 0 10.217346
2.7909133 -4.638011 -0.21421337 0 0 0 0 10.222294
2.6615009 -4.611352 -0.26978359 0 0 0 0 10.22724
2.6492069 -4.7659078 -0.33953792 0 0 0 0 10.232187
2.6554141 -4.9716215 -0.41942221 0 0 0 0 10.237135
2.9703906 -4.6909456 -0.21147269 0 0 0 0 10.242081
2.7829549 -4.5736537 -0.26694718 0 0 0 0 10.247028
2.7098231 -4.6195545 -0.33454049 0 0 0 0 10.251976
3.6973438 -6.5323644 -0.55281937 0 0 0 0 10.256922
4.1678839 -6.2537308 -0.26404971 0 0 0 0 10.261869
3.0106986 -4.6990714 -0.27327445 0 0 0 0 10.266817
3.9702868 -6.404717 -0.45677814 0 0 0 0 10.271763
3.5869277 -6.0072412 -0.52304524 0 0 0 0 10.276711
3.0676384 -4.3910213 -0.19057952 0 0 0 0 10.281658
4.208621 -6.2367253 -0.35274389 0 0 0 0 10.286604
3.0611656 -4.6992431 -0.34898746 0 0 0 0 10.291552
3.5941787 -5.7063265 -0.51064664 0 0 0 0 10.296499
4.4480672 -6.0557647 -0.24364838 0 0 0 0 10.301445
3.1011207 -4.3850489 -0.25735667 0 0 0 0 10.306393
4.2152629 -6.141293 -0.45327029 0 0 0 0 10.31134
4.1920214 -6.3174901 -0.57618111 0 0 0 0 10.316286
4.2250953 -5.4894047 -0.21729517 0 0 0 0 10.321234
4.1467152 -5.5750971 -0.31909478 0 0 0 0 10.32618
4.3570399 -5.4038272 -0.20820148 0 0 0 0 10.341021
4.2728052 -5.4784336 -0.31498238 0 0 0 0 10.345968
4.1473489 -5.4805918 -0.42165858 0 0 0 0 10.350916
4.4662967 -5.2890019 -0.19909969 0 0 0 0 10.360809
4.3949475 -5.3767252 -0.31087044 0 0 0 0 10.365757
4.2814031 -5.3889952 -0.42152807 0 0 0 0 10.370703
3.6299286 -4.7127032 -0.47196513 0 0 0 0 10.37565
4.6150494 -5.2215977 -0.19100185 0 0 0 0 10.380598
4.0991549 -4.7896042 -0.28080997 0 0 0 0 10.385544
4.0203004 -4.8292651 -0.38840491 0 0 0 0 10.390491
3.6451514 -4.5078554 -0.46495822 0 0 0 0 10.395439
4.7579083 -5.1441269 -0.18289244 0 0 0 0 10.400385
4.6155205 -5.1450558 -0.30065176 0 0 0 0 10.405333
4.0543065 -4.6446171 -0.38139126 0 0 0 0 10.41028
3.6642256 -4.3170452 -0.45899442 0 0 0 0 10.415226
5.2282619 -5.3991508 -0.18453509 0 0 0 0 10.420174
4.7317333 -5.0362773 -0.29654524 0 0 0 0 10.425121
4.0763488 -4.4568353 -0.37542799 0 0 0 0 10.430067
3.6505408 -4.1018949 -0.45009616 0 0 0 0 10.435015
4.8259797 -4.7658548 -0.16083455 0 0 0 0 10.439962
4.1591935 -4.2312231 -0.25597543 0 0 0 0 10.444908
4.1210914 -4.2972941 -0.3704716 0 0 0 0 10.449856
3.650605 -3.9108841 -0.44323343 0 0 0 0 10.454802
4.2241931 -3.9904222 -0.13555078 0 0 0 0 10.459749
4.1473675 -4.029089 -0.24712905 0 0 0 0 10.464697
4.0934644 -4.0759945 -0.36062288 0 0 0 0 10.469643
3.6545265 -3.7329159 -0.43640915 0 0 0 0 10.47459
4.4281411 -3.9985969 -0.13050461 0 0 0 0 10.479538
4.0726671 -3.8707645 -0.35181019 0 0 0 0 10.489431
3.6514187 -3.5578675 -0.43063554 0 0 0 0 10.494379
5.1178069 -4.4139519 -0.13571645 0 0 0 0 10.499325
4.0775328 -3.6978028 -0.34500653 0 0 0 0 10.50922
3.6551685 -3.3958936 -0.42488462 0 0 0 0 10.514166
4.6172471 -3.8055983 -0.11663891 0 0 0 0 10.519114
4.574223 -3.8705585 -0.24415587 0 0 0 0 10.524061
4.0852938 -3.5348682 -0.33923295 0 0 0 0 10.529007
3.6707437 -3.2510381 -0.42114836 0 0 0 0 10.533955
5.1318293 -4.0390778 -0.11697015 0 0 0 0 10.538902
4.5929899 -3.706742 -0.23732369 0 0 0 0 10.543848
4.0850635 -3.3708477 -0.33349714 0 0 0 0 10.548796
3.6743817 -3.1000543 -0.41744819 0 0 0 0 10.553743
4.2626452 -3.2037919 -0.094813764 0 0 0 0 10.558689
4.2803006 -3.2964275 -0.21713436 0 0 0 0 10.563637
4.0946751 -3.2219286 -0.32877746 0 0 0 0 10.568583
3.6918185 -2.9682143 -0.41476139 0 0 0 0 10.57353
4.168942 -2.988776 -0.087343156 0 0 0 0 10.578478
4.2888741 -3.1505003 -0.21143499 0 0 0 0 10.583424
4.2045078 -3.1500494 -0.33187613 0 0 0 0 10.588371
3.6873832 -2.8231487 -0.41013092 0 0 0 0 10.593319
5.0819178 -3.4704955 -0.091699697 0 0 0 0 10.598265
4.2239518 -2.9557941 -0.203904 0 0 0 0 10.603212
4.1822777 -2.9847972 -0.32525215 0 0 0 0 10.60816
3.6858811 -2.6841145 -0.40551239 0 0 0 0 10.613106
5.2151375 -3.3954935 -0.085671589 0 0 0 0 10.339142
4.4126382 -2.940263 -0.20590685 0 0 0 0 10.344088
4.1842933 -2.8422694 -0.32068419 0 0 0 0 10.349035
3.6798494 -2.5494454 -0.40105683 0 0 0 0 10.353983
4.5264544 -2.8684521 -0.20497778 0 0 0 0 10.363876
4.1073332 -2.6514373 -0.31123507 0 0 0 0 10.368824
3.6722889 -2.4173419 -0.397499 0 0 0 0 10.37377
4.5339556 -2.7305079 -0.20031893 0 0 0 0 10.383665
4.112762 -2.5204701 -0.30761614 0 0 0 0 10.388611
3.6716506 -2.2923133 -0.39393637 0 0 0 0 10.393559
4.6944022 -2.6248271 -0.060991969 0 0 0 0 10.398506
4.6358995 -2.6465654 -0.19940147 0 0 0 0 10.403452
4.1440034 -2.4077728 -0.30594257 0 0 0 0 10.4084
3.6789293 -2.1753662 -0.39136833 0 0 0 0 10.413347
5.2278862 -2.7715399 -0.058821455 0 0 0 0 10.418293
4.6254463 -2.5034313 -0.19381607 0 0 0 0 10.423241
4.1075978 -2.2593677 -0.29946822 0 0 0 0 10.428188
3.6891463 -2.064446 -0.38981217 0 0 0 0 10.433134
5.252367 -2.6347771 -0.053083554 0 0 0 0 10.438082
4.615953 -2.3643034 -0.18924385 0 0 0 0 10.443029
4.1178856 -2.141449 -0.29688326 0 0 0 0 10.447975
3.6824386 -1.9453522 -0.38630942 0 0 0 0 10.452923
5.245966 -2.486681 -0.047458943 0 0 0 0 10.457869
4.6303215 -2.2384279 -0.18560514 0 0 0 0 10.462816
4.1181884 -2.0214269 -0.29334208 0 0 0 0 10.467764
3.6895988 -1.8393993 -0.38479242 0 0 0 0 10.47271
5.2494769 -2.3466918 -0.041818611 0 0 0 0 10.477657
4.6207757 -2.1042955 -0.18205632 0 0 0 0 10.482605
4.1154838 -1.9023682 -0.29082152 0 0 0 0 10.487551
3.6907902 -1.7303822 -0.38329369 0 0 0 0 10.492498
5.2658982 -2.2148418 -0.036147062 0 0 0 0 10.497446
4.6161475 -1.9772204 -0.17751333 0 0 0 0 10.502392
4.1237125 -1.7894273 -0.28827101 0 0 0 0 10.507339
3.6799912 -1.6192452 -0.37984893 0 0 0 0 10.512287
5.1986709 -2.0500884 -0.031769689 0 0 0 0 10.517233
4.6364188 -1.8604041 -0.17488553 0 0 0 0 10.522181
4.1149893 -1.6713086 -0.28478703 0 0 0 0 10.527128
3.6751633 -1.5111681 -0.37738669 0 0 0 0 10.532074
5.3007131 -1.9541533 -0.026809042 0 0 0 0 10.537022
4.6297703 -1.735303 -0.17136286 0 0 0 0 10.541969
4.1092153 -1.5582174 -0.28231025 0 0 0 0 10.546915
3.6862364 -1.4132528 -0.37688655 0 0 0 0 10.551863
5.2762437 -1.8118596 -0.022307608 0 0 0 0 10.55681
4.6410279 -1.6193899 -0.16878749 0 0 0 0 10.561756
4.1213684 -1.4523143 -0.28077176 0 0 0 0 10.566704
3.6893032 -1.3152561 -0.37542844 0 0 0 0 10.57165
5.2836199 -1.6839076 -0.01770323 0 0 0 0 10.576597
4.6492839 -1.5034443 -0.16622826 0 0 0 0 10.581545
4.1324883 -1.3493998 -0.27925253 0 0 0 0 10.586491
3.6774282 -1.2111039 -0.37302157 0 0 0 0 10.591438
5.3208904 -1.5662713 -0.013988792 0 0 0 0 10.596386
4.6425447 -1.3863428 -0.16274284 0 0 0 0 10.601332
4.1176882 -1.2382123 -0.27683255 0 0 0 0 10.606279
3.6854539 -1.1171561 -0.37255624 0 0 0 0 10.611227
5.3112903 -1.4361329 -0.010464709 0 0 0 0 10.616173
4.6228518 -1.2650983 -0.16030703 0 0 0 0 10.62112
4.1148276 -1.1331484 -0.2753776 0 0 0 0 10.626068
3.7074449 -1.0273485 -0.37403682 0 0 0 0 10.631014
5.3306065 -1.3142993 -0.0078268861 0 0 0 0 10.635962
4.6440053 -1.1582909 -0.15772231 0 0 0 0 10.640909
4.1119485 -1.0290889 -0.27292752 0 0 0 0 10.645855
2.8562996 -0.71759444 -0.29409412 0 0 0 0 10.650803
5.3249812 -1.1862036 -0.0042919721 0 0 0 0 10.65575
4.6302662 -1.0411104 -0.15527409 0 0 0 0 10.660696
4.1240354 -0.92918015 -0.27241826 0 0 0 0 10.665644
2.9209638 -0.66023165 -0.29949242 0 0 0 0 10.670591
5.3272996 -1.063193 -0.00073861296 0 0 0 0 10.675537
4.6324492 -0.93110031 -0.152775 0 0 0 0 10.680485
3.1398666 -0.63092291 -0.21421367 0 0 0 0 10.685431
2.9896638 -0.59990621 -0.30585766 0 0 0 0 10.690378
5.3136392 -0.93801183 0.002740795 0 0 0 0 10.695326
4.6406145 -0.82314938 -0.15125437 0 0 0 0 10.700272
3.1946051 -0.56446868 -0.21562603 0 0 0 0 10.705219
3.100333 -0.54401332 -0.31502554 0 0 0 0 10.710167
5.3299155 -0.8191455 0.005347461 0 0 0 0 10.715113
4.6817384 -0.71954489 -0.15058233 0 0 0 0 10.72006
3.3132899 -0.50567186 -0.22174136 0 0 0 0 10.725008
5.3152299 -0.69595379 0.0088120364 0 0 0 0 10.734901
3.5682294 -0.46580547 -0.12123462 0 0 0 0 10.739849
3.4360266 -0.44191611 -0.22781543 0 0 0 0 10.744795
5.2955475 -0.57270473 0.011250705 0 0 0 0 10.75469
3.6380551 -0.3905108 -0.12153394 0 0 0 0 10.759636
3.5828025 -0.37540475 -0.23575462 0 0 0 0 10.764584
3.7548866 -0.31570524 -0.12359339 0 0 0 0 10.779425
4.1068544 -0.25998431 0.00547875 0 0 0 0 10.794266
3.9357388 -0.2395726 -0.12631787 0 0 0 0 10.799213
4.2085648 -0.17345876 0.0083762957 0 0 0 0 10.568016
4.1444516 -0.15813778 -0.13089465 0 0 0 0 10.572964
4.3505549 -0.081948221 0.011527351 0 0 0 0 10.587805
4.4844842 -0.068696469 -0.13771628 0 0 0 0 10.592751
4.5336046 0.015125959 0.014915721 0 0 0 0 10.607592
4.6566286 0.034522694 -0.14035898 0 0 0 0 10.612539
4.733737 0.12002099 0.018425373 0 0 0 0 10.62738
4.7408209 0.14367515 -0.14143711 0 0 0 0 10.632328
5.0710549 0.24245137 0.023725646 0 0 0 0 10.647169
4.6469126 0.24670668 -0.13847259 0 0 0 0 10.652115
5.2914486 0.37213901 0.02744413 0 0 0 0 10.666956
4.5639853 0.347624 -0.13645941 0 0 0 0 10.671904
5.4048266 0.50097066 0.030598633 0 0 0 0 10.686745
4.5601201 0.4537023 -0.13501135 0 0 0 0 10.691692
5.3991194 0.62207633 0.032097988 0 0 0 0 10.706532
4.5562477 0.55878508 -0.13456808 0 0 0 0 10.711479
5.2261682 0.71996939 0.030625852 0 0 0 0 10.72632
4.5403643 0.66299552 -0.13419133 0 0 0 0 10.731268
5.2184372 0.83909488 0.032106347 0 0 0 0 10.746109
4.5304785 0.76714188 -0.13378394 0 0 0 0 10.751055
2.7876513 0.53032833 -0.29086575 0 0 0 0 10.76095
5.255775 0.96474177 0.033848807 0 0 0 0 10.765896
4.540658 0.87707967 -0.13424729 0 0 0 0 10.770844
2.7482953 0.59175771 -0.28778863 0 0 0 0 10.780737
5.2199941 1.0791694 0.03416248 0 0 0 0 10.785685
4.5348005 0.98418319 -0.13380659 0 0 0 0 10.790632
2.8013427 0.64178336 -0.19128415 0 0 0 0 10.795578
2.733005 0.65794474 -0.28756589 0 0 0 0 10.800526
5.1912212 1.1945221 0.034516502 0 0 0 0 10.805473
4.5199313 1.0903822 -0.13341671 0 0 0 0 10.810419
3.9826794 1.009631 -0.25855127 0 0 0 0 10.815367
2.7086878 0.72222269 -0.2863982 0 0 0 0 10.820314
5.1905298 1.3175772 0.035049446 0 0 0 0 10.82526
4.4940186 1.1926979 -0.13310117 0 0 0 0 10.830208
3.9646919 1.1048578 -0.25822264 0 0 0 0 10.835154
2.7315404 0.80002344 -0.28992754 0 0 0 0 10.840101
5.190846 1.4416214 0.035591535 0 0 0 0 10.845049
4.4871926 1.3028158 -0.13365285 0 0 0 0 10.849995
3.9627542 1.2039233 -0.25979453 0 0 0 0 10.854942
2.7232831 0.86914009 -0.290656 0 0 0 0 10.85989
5.1811509 1.5647717 0.036077712 0 0 0 0 10.864836
4.504437 1.419679 -0.13405119 0 0 0 0 10.869783
3.9457951 1.3021388 -0.25944772 0 0 0 0 10.874731
5.18049 1.6908308 0.035622846 0 0 0 0 10.884624
4.4845982 1.5289344 -0.13467431 0 0 0 0 10.889572
3.2450125 1.1563802 -0.22069056 0 0 0 0 10.894518
3.1588166 1.1778082 -0.33504006 0 0 0 0 10.899466
5.1648016 1.8150442 0.036082271 0 0 0 0 10.904413
3.5520384 1.3026929 -0.11346276 0 0 0 0 10.909359
3.1917181 1.223963 -0.21866086 0 0 0 0 10.914307
3.1436813 1.2590011 -0.33575404 0 0 0 0 10.919254
4.0919256 1.5424387 0.021368776 0 0 0 0 10.9242
3.3481584 1.3168522 -0.10944274 0 0 0 0 10.929148
3.1906343 1.3100083 -0.21928173 0 0 0 0 10.934095
2.8029077 1.2024724 -0.30474326 0 0 0 0 10.939041
3.9444191 1.5890349 0.019817589 0 0 0 0 10.943989
3.6002662 1.5112684 -0.11629068 0 0 0 0 10.948935
3.8900573 1.7038884 -0.26196069 0 0 0 0 10.953882
2.7585473 1.2639563 -0.30269152 0 0 0 0 10.95883
4.1484237 1.7789198 0.022698108 0 0 0 0 10.963776
4.4223275 1.9757729 -0.13703743 0 0 0 0 10.968723
3.8751423 1.8060901 -0.26358664 0 0 0 0 10.973671
2.7131493 1.3224456 -0.29965785 0 0 0 0 10.978617
4.4055424 2.0909948 -0.13761942 0 0 0 0 10.988512
3.8823872 1.9230633 -0.26603451 0 0 0 0 10.993458
2.7130196 1.4034854 -0.3022936 0 0 0 0 10.998405
5.1538873 2.4864202 0.033942055 0 0 0 0 11.003353
4.3917971 2.2101846 -0.13816862 0 0 0 0 11.008299
3.8755524 2.0331798 -0.26758486 0 0 0 0 11.013247
2.7421069 1.5042275 -0.30669388 0 0 0 0 11.018194
4.3830857 2.3323257 -0.13967942 0 0 0 0 11.028088
3.8426023 2.1335618 -0.26731133 0 0 0 0 11.033035
2.7742441 1.6089473 -0.31306189 0 0 0 0 11.037981
4.3761964 2.460227 -0.14139307 0 0 0 0 12.054546
3.852752 2.2600625 -0.27075356 0 0 0 0 12.059494
2.7974055 1.7148759 -0.31813136 0 0 0 0 12.06444
5.3995752 3.069217 0.034104735 0 0 0 0 12.069387
4.3524218 2.5815158 -0.14298785 0 0 0 0 12.074335
2.8195157 1.8227012 -0.3225548 0 0 0 0 12.084229
5.1939764 3.1093485 0.03028808 0 0 0 0 12.089176
4.3387046 2.708703 -0.14450955 0 0 0 0 12.094122
2.8447039 1.9375048 -0.32893419 0 0 0 0 12.104017
5.0426202 3.1739268 0.027836783 0 0 0 0 12.108963
4.6824689 3.0753546 -0.15630344 0 0 0 0 12.113911
2.9440336 2.0200582 -0.2211006 0 0 0 0 12.118858
2.8729603 2.0592778 -0.33526975 0 0 0 0 12.123804
4.8328495 3.197094 0.023931837 0 0 0 0 12.128752
4.5682354 3.1535406 -0.15551575 0 0 0 0 12.133698
2.9652553 2.1398902 -0.22447884 0 0 0 0 12.138645
2.9557116 2.2275314 -0.34714794 0 0 0 0 12.143593
4.5575104 3.1639147 0.019476414 0 0 0 0 12.148539
4.3370953 3.1438801 -0.15165833 0 0 0 0 12.153486
3.0066841 2.2795291 -0.22967696 0 0 0 0 12.158434
3.2654955 2.5846326 -0.38514161 0 0 0 0 12.16338
4.2921305 3.1266308 0.015054028 0 0 0 0 12.168327
3.9153492 2.9780946 -0.14237064 0 0 0 0 12.173275
3.1147263 2.4775274 -0.2403103 0 0 0 0 12.178221
3.26985 2.7176461 -0.39054665 0 0 0 0 12.183168
3.9610934 3.0239992 0.01004397 0 0 0 0 12.188116
3.2947366 2.6302574 -0.12679876 0 0 0 0 12.193062
3.295526 2.7488217 -0.2552872 0 0 0 0 12.198009
3.2369308 2.8260112 -0.39123395 0 0 0 0 12.202957
3.711544 2.9695466 0.0056299381 0 0 0 0 12.207903
3.4089901 2.8521764 -0.13230412 0 0 0 0 12.212851
3.668272 3.2062747 -0.28556272 0 0 0 0 12.217798
3.2201734 2.9492269 -0.39478129 0 0 0 0 12.222744
4.224648 3.6982164 -0.16082756 0 0 0 0 12.232639
3.645617 3.340549 -0.28809375 0 0 0 0 12.237585
3.2044683 3.0774364 -0.39930245 0 0 0 0 12.242533
3.61796 3.4748735 -0.29064825 0 0 0 0 12.257374
3.1756978 3.2007632 -0.40090615 0 0 0 0 12.26232
3.5923755 3.6161811 -0.29416314 0 0 0 0 12.277161
3.1337965 3.3112204 -0.40262678 0 0 0 0 12.282108
4.1655364 4.1869807 -0.17102417 0 0 0 0 12.292002
3.5658183 3.7604983 -0.29766989 0 0 0 0 12.296949
3.1152451 3.4554577 -0.40709293 0 0 0 0 12.301897
4.9899063 5.0020685 0.0043339697 0 0 0 0 12.306843
3.554502 3.928668 -0.30200309 0 0 0 0 12.316738
3.0906518 3.5957551 -0.41160452 0 0 0 0 12.321684
4.8234839 5.0607953 -0.0012056164 0 0 0 0 12.326632
3.5230401 4.0830336 -0.30549014 0 0 0 0 12.336525
3.0661459 3.7450514 -0.41607729 0 0 0 0 12.341473
4.6438284 5.0966458 -0.0059031891 0 0 0 0 12.34642
4.3236251 4.9926429 -0.19185078 0 0 0 0 12.351366
3.4865859 4.2384481 -0.30899608 0 0 0 0 12.356314
3.0193961 3.8715556 -0.4177517 0 0 0 0 12.361261
4.3882699 5.0422463 -0.011339542 0 0 0 0 12.366207
4.1032863 4.9638557 -0.18901032 0 0 0 0 12.371155
3.4734898 4.4286442 -0.31524423 0 0 0 0 12.376101
3.000123 4.0438085 -0.42410198 0 0 0 0 12.381048
4.1578407 5.0005927 -0.01660078 0 0 0 0 12.385996
3.9780889 5.047143 -0.1902438 0 0 0 0 12.390942
3.6622999 4.9019227 -0.33834058 0 0 0 0 12.395889
2.9666998 4.2021923 -0.42857781 0 0 0 0 12.400837
3.9566839 4.9866414 -0.020604094 0 0 0 0 12.405783
3.7859464 5.0370779 -0.18918705 0 0 0 0 12.41073
3.4730358 4.8827953 -0.33030656 0 0 0 0 12.415678
2.9202106 4.354701 -0.43213966 0 0 0 0 12.420624
3.7736497 4.9845109 -0.02547002 0 0 0 0 12.425571
3.5562067 4.9683685 -0.18555345 0 0 0 0 12.430519
3.3831718 4.9997253 -0.33122635 0 0 0 0 12.435465
2.9520345 4.633492 -0.44779772 0 0 0 0 12.440413
3.5905266 4.9733782 -0.030372553 0 0 0 0 12.44536
3.3679016 4.9422541 -0.18354227 0 0 0 0 12.450306
3.2141137 5.000401 -0.32500988 0 0 0 0 12.455254
2.9068258 4.8139973 -0.45323449 0 0 0 0 12.460201
3.1937294 4.9290013 -0.18240814 0 0 0 0 12.470095
2.9910698 4.9045806 -0.31345382 0 0 0 0 12.475042
2.8178909 4.9249029 -0.45217118 0 0 0 0 12.479988
3.0326505 4.9246202 -0.1821733 0 0 0 0 12.489882
2.8197308 4.8772674 -0.30636272 0 0 0 0 12.494829
2.64241 4.8865981 -0.43814474 0 0 0 0 12.499777
2.889838 4.9470563 -0.18173742 0 0 0 0 12.50967
2.6553965 4.8498874 -0.30023733 0 0 0 0 12.514618
2.3963556 4.6949325 -0.41309676 0 0 0 0 12.519564
2.4852335 4.8052835 -0.29325658 0 0 0 0 12.253868
2.1697195 4.5118446 -0.390001 0 0 0 0 12.258816
2.3472242 4.8096623 -0.28888229 0 0 0 0 12.273657
1.9864703 4.3986077 -0.37234107 0 0 0 0 12.278603
4.3508959 8.1619473 -0.078082025 0 0 0 0 12.28355
3.8926427 7.8513479 -0.2705721 0 0 0 0 12.288498
4.0689888 8.0748186 -0.084791251 0 0 0 0 12.303339
3.6082864 7.7241898 -0.26646042 0 0 0 0 12.308285
3.7112336 7.8034267 -0.09064199 0 0 0 0 12.323126
3.3000672 7.5112534 -0.26082426 0 0 0 0 12.328074
2.9381764 7.2594662 -0.40260077 0 0 0 0 12.333021
2.6138265 7.0613089 -0.54497045 0 0 0 0 12.337967
3.4430704 7.6901498 -0.09739057 0 0 0 0 12.342915
3.0171585 7.3290601 -0.25493339 0 0 0 0 12.347862
2.7225502 7.206594 -0.3938379 0 0 0 0 12.352808
2.3793998 6.9335661 -0.52461332 0 0 0 0 12.357756
3.1029139 7.3785615 -0.10132134 0 0 0 0 12.362703
2.7594895 7.1696205 -0.25082302 0 0 0 0 12.367649
2.438843 6.9493465 -0.37626538 0 0 0 0 12.372597
2.1415038 6.75984 -0.50146592 0 0 0 0 12.377544
2.5334175 7.0688729 -0.24831027 0 0 0 0 12.387438
2.2072287 6.7986054 -0.36398956 0 0 0 0 12.392384
1.9155952 6.5839949 -0.47926828 0 0 0 0 12.397331
2.0062296 6.7075758 -0.35531226 0 0 0 0 12.412172
1.7121538 6.4529419 -0.46077096 0 0 0 0 12.41712
3.2151642 9.4048414 -0.14814018 0 0 0 0 12.422066
2.5743086 9.3736458 -0.47926083 0 0 0 0 12.431961
3.0381448 9.6056862 -0.16011162 0 0 0 0 12.441854
2.677696 9.4869843 -0.32729715 0 0 0 0 12.446802
2.3184073 9.2951574 -0.46978843 0 0 0 0 12.451748
2.7608681 9.4814854 -0.16793664 0 0 0 0 12.461643
2.3823991 9.2658978 -0.32261685 0 0 0 0 12.466589
2.0254076 9.0099773 -0.45036817 0 0 0 0 12.471537
1.6752824 8.7399902 -0.57914656 0 0 0 0 12.476484
2.507072 9.4050522 -0.17644478 0 0 0 0 12.48143
2.1176972 9.1035147 -0.31953949 0 0 0 0 12.486378
1.7643396 8.815506 -0.4364078 0 0 0 0 12.491325
1.4376323 8.5902586 -0.55888331 0 0 0 0 12.496271
2.9674814 12.246925 -0.23317486 0 0 0 0 12.501219
1.531058 8.6977787 -0.4269872 0 0 0 0 12.511112
1.2144431 8.4853945 -0.54135811 0 0 0 0 12.51606
2.5678818 11.79189 -0.23697616 0 0 0 0 12.521006
1.7394971 11.417403 -0.54640716 0 0 0 0 12.530901
1.3277143 11.077053 -0.68476301 0 0 0 0 12.535847
2.2500248 11.61008 -0.2462272 0 0 0 0 12.540794
1.8137392 11.31403 -0.3975063 0 0 0 0 12.545742
1.4141005 10.994497 -0.52171469 0 0 0 0 12.550688
1.0312939 10.755831 -0.65249896 0 0 0 0 12.555635
1.9431554 11.427151 -0.25442773 0 0 0 0 12.560583
1.5153815 11.08696 -0.39385203 0 0 0 0 12.565529
1.1351808 10.815199 -0.5097633 0 0 0 0 12.570477
0.76428497 10.572362 -0.62950695 0 0 0 0 12.575424
1.9534401 17.175886 -0.59886152 0 0 0 0 12.585318
0.51342916 10.501769 -0.61395538 0 0 0 0 12.595211
1.5148351 16.829174 -0.59236747 0 0 0 0 12.605106
0.33088821 12.932234 -0.73542351 0 0 0 0 12.615
1.6856891 16.903744 -0.4162716 0 0 0 0 12.619946
1.1005683 16.515226 -0.58761549 0 0 0 0 12.624893
0.45247009 13.062437 -0.59430671 0 0 0 0 12.629841
0.031575572 13.512286 -0.75231862 0 0 0 0 12.634787
1.265823 16.622919 -0.42740318 0 0 0 0 12.639734
0.58588153 13.662737 -0.49613443 0 0 0 0 12.644682
0.153953 13.720514 -0.6178661 0 0 0 0 12.649628
-0.32270208 15.385242 -0.83695519 0 0 0 0 12.654575
0.86196518 16.341934 -0.43945602 0 0 0 0 12.659523
0.25502342 12.986874 -0.4775252 0 0 0 0 12.664469
-0.14605881 12.040036 -0.54139102 0 0 0 0 12.669416
-0.54865927 12.234507 -0.65840125 0 0 0 0 12.674364
0.38844746 13.28515 -0.37764153 0 0 0 0 12.67931
-0.046183508 12.274708 -0.45792875 0 0 0 0 12.684258
-0.47711936 13.441604 -0.59692651 0 0 0 0 12.689205
-0.83127338 12.189211 -0.64387268 0 0 0 0 12.694151
0.071959019 12.437176 -0.36969212 0 0 0 0 12.699099
-0.3681905 13.683181 -0.51239485 0 0 0 0 12.704046
-0.76792467 13.074353 -0.5788067 0 0 0 0 12.708992
-1.1230097 12.231024 -0.63401133 0 0 0 0 12.71394
-0.20887779 12.05096 -0.37270689 0 0 0 0 12.469057
-0.67333049 13.358219 -0.50726676 0 0 0 0 12.474005
-0.99459153 12.114448 -0.53507131 0 0 0 0 12.478952
-1.4916197 12.966948 -0.6577248 0 0 0 0 12.483898
-0.54607648 13.426616 -0.42837778 0 0 0 0 12.488846
-0.92744994 12.56158 -0.48383874 0 0 0 0 12.493792
-1.5589139 14.766642 -0.64233118 0 0 0 0 12.498739
-2.0045209 14.474356 -0.71763808 0 0 0 0 12.503687
-0.9402492 14.706823 -0.4837203 0 0 0 0 12.508633
-1.1872883 12.188087 -0.47662303 0 0 0 0 12.51358
-1.6595285 12.83715 -0.55902743 0 0 0 0 12.518528
-2.2275054 13.703283 -0.66794556 0 0 0 0 12.523474
-1.0586401 12.084546 -0.41746053 0 0 0 0 12.528421
-1.571277 12.991076 -0.5129503 0 0 0 0 12.533369
-2.1072562 13.768768 -0.59509683 0 0 0 0 12.538315
-1.6444471 14.794938 -0.52357286 0 0 0 0 12.54821
-2.112921 14.624801 -0.58145463 0 0 0 0 12.553156
-1.7359 12.861506 -0.47523397 0 0 0 0 12.567997
-2.3093936 13.691546 -0.55332565 0 0 0 0 12.572945
-2.1829319 13.758162 -0.52444619 0 0 0 0 12.587786
-3.7587852 13.678871 -0.5829556 0 0 0 0 12.637255
-5.1119514 12.620713 -0.53646982 0 0 0 0 12.736195
-5.0459213 12.70529 -0.59478295 0 0 0 0 12.751036
-5.6894884 11.412754 -0.43313357 0 0 0 0 12.780718
-5.6047769 11.464145 -0.49150011 0 0 0 0 12.795559
-5.9195218 11.221876 -0.41694143 0 0 0 0 12.800507
-5.5674181 11.570112 -0.57585037 0 0 0 0 12.8104
-5.8614063 11.309574 -0.48627344 0 0 0 0 12.815348
-6.1682339 11.063183 -0.4016934 0 0 0 0 12.820295
-5.8074517 11.371403 -0.57673526 0 0 0 0 12.830189
-6.0835528 11.102652 -0.47910956 0 0 0 0 12.835135
-6.3922324 10.874246 -0.38745856 0 0 0 0 12.840082
-5.7226505 11.412971 -0.67714483 0 0 0 0 12.84503
-6.0227861 11.141445 -0.57763773 0 0 0 0 12.849976
-6.3116121 10.903788 -0.47293463 0 0 0 0 12.854923
-6.6368952 10.719508 -0.37316826 0 0 0 0 12.859871
-5.9420362 11.174088 -0.68610281 0 0 0 0 12.864817
-6.2499018 10.933601 -0.57849586 0 0 0 0 12.869764
-6.5582438 10.748108 -0.46765652 0 0 0 0 12.874712
-6.8796139 10.558748 -0.3588911 0 0 0 0 12.879658
-6.1808968 10.987405 -0.69792348 0 0 0 0 12.884605
-6.4916391 10.76291 -0.58225864 0 0 0 0 12.889553
-6.8009853 10.58039 -0.46340829 0 0 0 0 12.894499
-7.1173549 10.394941 -0.34560081 0 0 0 0 12.899446
-6.4315834 10.817839 -0.71072102 0 0 0 0 12.904394
-6.7382722 10.602268 -0.58699715 0 0 0 0 12.90934
-7.0534859 10.436769 -0.46009812 0 0 0 0 12.914288
-7.3817663 10.264394 -0.33328572 0 0 0 0 12.919235
-6.6802244 10.652252 -0.72448879 0 0 0 0 12.924181
-7.004673 10.464819 -0.59272236 0 0 0 0 12.929129
-7.3188467 10.307268 -0.45678204 0 0 0 0 12.934076
-7.6491065 10.140872 -0.32095015 0 0 0 0 12.939022
-6.9379663 10.495402 -0.73885489 0 0 0 0 12.721642
-7.2544703 10.308875 -0.59807223 0 0 0 0 12.726589
-7.5687361 10.148309 -0.45316774 0 0 0 0 12.731535
-7.1797156 10.319763 -0.75264758 0 0 0 0 12.74143
-7.5169773 10.161404 -0.60383642 0 0 0 0 12.746376
-7.4480982 10.180391 -0.76840323 0 0 0 0 12.761217
-8.9272842 10.287817 -0.30059999 0 0 0 0 12.776058
-9.6378031 9.6781216 -0.26182678 0 0 0 0 12.835423
-9.8947649 9.4894505 -0.24870966 0 0 0 0 12.855211
-10.402346 9.1459188 -0.45424989 0 0 0 0 12.909628
-10.373456 9.1275759 -0.69914484 0 0 0 0 12.924469
-10.675299 8.9524269 -0.4512122 0 0 0 0 12.929415
-10.339344 9.1222725 -0.96596372 0 0 0 0 12.93931
-11.270798 8.5829878 -0.72722781 0 0 0 0 12.983833
-12.017986 8.3147764 -0.16366504 0 0 0 0 12.993727
-11.555853 8.3726397 -0.73529899 0 0 0 0 13.00362
-12.175913 8.0221157 -0.15048394 0 0 0 0 13.013514
-11.863748 8.1775188 -0.74640805 0 0 0 0 13.023409
-12.459063 7.8106537 -0.1375404 0 0 0 0 13.033302
-11.808904 8.1192198 -1.0663401 0 0 0 0 13.03825
-12.147921 7.9541526 -0.75451869 0 0 0 0 13.043196
-12.532495 7.4641719 -0.12318607 0 0 0 0 13.053091
-0.379655 -0.033744242 -0.023708835 0 0 0 0 13.459826
-0.33533227 -0.056097317 -0.054902535 0 0 0 0 13.927891
-0.37244231 -0.063796863 -0.045083482 0 0 0 0 13.932838
-0.36062714 -0.096866094 -0.058051247 0 0 0 0 14.007044
-0.40783688 -0.10953076 -0.034285676 0 0 0 0 14.016937
-0.39486092 -0.1067017 -0.021211842 0 0 0 0 14.021885
-0.36991492 -0.11693231 -0.022086306 0 0 0 0 14.06146
-0.42009142 -0.15731756 -0.063419096 0 0 0 0 14.086195
-0.44622678 -0.16613556 -0.049555946 0 0 0 0 14.091143
-0.39914724 -0.14567654 -0.02126188 0 0 0 0 14.101036
-0.36003542 -0.1528911 -0.058088414 0 0 0 0 14.125771
-0.33708784 -0.16210987 -0.056968145 0 0 0 0 14.165348
-0.43762803 -0.20534955 -0.019534893 0 0 0 0 14.180189
-0.38552257 -0.20377319 -0.033257741 0 0 0 0 14.214817
-0.41871977 -0.2195285 -0.01944997 0 0 0 0 14.219765
-0.37160054 -0.22185419 -0.046217319 0 0 0 0 14.249447
-0.39373949 -0.2317059 -0.033340119 0 0 0 0 14.254393
-7.6188998 -5.0787759 -0.77226847 0 0 0 0 14.264288
-7.6958709 -5.0413513 -0.45241669 0 0 0 0 14.269234
-7.7828598 -5.0187263 -0.16066438 0 0 0 0 14.274181
-7.8698692 -4.9971128 0.13408421 0 0 0 0 14.279129
-7.4673481 -5.2422485 -0.76418805 0 0 0 0 14.284075
-7.5764704 -5.2235179 -0.44854239 0 0 0 0 14.289022
-7.6633854 -5.1938853 -0.15876216 0 0 0 0 14.29397
-7.7463312 -5.1663003 0.13402684 0 0 0 0 14.298916
-7.3499823 -5.4283953 -0.76033878 0 0 0 0 14.303864
-7.4479952 -5.3977637 -0.44460022 0 0 0 0 14.308811
-7.5398908 -5.3670783 -0.15683627 0 0 0 0 14.313757
-7.6338434 -5.3413858 0.13390006 0 0 0 0 14.318705
-7.2296267 -5.6155701 -0.75548166 0 0 0 0 14.323652
-7.3255615 -5.5769534 -0.44070303 0 0 0 0 14.328598
-7.4264827 -5.5501785 -0.15499128 0 0 0 0 14.333546
-7.5102901 -5.5095692 0.13384534 0 0 0 0 14.338493
-7.0971737 -5.7918558 -0.74953276 0 0 0 0 14.343439
-7.1991024 -5.7541733 -0.43778223 0 0 0 0 14.348387
-7.296946 -5.7194214 -0.15302636 0 0 0 0 14.353333
-7.3958335 -5.6886687 0.13370997 0 0 0 0 14.35828
-6.969758 -5.9730902 -0.74462461 0 0 0 0 14.363228
-7.0786901 -5.9363403 -0.43390623 0 0 0 0 14.368174
-7.1704521 -5.8936357 -0.15109403 0 0 0 0 14.373121
-7.2722836 -5.8578477 0.13365005 0 0 0 0 14.378069
-6.8443937 -6.1603041 -0.73974884 0 0 0 0 14.383015
-6.9431849 -6.1086407 -0.42993039 0 0 0 0 14.387962
-7.0499768 -6.0707889 -0.15019865 0 0 0 0 14.39291
-7.147758 -6.0300336 0.1335818 0 0 0 0 14.397856
-6.7167592 -6.3408327 -0.73684347 0 0 0 0 14.163683
-6.8266158 -6.295064 -0.42809963 0 0 0 0 14.168629
-6.9334002 -6.2552056 -0.14936621 0 0 0 0 14.173576
-7.0250568 -6.2004919 0.1314888 0 0 0 0 14.178524
-6.589426 -6.5300732 -0.73196477 0 0 0 0 14.18347
-6.7022085 -6.4772701 -0.42520535 0 0 0 0 14.188417
-6.8058829 -6.4264312 -0.14841568 0 0 0 0 14.193365
-6.9166694 -6.3865404 0.13130185 0 0 0 0 14.198311
-6.4640937 -6.7202897 -0.72809893 0 0 0 0 14.203259
-6.5687351 -6.6525555 -0.42224684 0 0 0 0 14.208206
-6.6824846 -6.6106219 -0.14653361 0 0 0 0 14.213152
-6.7861032 -6.5537834 0.13028033 0 0 0 0 14.2181
-6.3286867 -6.902595 -0.72416079 0 0 0 0 14.223047
-6.4494572 -6.8497109 -0.41943353 0 0 0 0 14.227993
-6.5590611 -6.7928066 -0.14564423 0 0 0 0 14.232941
-6.6646695 -6.7359424 0.12916186 0 0 0 0 14.237888
-6.2003851 -7.0968342 -0.7202996 0 0 0 0 14.242834
-6.3190589 -7.0339646 -0.4165242 0 0 0 0 14.247782
-6.4357109 -6.9829926 -0.14378694 0 0 0 0 14.252728
-6.5392013 -6.9141393 0.12907501 0 0 0 0 14.257675
-6.0620389 -7.2861652 -0.71537805 0 0 0 0 14.262623
-6.1886935 -7.2222157 -0.41363129 0 0 0 0 14.267569
-6.3052683 -7.1642327 -0.14386597 0 0 0 0 14.272516
-6.4097347 -7.0933666 0.12800011 0 0 0 0 14.277464
-5.9257255 -7.479476 -0.71048123 0 0 0 0 14.28241
-6.0543518 -7.4135008 -0.4107343 0 0 0 0 14.287357
-6.1637864 -7.3405776 -0.14188081 0 0 0 0 14.292305
-6.2802653 -7.2725916 0.12692447 0 0 0 0 14.297251
-5.7955356 -7.6877217 -0.7076686 0 0 0 0 14.302198
-5.9189892 -7.6027927 -0.40782604 0 0 0 0 14.307146
-6.0303693 -7.5248442 -0.14096077 0 0 0 0 14.312092
-6.1538649 -7.4597864 0.12580445 0 0 0 0 14.317039
-5.6542573 -7.8860688 -0.70377225 0 0 0 0 14.321987
-5.7816648 -7.7970963 -0.40592989 0 0 0 0 14.326933
-5.902061 -7.7220588 -0.14111292 0 0 0 0 14.331881
-6.0214572 -7.6470299 0.12370846 0 0 0 0 14.336828
-5.5089703 -8.0834541 -0.69885617 0 0 0 0 14.341774
-5.6454487 -8.0033922 -0.40308559 0 0 0 0 14.346722
-5.7677455 -7.9183288 -0.14023715 0 0 0 0 14.351669
-5.3637838 -8.2928314 -0.69498801 0 0 0 0 14.361563
-5.5092249 -8.2096815 -0.40124193 0 0 0 0 14.36651
-5.6264176 -8.1136599 -0.13932949 0 0 0 0 14.371456
-5.7577491 -8.0335073 0.12146327 0 0 0 0 14.376404
-5.2247062 -8.5151482 -0.69219589 0 0 0 0 14.38135
-5.3619752 -8.4130707 -0.39834222 0 0 0 0 14.386297
-5.4881582 -8.3169613 -0.13846616 0 0 0 0 14.391245
-5.6184173 -8.2298117 0.12035862 0 0 0 0 14.396191
-5.0725398 -8.7275839 -0.68831223 0 0 0 0 14.401138
-5.2147584 -8.6204586 -0.39545894 0 0 0 0 14.406086
-5.3479586 -8.5272779 -0.13762273 0 0 0 0 14.411032
-5.4790959 -8.4281073 0.11824542 0 0 0 0 14.415979
-4.9245534 -8.9609756 -0.68552768 0 0 0 0 14.420927
-5.0706682 -8.8428116 -0.39364725 0 0 0 0 14.425873
-5.2037601 -8.7386236 -0.13776754 0 0 0 0 14.43082
-5.3337984 -8.6294556 0.11614423 0 0 0 0 14.435768
-4.7664514 -9.1814604 -0.68165243 0 0 0 0 14.440714
-4.9145331 -9.0602732 -0.39076781 0 0 0 0 14.445662
-5.0525174 -8.945034 -0.13686508 0 0 0 0 14.450609
-5.1956449 -8.8467426 0.11495128 0 0 0 0 14.455555
-4.6054311 -9.4119635 -0.67880476 0 0 0 0 14.460503
-4.7614717 -9.2867031 -0.38893661 0 0 0 0 14.46545
-4.9013839 -9.1644382 -0.13701417 0 0 0 0 14.470396
-5.0454035 -9.05513 0.11284161 0 0 0 0 14.475344
-4.4374604 -9.6475353 -0.673949 0 0 0 0 14.480291
-4.6065226 -9.5261459 -0.38714868 0 0 0 0 14.485237
-4.740211 -9.3799286 -0.13710782 0 0 0 0 14.490185
-4.8911724 -9.2655468 0.10973958 0 0 0 0 14.495131
-4.2726378 -9.9010687 -0.67117649 0 0 0 0 14.500078
-4.4364848 -9.7557249 -0.3842617 0 0 0 0 14.505026
-4.5852265 -9.6163654 -0.13630855 0 0 0 0 14.509972
-4.7391381 -9.4979458 0.10754286 0 0 0 0 14.514919
-4.0977492 -10.147688 -0.66833699 0 0 0 0 14.519867
-4.2705903 -10.002262 -0.38245809 0 0 0 0 14.524813
-4.4192338 -9.8528957 -0.13646549 0 0 0 0 14.52976
-4.5769939 -9.7184334 0.10543261 0 0 0 0 14.534708
-3.9190297 -10.413343 -0.66455615 0 0 0 0 14.539654
-4.0966921 -10.248866 -0.38062292 0 0 0 0 14.544601
-4.2563705 -10.104394 -0.13669379 0 0 0 0 14.549549
-4.419086 -9.9658794 0.10320025 0 0 0 0 14.554495
-3.7343507 -10.68405 -0.66077143 0 0 0 0 14.559443
-3.9128439 -10.501556 -0.37877163 0 0 0 0 14.56439
-4.0855303 -10.358962 -0.13690223 0 0 0 0 14.569336
-4.2439928 -10.193473 0.10011351 0 0 0 0 14.574284
-3.540628 -10.95083 -0.6579358 0 0 0 0 14.579231
-3.7332222 -10.780208 -0.37703857 0 0 0 0 14.584177
-3.906713 -10.616597 -0.13709094 0 0 0 0 14.589125
-4.0731177 -10.446026 0.096912511 0 0 0 0 14.594072
-3.2061498 -10.784942 -0.62786382 0 0 0 0 14.599018
-3.5199213 -10.98216 -0.37287441 0 0 0 0 14.603966
-3.7199805 -10.8843 -0.13728723 0 0 0 0 14.608912
-3.8963099 -10.70663 0.093703702 0 0 0 0 14.613859
-2.8732038 -10.566034 -0.59759885 0 0 0 0 14.618807
-3.1615608 -10.722431 -0.35434791 0 0 0 0 14.623753
-3.4500458 -10.904733 -0.13619643 0 0 0 0 14.6287
-3.7095463 -10.972322 0.091514751 0 0 0 0 14.633648
-2.4580848 -9.9496288 -0.54834473 0 0 0 0 14.378099
-2.8349109 -10.502099 -0.33802086 0 0 0 0 14.383047
-3.1052206 -10.666492 -0.13175227 0 0 0 0 14.387993
-3.3895168 -10.825791 0.082479537 0 0 0 0 14.392941
-2.1694849 -9.7723341 -0.52240205 0 0 0 0 14.397888
-2.4295335 -9.9058342 -0.31197137 0 0 0 0 14.402834
-2.7334578 -10.258858 -0.12557091 0 0 0 0 14.407782
-3.0594416 -10.612735 0.073736966 0 0 0 0 14.412729
-1.8895595 -9.5579576 -0.49535584 0 0 0 0 14.417675
-2.1427631 -9.7144747 -0.29698494 0 0 0 0 14.422623
-2.3878398 -9.8669777 -0.12056449 0 0 0 0 14.42757
-2.6398807 -10.012447 0.062855564 0 0 0 0 14.432516
-1.6153684 -9.3135252 -0.46822134 0 0 0 0 14.437464
