# .PCD v0.7 - Point Cloud Data file format
VERSION 0.7
FIELDS x y z normal_x normal_y normal_z intensity curvature
SIZE 4 4 4 4 4 4 4 4
TYPE F F F F F F F F
COUNT 1 1 1 1 1 1 1 1
WIDTH 974
HEIGHT 1
VIEWPOINT 0 0 0 1 0 0 0
POINTS 974
DATA ascii
-0.34438136 -6.8279605 2.0742431 0 0 0 0 10.12011
-0.51786113 -6.7451439 2.1625388 0 0 0 0 10.125056
-0.68775362 -6.6914058 2.2647839 0 0 0 0 10.130003
0.011147392 -6.9929576 2.0047023 0 0 0 0 10.134951
-0.18832406 -6.9048615 2.1028752 0 0 0 0 10.139897
-0.36781669 -6.8239713 2.1891356 0 0 0 0 10.144844
-0.54461378 -6.7651362 2.2843571 0 0 0 0 10.149791
0.18005365 -7.0790267 2.0423782 0 0 0 0 10.154738
-0.028327813 -6.9858131 2.1345174 0 0 0 0 10.159685
-0.21598881 -6.9188318 2.2217021 0 0 0 0 10.164632
-0.39756882 -6.8449225 2.3089349 0 0 0 0 10.169579
0.35076165 -7.1641846 2.0800638 0 0 0 0 9.924531
0.13334085 -7.0758328 2.170136 0 0 0 0 9.9294777
-0.061061248 -6.9917231 2.2473183 0 0 0 0 9.9344254
-0.24853233 -6.9117055 2.3285282 0 0 0 0 9.9393721
0.53034747 -7.272419 2.1277483 0 0 0 0 9.9443188
0.30115113 -7.1689072 2.2087948 0 0 0 0 9.9492664
0.098891936 -7.0756884 2.2789586 0 0 0 0 9.9542131
-0.095569767 -6.9965801 2.3561296 0 0 0 0 9.9591599
0.71118534 -7.3616514 2.1704829 0 0 0 0 9.9641075
0.47409111 -7.2520332 2.2455032 0 0 0 0 9.9690542
0.262806 -7.1627007 2.3116107 0 0 0 0 9.9740009
0.060487125 -7.0744843 2.381763 0 0 0 0 9.9789486
0.89981663 -7.4659877 2.2192214 0 0 0 0 9.9838953
0.65080774 -7.3512192 2.2891922 0 0 0 0 9.988842
0.43166533 -7.2527776 2.3482807 0 0 0 0 9.9937887
0.22054009 -7.1524343 2.408416 0 0 0 0 9.9987364
1.0973005 -7.58044 2.2739804 0 0 0 0 10.003683
0.83445674 -7.4554887 2.334904 0 0 0 0 10.00863
0.6045379 -7.3418994 2.3849723 0 0 0 0 10.013577
0.38632396 -7.2494721 2.4440527 0 0 0 0 10.018524
1.2987932 -7.6939383 2.3297615 0 0 0 0 10.023471
1.0222421 -7.5487995 2.3796618 0 0 0 0 10.028418
0.78320456 -7.4461007 2.4276576 0 0 0 0 10.033365
0.55534053 -7.3295288 2.4737451 0 0 0 0 10.038312
1.5064403 -7.7945042 2.3856039 0 0 0 0 10.043259
1.2187469 -7.6622329 2.4334161 0 0 0 0 10.048206
0.96708798 -7.5333524 2.4674089 0 0 0 0 10.053153
0.72912246 -7.4266567 2.5104206 0 0 0 0 10.0581
1.7266207 -7.930243 2.4524267 0 0 0 0 10.063047
1.4213644 -7.7667317 2.4862225 0 0 0 0 10.067994
1.1576966 -7.6406999 2.5151463 0 0 0 0 10.072941
0.90993047 -7.5208688 2.5491388 0 0 0 0 10.077888
1.9491228 -8.0409908 2.5143197 0 0 0 0 10.082835
1.6270647 -7.8652573 2.5370574 0 0 0 0 10.087782
1.3553772 -7.7421269 2.562933 0 0 0 0 10.09273
1.0947 -7.6181264 2.5888689 0 0 0 0 10.097676
2.183409 -8.166894 2.5842361 0 0 0 0 10.102623
1.8501283 -8.0100327 2.6068714 0 0 0 0 10.107571
1.5579451 -7.8516173 2.6147249 0 0 0 0 10.112517
1.2855411 -7.7094512 2.6286435 0 0 0 0 10.117464
2.4324913 -8.3069859 2.6621943 0 0 0 0 10.122411
2.077466 -8.1338396 2.6717558 0 0 0 0 10.127357
1.7723428 -7.9732585 2.6725478 0 0 0 0 10.132305
1.4878491 -7.8399467 2.683383 0 0 0 0 10.137252
2.693399 -8.4592295 2.7471833 0 0 0 0 10.142199
2.3156927 -8.2647858 2.7426784 0 0 0 0 10.147146
1.9946514 -8.1009989 2.734396 0 0 0 0 10.152093
1.6973841 -7.9535089 2.7331991 0 0 0 0 10.15704
2.9623909 -8.6045637 2.8322289 0 0 0 0 10.161987
2.568629 -8.4169235 2.8226252 0 0 0 0 10.166934
2.226027 -8.2228422 2.7973039 0 0 0 0 10.171881
1.9099859 -8.0611048 2.7840438 0 0 0 0 10.176828
3.2443593 -8.7500563 2.9223399 0 0 0 0 10.181775
2.8267589 -8.5541086 2.8996329 0 0 0 0 10.186722
2.4672215 -8.3578119 2.8662295 0 0 0 0 10.191669
2.1354463 -8.1788607 2.8399298 0 0 0 0 10.196616
3.551779 -8.9358835 3.0284848 0 0 0 0 10.201563
3.0997725 -8.6984797 2.9836991 0 0 0 0 10.206511
2.723213 -8.5069714 2.9431965 0 0 0 0 10.211457
2.3735716 -8.3207893 2.9068222 0 0 0 0 10.216404
3.8732388 -9.1168776 3.1387122 0 0 0 0 10.221352
3.3895195 -8.8620644 3.0768042 0 0 0 0 10.226298
2.9873571 -8.6442156 3.0182328 0 0 0 0 10.231245
2.6188545 -8.4507875 2.9707785 0 0 0 0 10.236192
4.2144628 -9.3141222 3.2590008 0 0 0 0 10.241139
3.6999786 -9.0459146 3.1809664 0 0 0 0 10.246086
3.2681899 -8.8036766 3.1043005 0 0 0 0 10.251033
2.8779633 -8.5929613 3.0417757 0 0 0 0 10.25598
4.5746126 -9.5155964 3.3853753 0 0 0 0 10.260927
4.0254431 -9.2279425 3.2892084 0 0 0 0 10.265874
3.5610211 -8.9622803 3.1934307 0 0 0 0 10.270821
3.1470468 -8.7362528 3.1158202 0 0 0 0 10.275768
4.9322662 -9.67801 3.5028281 0 0 0 0 10.280715
4.3716607 -9.4272337 3.4075146 0 0 0 0 10.285662
3.8756332 -9.1361551 3.291635 0 0 0 0 10.290609
3.4339166 -8.8947687 3.1979187 0 0 0 0 10.295556
5.3488088 -9.9211931 3.6553898 0 0 0 0 10.300503
4.7290835 -9.6096439 3.5249171 0 0 0 0 10.30545
4.2099862 -9.3282795 3.3998957 0 0 0 0 10.310397
3.7415218 -9.0715475 3.2910783 0 0 0 0 10.315344
5.7883363 -10.162657 3.816072 0 0 0 0 10.320292
5.107295 -9.8063154 3.6523907 0 0 0 0 10.325238
4.5671797 -9.5306864 3.5172474 0 0 0 0 10.330185
4.0572848 -9.2364073 3.3813071 0 0 0 0 10.335133
6.247808 -10.406361 3.9838493 0 0 0 0 10.340079
5.5221071 -10.030448 3.7969854 0 0 0 0 10.345026
4.9452181 -9.7433491 3.6426802 0 0 0 0 10.349973
4.4045625 -9.4356737 3.4896142 0 0 0 0 10.35492
6.4453697 -10.199567 3.9803553 0 0 0 0 10.359867
5.976347 -10.296081 3.960681 0 0 0 0 10.364814
5.3324842 -9.9381027 3.7652013 0 0 0 0 10.369761
4.7775068 -9.6592607 3.6089926 0 0 0 0 10.374708
6.5889163 -9.9190712 3.9497602 0 0 0 0 10.379655
6.3372488 -10.36244 4.0553727 0 0 0 0 10.384602
5.7611628 -10.174387 3.9098341 0 0 0 0 10.389549
5.1353827 -9.8116121 3.708463 0 0 0 0 10.394496
6.7393208 -9.6490965 3.9243307 0 0 0 0 11.203531
6.4881072 -10.076534 4.0129604 0 0 0 0 11.208478
6.2456145 -10.451005 4.0767684 0 0 0 0 11.213425
5.5602989 -10.046707 3.8422971 0 0 0 0 11.218372
6.8156824 -9.2967081 3.8655941 0 0 0 0 11.223319
6.6402984 -9.8170748 3.9823737 0 0 0 0 11.228266
6.4274726 -10.220884 4.0482583 0 0 0 0 11.233213
6.0050611 -10.286998 3.9839325 0 0 0 0 11.23816
6.8426433 -8.8997087 3.7847209 0 0 0 0 11.243107
6.7796497 -9.5444574 3.9477561 0 0 0 0 11.248055
6.5749226 -9.9443331 4.0036912 0 0 0 0 11.253001
6.3621478 -10.348123 4.0605745 0 0 0 0 11.257948
6.9666905 -8.6469545 3.7639773 0 0 0 0 11.262896
6.7527771 -9.0617409 3.8238275 0 0 0 0 11.267842
6.7222023 -9.6807871 3.9630902 0 0 0 0 11.272789
6.5116916 -10.067566 4.0060282 0 0 0 0 11.277737
7.1043925 -8.4203777 3.753237 0 0 0 0 11.282683
6.8759241 -8.8049469 3.7920895 0 0 0 0 11.28763
6.8192196 -9.3606157 3.8993795 0 0 0 0 11.292577
6.655108 -9.7969456 3.9534264 0 0 0 0 11.297523
7.2528214 -8.2129488 3.7535031 0 0 0 0 11.302471
6.9979892 -8.5541449 3.7623312 0 0 0 0 11.307418
6.8226495 -8.9332752 3.7894669 0 0 0 0 11.312365
6.7984486 -9.5303335 3.9058146 0 0 0 0 11.317312
7.3568559 -7.9599643 3.7326601 0 0 0 0 11.322259
7.1662045 -8.3659344 3.7626491 0 0 0 0 11.327206
6.9517374 -8.6825371 3.7547445 0 0 0 0 11.332153
6.7637396 -9.0394812 3.7638714 0 0 0 0 11.3371
7.5456142 -7.8010445 3.7580082 0 0 0 0 11.342047
7.279201 -8.1190348 3.735836 0 0 0 0 11.346994
7.0757546 -8.4367447 3.7219846 0 0 0 0 11.351941
6.8968716 -8.7877674 3.7221723 0 0 0 0 11.356888
7.4029584 -7.8882809 3.7200377 0 0 0 0 11.366782
7.2400832 -8.2414656 3.7143009 0 0 0 0 11.371729
7.030818 -8.5500755 3.6854424 0 0 0 0 11.376677
7.5956759 -7.7353854 3.7393906 0 0 0 0 11.38657
7.3422351 -7.9844155 3.67746 0 0 0 0 11.391518
7.1932731 -8.3477478 3.667767 0 0 0 0 11.396464
7.5172715 -7.810277 3.6797774 0 0 0 0 11.411305
7.3004804 -8.0887327 3.6239569 0 0 0 0 11.416252
7.7485394 -7.6928344 3.7102344 0 0 0 0 11.431093
7.4391189 -7.8721166 3.5991986 0 0 0 0 11.43604
8.634655 -7.1192517 3.9771967 0 0 0 0 11.440987
7.632957 -7.71419 3.6045699 0 0 0 0 11.455828
8.4043379 -7.3917294 3.7122543 0 0 0 0 11.515192
8.8400841 -6.5308614 3.8756764 0 0 0 0 11.525086
8.6781511 -6.8408318 3.7820501 0 0 0 0 11.530033
8.5429745 -7.1691217 3.6975119 0 0 0 0 11.53498
9.1320429 -5.9542265 3.9716325 0 0 0 0 11.539927
8.9427633 -6.2988796 3.8707781 0 0 0 0 11.544874
8.8740072 -6.6719513 3.80446 0 0 0 0 11.549821
8.7972965 -7.0429244 3.7341065 0 0 0 0 11.554768
9.227581 -5.7301869 3.9756789 0 0 0 0 11.559715
9.1375141 -6.1330175 3.9061756 0 0 0 0 11.564662
9.0728626 -6.5011101 3.8308899 0 0 0 0 11.569609
9.3845921 -5.5409002 4.0089474 0 0 0 0 11.579503
9.28967 -5.9376373 3.9244339 0 0 0 0 11.58445
9.5614138 -5.3638544 4.0522842 0 0 0 0 11.599291
9.3853436 -5.7035789 3.9225075 0 0 0 0 11.604239
8.7553978 -6.0625963 3.5243804 0 0 0 0 11.614132
9.6807337 -5.1511149 4.0734234 0 0 0 0 11.61908
9.1154041 -5.6288958 3.6923149 0 0 0 0 11.628973
8.8213978 -5.8111405 3.4943507 0 0 0 0 11.633921
9.8287945 -4.9557238 4.1076632 0 0 0 0 11.638867
9.106883 -5.341567 3.6430027 0 0 0 0 11.648761
8.946825 -5.6004028 3.489516 0 0 0 0 11.653708
9.1875563 -5.1103187 3.6319964 0 0 0 0 11.668549
9.0653143 -5.3835864 3.4846625 0 0 0 0 11.673496
9.4956102 -4.6622763 3.8218918 0 0 0 0 11.423228
9.3078527 -4.9047146 3.6393101 0 0 0 0 11.428175
9.1876879 -5.1719737 3.4840076 0 0 0 0 11.433123
9.5662251 -4.4339466 3.8198233 0 0 0 0 11.443016
9.3944616 -4.6775603 3.6363194 0 0 0 0 11.447963
9.3081274 -4.9592028 3.4841511 0 0 0 0 11.45291
9.6467552 -4.2097435 3.8247955 0 0 0 0 11.462804
9.5118151 -4.4677763 3.6454411 0 0 0 0 11.467751
9.4514322 -4.7537084 3.4943924 0 0 0 0 11.472698
9.7371788 -3.992662 3.8348 0 0 0 0 11.482592
9.6530266 -4.2652855 3.6666651 0 0 0 0 11.487539
9.6245155 -4.5625725 3.516748 0 0 0 0 11.492486
9.8444843 -3.7817888 3.8538749 0 0 0 0 11.50238
9.7584515 -4.0483656 3.6757455 0 0 0 0 11.507327
9.942873 -3.5638099 3.870924 0 0 0 0 11.522168
9.8777952 -3.8356125 3.6908863 0 0 0 0 11.527115
10.082994 -3.3623345 3.9051421 0 0 0 0 11.541956
10.006105 -3.6229718 3.7120728 0 0 0 0 11.546904
10.185738 -3.9786732 3.609056 0 0 0 0 11.55185
10.08856 -2.7896991 4.0606461 0 0 0 0 11.556797
10.153506 -3.1360233 3.9140725 0 0 0 0 11.561744
10.144363 -3.4124517 3.7383049 0 0 0 0 11.566691
10.289364 -3.7447104 3.6131721 0 0 0 0 11.571638
10.115105 -2.5618908 4.0643597 0 0 0 0 11.576585
10.191182 -2.8983254 3.9138675 0 0 0 0 11.581532
10.306516 -3.2062211 3.7756472 0 0 0 0 11.586479
10.434789 -3.5212505 3.6344731 0 0 0 0 11.591426
10.210322 -2.3509121 4.0963788 0 0 0 0 11.596373
10.115349 -2.6342678 3.8711581 0 0 0 0 11.60132
10.233868 -2.9271853 3.7289917 0 0 0 0 11.606267
10.610073 -3.3051453 3.6669064 0 0 0 0 11.611214
10.326464 -2.1411929 4.1405005 0 0 0 0 11.616161
10.191751 -2.4130404 3.8881085 0 0 0 0 11.621108
10.135236 -2.6498446 3.6742022 0 0 0 0 11.626055
10.787382 -3.0850666 3.7023609 0 0 0 0 11.631002
10.377863 -1.918695 4.1593294 0 0 0 0 11.635949
10.318935 -2.2014275 3.9272912 0 0 0 0 11.640896
10.211742 -2.4216008 3.6851718 0 0 0 0 11.645844
10.163373 -2.6484752 3.4643319 0 0 0 0 11.65079
10.487046 -1.7048934 4.2024283 0 0 0 0 11.655737
10.386397 -1.973104 3.9462166 0 0 0 0 11.660685
10.328079 -2.2008371 3.7133238 0 0 0 0 11.665631
10.226033 -2.4100533 3.4662583 0 0 0 0 11.670578
10.593258 -1.4870625 4.2475233 0 0 0 0 11.675526
10.480747 -1.7501006 3.9752645 0 0 0 0 11.680472
10.420543 -1.9707938 3.7353804 0 0 0 0 11.685419
10.351458 -2.1823788 3.4914746 0 0 0 0 11.690366
10.72541 -1.2695428 4.3037496 0 0 0 0 11.695312
10.596043 -1.5263563 4.0164208 0 0 0 0 11.70026
10.479124 -1.7343489 3.7462833 0 0 0 0 11.705207
10.443018 -1.9463049 3.5065424 0 0 0 0 11.710154
10.872553 -1.0482085 4.369061 0 0 0 0 11.715101
10.723323 -1.3017517 4.0616412 0 0 0 0 11.720048
10.624442 -1.5069386 3.790601 0 0 0 0 11.724995
10.53858 -1.7082807 3.5246365 0 0 0 0 11.729942
10.965875 -0.81923026 4.4141221 0 0 0 0 11.734889
10.899507 -1.0757372 4.1291118 0 0 0 0 11.739836
10.744852 -1.2742323 3.8268075 0 0 0 0 11.744783
10.667081 -1.4696488 3.5558991 0 0 0 0 11.74973
11.120056 -0.59098381 4.4854889 0 0 0 0 11.754677
10.979989 -0.83758205 4.1611323 0 0 0 0 11.759624
10.926133 -1.0422516 3.8873196 0 0 0 0 11.764571
10.810546 -1.2311939 3.5932372 0 0 0 0 11.769518
11.191163 -0.60398853 4.2458 0 0 0 0 11.779412
11.011735 -0.79414189 3.9163928 0 0 0 0 11.784359
10.965036 -0.98687482 3.6376467 0 0 0 0 11.789307
11.545112 -0.36609232 4.386198 0 0 0 0 11.7992
11.231039 -0.5516144 3.9941249 0 0 0 0 11.804148
11.059736 -0.73085368 3.6637869 0 0 0 0 11.809093
12.337553 0.14171591 5.0195179 0 0 0 0 11.814041
11.662684 -0.10938543 4.4384561 0 0 0 0 11.818988
12.030283 -0.31394055 4.2807622 0 0 0 0 11.823935
11.302148 -0.47857067 3.7406611 0 0 0 0 11.828882
12.415258 0.4108662 5.0706072 0 0 0 0 11.833829
11.799245 0.15109053 4.5008202 0 0 0 0 11.838776
12.158078 -0.037332017 4.3311229 0 0 0 0 11.843723
12.563868 0.68516767 5.1520686 0 0 0 0 11.853617
11.945846 0.4184441 4.5692534 0 0 0 0 11.858564
12.303886 0.24505934 4.3905907 0 0 0 0 11.863511
12.676579 0.96289873 5.2193589 0 0 0 0 11.873405
12.075543 0.6939919 4.634624 0 0 0 0 11.878352
12.447751 0.53347194 4.4510651 0 0 0 0 11.883299
12.769072 1.2433362 5.2826314 0 0 0 0 11.635739
12.229949 0.97376823 4.7112002 0 0 0 0 11.640686
12.5794 0.82949209 4.5115833 0 0 0 0 11.645633
12.861927 1.5322773 5.3498468 0 0 0 0 11.655527
12.365776 1.261227 4.7816286 0 0 0 0 11.660474
12.718421 1.1319368 4.5760665 0 0 0 0 11.665421
12.988781 1.8288054 5.4332542 0 0 0 0 11.675315
12.533646 1.56129 4.8702531 0 0 0 0 11.680262
12.963462 1.4541214 4.6801362 0 0 0 0 11.685209
13.193693 2.1473873 5.5531149 0 0 0 0 11.695103
12.683592 1.8665655 4.9538016 0 0 0 0 11.70005
12.90871 1.7508544 4.6816287 0 0 0 0 11.704997
13.012908 1.6186064 4.3558025 0 0 0 0 11.709944
12.826626 2.1809165 5.0383396 0 0 0 0 11.719838
12.965913 2.0622551 4.7247257 0 0 0 0 11.724785
12.976721 2.5031826 5.1269355 0 0 0 0 11.739626
13.071192 2.3910747 4.7901115 0 0 0 0 11.744574
13.645921 3.1280653 5.8599467 0 0 0 0 11.754467
13.802193 2.9813774 5.4883428 0 0 0 0 11.759414
13.224501 2.7313244 4.8737712 0 0 0 0 11.764361
13.950601 3.3376505 5.58602 0 0 0 0 11.779202
13.402971 3.0932667 4.9716148 0 0 0 0 11.784149
14.086122 3.7050667 5.6836629 0 0 0 0 11.79899
13.523465 3.4498909 5.0511541 0 0 0 0 11.803937
14.238731 4.0862703 5.792429 0 0 0 0 11.818778
13.690115 3.8319542 5.1539946 0 0 0 0 11.823725
13.638375 4.2424603 5.5928183 0 0 0 0 11.838566
13.831812 4.2163081 5.2507157 0 0 0 0 11.843513
14.481088 4.3328233 5.0572796 0 0 0 0 11.84846
13.635756 4.6982341 6.1060109 0 0 0 0 11.853407
13.609682 4.5658121 5.631525 0 0 0 0 11.858355
13.634048 4.5026779 5.2204747 0 0 0 0 11.863301
13.70053 4.4570484 4.8246822 0 0 0 0 11.868248
13.730148 5.058085 6.2074342 0 0 0 0 11.873196
13.8255 4.9842348 5.7767124 0 0 0 0 11.878141
13.895106 4.9455996 5.3709536 0 0 0 0 11.883089
13.803485 4.8598671 4.906261 0 0 0 0 11.888037
13.952896 5.4793825 6.371666 0 0 0 0 11.892982
13.895102 5.3564038 5.8610444 0 0 0 0 11.89793
13.973933 5.3386717 5.4553876 0 0 0 0 11.902877
14.017739 5.3103676 5.0315261 0 0 0 0 11.907824
14.237915 5.9409246 6.5683169 0 0 0 0 11.912771
14.281584 5.8747692 6.0893545 0 0 0 0 11.917718
14.298468 5.8428226 5.6413488 0 0 0 0 11.922665
14.274331 5.8033547 5.1801171 0 0 0 0 11.927612
15.479546 6.8479376 7.2199473 0 0 0 0 11.932559
15.625808 6.8336954 6.7356358 0 0 0 0 11.937506
15.675176 6.8324866 6.2568736 0 0 0 0 11.942453
14.533138 6.3203044 5.3357844 0 0 0 0 11.9474
15.850028 7.3503828 6.402122 0 0 0 0 11.962241
15.377997 7.1273499 5.715158 0 0 0 0 11.967188
16.077169 7.9086437 6.5757418 0 0 0 0 11.982029
15.667503 7.7239103 5.8991923 0 0 0 0 11.986977
16.207651 8.4439363 7.8378339 0 0 0 0 11.991922
16.292566 8.4605446 7.2872949 0 0 0 0 11.99687
16.392839 8.5368385 6.7939925 0 0 0 0 12.001818
15.955234 8.3454771 6.0902858 0 0 0 0 12.006763
16.289412 9.0214796 6.3077583 0 0 0 0 12.026552
17.229555 10.085323 6.7742953 0 0 0 0 12.04634
16.196484 9.7937202 8.1513805 0 0 0 0 12.051287
16.249022 9.8567591 7.5738039 0 0 0 0 12.056234
16.312933 9.9845037 7.0614562 0 0 0 0 12.061181
16.411125 10.140869 6.5543566 0 0 0 0 12.066128
16.19594 10.267579 8.2686472 0 0 0 0 12.071075
16.249769 10.358605 7.692152 0 0 0 0 12.076022
16.25769 10.476024 7.1534972 0 0 0 0 12.080969
16.238565 10.581777 6.5986772 0 0 0 0 12.085917
15.833854 10.517793 8.205514 0 0 0 0 12.090863
15.836633 10.599397 7.6177382 0 0 0 0 12.09581
15.816536 10.714125 7.0759368 0 0 0 0 12.100758
15.759394 10.818289 6.5199232 0 0 0 0 12.105704
15.426349 10.724672 8.1190529 0 0 0 0 12.129114
15.413212 10.816439 7.5352249 0 0 0 0 12.134061
15.374206 10.943353 7.0003633 0 0 0 0 12.139008
15.303082 11.05265 6.4502945 0 0 0 0 12.143955
15.033885 10.935225 8.0436678 0 0 0 0 12.148902
15.014851 11.040036 7.4668469 0 0 0 0 12.153849
14.94482 11.164288 6.9298244 0 0 0 0 12.158796
14.870827 11.290589 6.3897877 0 0 0 0 12.163743
14.648276 11.131701 7.9662828 0 0 0 0 12.16869
14.6033 11.243783 7.3923526 0 0 0 0 12.173637
14.544434 11.390871 6.871448 0 0 0 0 12.178584
14.442439 11.518467 6.3332758 0 0 0 0 12.183531
14.279722 11.33995 7.9030175 0 0 0 0 12.188478
14.217782 11.457205 7.3320174 0 0 0 0 12.193425
14.13192 11.606575 6.8139849 0 0 0 0 12.198372
14.01393 11.736333 6.2787399 0 0 0 0 12.20332
13.914055 11.53816 7.8397427 0 0 0 0 12.208266
13.82812 11.65667 7.2696266 0 0 0 0 12.213213
13.730311 11.815145 6.7595601 0 0 0 0 12.218161
13.590377 11.954115 6.2322316 0 0 0 0 12.223106
13.556371 11.739254 7.7855172 0 0 0 0 12.228054
13.448479 11.863988 7.2193098 0 0 0 0 12.233002
13.322615 12.016767 6.7070899 0 0 0 0 12.237947
13.193835 12.176582 6.1928735 0 0 0 0 12.242895
13.188521 11.922465 7.7251964 0 0 0 0 12.247843
13.063628 12.048374 7.1609087 0 0 0 0 12.252789
12.932872 12.217173 6.660708 0 0 0 0 12.257736
12.789142 12.386123 6.1554437 0 0 0 0 12.262683
12.839706 12.11245 7.6719913 0 0 0 0 12.26763
12.705922 12.255414 7.121706 0 0 0 0 12.272577
12.556117 12.420412 6.6224017 0 0 0 0 12.277524
12.39137 12.589576 6.1200342 0 0 0 0 12.282471
12.483724 12.286503 7.6177101 0 0 0 0 12.287418
12.333969 12.434628 7.0713606 0 0 0 0 12.292365
12.179257 12.614641 6.5850735 0 0 0 0 12.297312
12.074186 12.868054 6.1272306 0 0 0 0 12.302259
12.134716 12.460465 7.5674658 0 0 0 0 12.307206
11.983102 12.628571 7.035162 0 0 0 0 12.312153
12.234128 13.26865 6.7871327 0 0 0 0 12.317101
12.801743 14.311998 6.6837649 0 0 0 0 12.322047
11.845156 12.695682 7.5586848 0 0 0 0 12.326994
12.349438 13.603757 7.4326382 0 0 0 0 12.331942
12.993894 14.764079 7.4099689 0 0 0 0 12.336887
12.769843 14.980991 6.8654385 0 0 0 0 12.341835
12.39785 13.865505 8.1006145 0 0 0 0 12.346783
12.835493 14.789411 7.9322805 0 0 0 0 12.351728
12.585236 14.986601 7.3865681 0 0 0 0 12.356676
12.332122 15.199807 6.8458848 0 0 0 0 12.361624
12.652563 14.773939 8.4743614 0 0 0 0 12.36657
12.423565 14.978007 7.8907733 0 0 0 0 12.371517
12.174424 15.194141 7.3611193 0 0 0 0 12.376464
11.906321 15.412483 6.8283777 0 0 0 0 12.381411
12.268594 14.957243 8.4299803 0 0 0 0 12.386358
12.034729 15.180326 7.8594208 0 0 0 0 12.391305
11.748408 15.37985 7.3295388 0 0 0 0 12.396252
11.485497 15.625088 6.8148975 0 0 0 0 12.401199
11.888649 15.146478 8.3926373 0 0 0 0 12.406146
11.636724 15.366735 7.826983 0 0 0 0 12.411093
11.355634 15.597153 7.3162117 0 0 0 0 12.41604
11.062612 15.834691 6.8064022 0 0 0 0 12.420987
11.521703 15.339545 8.3633728 0 0 0 0 12.425934
11.254815 15.567936 7.8066673 0 0 0 0 12.430882
10.958719 15.802484 7.3048353 0 0 0 0 12.435828
10.647691 16.042196 6.7999434 0 0 0 0 12.440775
11.1537 15.527617 8.3340921 0 0 0 0 12.445723
10.852663 15.742366 7.7771821 0 0 0 0 12.450669
10.556701 15.997863 7.2924089 0 0 0 0 12.455616
10.228661 16.240732 6.7954435 0 0 0 0 12.460564
10.783662 15.713698 8.306798 0 0 0 0 12.465509
10.473653 15.937504 7.7628703 0 0 0 0 12.470457
10.153637 16.191236 7.2839751 0 0 0 0 12.475405
9.8206825 16.449114 6.8010278 0 0 0 0 12.48035
10.408457 15.882833 8.2764349 0 0 0 0 12.485298
10.092624 16.132647 7.7515507 0 0 0 0 12.490245
9.7505169 16.380594 7.2775326 0 0 0 0 12.495192
9.1081209 16.125257 6.5926604 0 0 0 0 12.500139
10.044388 16.071808 8.2601852 0 0 0 0 12.505086
9.710475 16.316793 7.7401991 0 0 0 0 12.510033
9.0630531 16.056517 7.0502887 0 0 0 0 12.51498
8.7090044 16.323511 6.6042662 0 0 0 0 12.519927
9.6771841 16.245819 8.2388802 0 0 0 0 12.524874
9.3263092 16.50194 7.7338428 0 0 0 0 12.529821
8.6716928 16.223732 7.0448494 0 0 0 0 12.534768
8.3036671 16.498835 6.6107817 0 0 0 0 12.539715
9.3180513 16.430717 8.225647 0 0 0 0 12.544662
8.652586 16.137791 7.4745603 0 0 0 0 12.549609
8.2955732 16.423721 7.0605774 0 0 0 0 12.554556
8.1722174 17.246664 6.850215 0 0 0 0 12.559504
8.6553984 16.062504 7.9444079 0 0 0 0 12.56445
8.296483 16.335587 7.4823813 0 0 0 0 12.569397
8.1779804 17.161383 7.3070526 0 0 0 0 12.574345
7.7701793 17.461882 6.8788619 0 0 0 0 12.57929
8.3030853 16.232304 7.935173 0 0 0 0 12.584238
7.9475484 16.557257 7.5063066 0 0 0 0 12.589186
7.7847743 17.353542 7.3206816 0 0 0 0 12.594131
7.3549323 17.65723 6.9063926 0 0 0 0 12.599079
7.9492207 16.408461 7.9326472 0 0 0 0 13.355698
7.8126917 17.261427 7.7504044 0 0 0 0 13.360645
7.3825617 17.556961 7.3481593 0 0 0 0 13.365592
6.9335098 17.856707 6.9378352 0 0 0 0 13.370539
7.8522902 17.151754 8.2063284 0 0 0 0 13.375486
7.4354782 17.462254 7.7691913 0 0 0 0 13.380433
6.9841585 17.739994 7.367795 0 0 0 0 13.38538
6.5171676 18.053873 6.9734259 0 0 0 0 13.390327
7.495059 17.345407 8.2141924 0 0 0 0 13.395274
7.0480537 17.639194 7.7808638 0 0 0 0 13.400221
6.5898805 17.940947 7.3985047 0 0 0 0 13.405169
6.1048779 18.259968 7.0160656 0 0 0 0 13.410115
7.122571 17.509233 8.2119007 0 0 0 0 13.415062
6.6626258 17.817102 7.7945509 0 0 0 0 13.42001
6.1885085 18.133957 7.43116 0 0 0 0 13.424955
5.6833935 18.445158 7.0546036 0 0 0 0 13.429903
6.756269 17.699944 8.226717 0 0 0 0 13.434851
6.2853985 18.022875 7.8243599 0 0 0 0 13.439796
5.7911482 18.328917 7.4648428 0 0 0 0 13.444744
5.266109 18.657259 7.1072412 0 0 0 0 13.449692
6.3929229 17.88562 8.2395363 0 0 0 0 13.454638
5.8989863 18.208744 7.8500705 0 0 0 0 13.459585
5.3827105 18.518963 7.5034614 0 0 0 0 13.464532
4.8447762 18.865389 7.160852 0 0 0 0 13.469479
6.0195441 18.070381 8.2563076 0 0 0 0 13.474426
5.5095711 18.396624 7.8797755 0 0 0 0 13.479373
4.9794059 18.727919 7.5531616 0 0 0 0 13.48432
4.183187 18.076941 6.8434625 0 0 0 0 13.489267
5.6411023 18.250179 8.2750425 0 0 0 0 13.494214
5.1122251 18.595551 7.9174762 0 0 0 0 13.499161
4.5547562 18.898109 7.5926509 0 0 0 0 13.504108
3.4988775 16.960035 6.4080253 0 0 0 0 13.509055
5.2555418 18.417048 8.2907095 0 0 0 0 13.514002
4.7178307 18.791433 7.9581852 0 0 0 0 13.51895
3.6635439 16.90736 6.7657189 0 0 0 0 13.523896
3.1091661 17.130808 6.4646859 0 0 0 0 13.528843
4.8441648 18.48229 8.2629633 0 0 0 0 13.533791
4.113327 18.103436 7.6293569 0 0 0 0 13.538737
3.2751791 16.992241 6.7791409 0 0 0 0 13.543684
2.720583 17.317547 6.5274005 0 0 0 0 13.548632
4.3894005 18.375154 8.163517 0 0 0 0 13.553577
3.4343519 16.858807 7.0715756 0 0 0 0 13.558525
2.8985496 17.170876 6.8348894 0 0 0 0 13.563473
2.3280234 17.51129 6.5991182 0 0 0 0 13.568419
3.6767225 17.014133 7.5102377 0 0 0 0 13.573366
3.0736699 17.02532 7.1133666 0 0 0 0 13.578313
2.5228772 17.345493 6.8906345 0 0 0 0 13.58326
1.9273257 17.691111 6.6697598 0 0 0 0 13.588207
3.2627056 16.880569 7.4119129 0 0 0 0 13.593154
2.7090256 17.197857 7.1591592 0 0 0 0 13.598101
2.1352184 17.525206 6.9533386 0 0 0 0 13.603048
1.5195254 17.860992 6.7403417 0 0 0 0 13.607995
2.9099841 17.038027 7.4427195 0 0 0 0 13.612942
2.3374403 17.381424 7.214952 0 0 0 0 13.617889
1.7444915 17.697943 7.0150108 0 0 0 0 13.622836
1.1009555 18.063917 6.8309689 0 0 0 0 13.627783
2.5493572 17.211519 7.486536 0 0 0 0 13.63273
1.9566169 17.538097 7.2636256 0 0 0 0 13.637677
1.3428593 17.887735 7.091682 0 0 0 0 13.642624
0.68132687 18.259851 6.9185734 0 0 0 0 13.647572
2.1876619 17.377024 7.5273271 0 0 0 0 13.652518
1.5760571 17.729713 7.3294039 0 0 0 0 13.657465
0.94021386 18.076532 7.1683483 0 0 0 0 13.662413
0.24867694 18.457884 7.0141253 0 0 0 0 13.667358
1.8220997 17.560534 7.5771542 0 0 0 0 13.672306
1.18651 17.9244 7.39815 0 0 0 0 13.677254
0.52960157 18.272379 7.2519994 0 0 0 0 13.682199
-0.18697044 18.658924 7.1146736 0 0 0 0 13.687147
1.4475306 17.747107 7.6339488 0 0 0 0 13.692094
0.79074001 18.094156 7.4607973 0 0 0 0 13.697041
0.11194167 18.464285 7.3366084 0 0 0 0 13.701988
-0.63052022 18.874012 7.223228 0 0 0 0 13.706935
1.0629421 17.804924 7.6353273 0 0 0 0 13.711882
0.38812348 18.28594 7.536478 0 0 0 0 13.716829
-0.31566978 18.666252 7.431201 0 0 0 0 13.721776
-1.0815016 18.917324 7.2732544 0 0 0 0 13.726723
0.66441333 17.620152 7.5379415 0 0 0 0 13.73167
-0.022160156 18.145163 7.4781661 0 0 0 0 13.736617
-0.74621218 18.631487 7.4371004 0 0 0 0 13.741564
-1.4616436 18.074877 6.982069 0 0 0 0 13.746511
0.27233276 17.494221 7.4697576 0 0 0 0 13.751458
-0.42585045 17.955357 7.4037452 0 0 0 0 13.756405
-1.1617405 18.350828 7.3483639 0 0 0 0 13.761353
-1.8134871 17.271082 6.7121291 0 0 0 0 13.766299
-0.11428434 17.302299 7.3774104 0 0 0 0 13.771246
-0.8242752 17.675581 7.2970905 0 0 0 0 13.776194
-1.5551474 17.961056 7.2184181 0 0 0 0 13.781139
-2.1655557 16.80892 6.5731721 0 0 0 0 13.786087
-0.50459146 17.53289 7.4692674 0 0 0 0 13.791035
-1.2136139 17.532547 7.2478752 0 0 0 0 13.79598
-1.8931755 17.241106 6.9547839 0 0 0 0 13.800928
-2.451283 16.015453 6.3065743 0 0 0 0 13.805876
-0.8857168 17.406803 7.4111395 0 0 0 0 13.810822
-1.5926614 17.303486 7.1694613 0 0 0 0 13.815769
-2.2237825 16.699865 6.7667003 0 0 0 0 13.820716
-2.7180479 15.337677 6.0813999 0 0 0 0 13.825663
-1.2353622 16.889166 7.1902003 0 0 0 0 13.583739
-1.9553694 17.041691 7.077177 0 0 0 0 13.588686
-2.4946856 15.934723 6.4884195 0 0 0 0 13.593634
-2.9919088 14.85323 5.9349375 0 0 0 0 13.598579
-1.5928565 16.719912 7.1180577 0 0 0 0 13.603527
-2.2880025 16.61841 6.9214282 0 0 0 0 13.608475
-2.7945728 15.490077 6.3437657 0 0 0 0 13.61342
-3.2481122 14.377134 5.7934027 0 0 0 0 13.618368
-1.948553 16.529634 7.0448642 0 0 0 0 13.623315
-2.554157 15.878823 6.6350918 0 0 0 0 13.628262
-3.0301607 14.832028 6.1118088 0 0 0 0 13.633209
-3.4834437 13.884839 5.6469207 0 0 0 0 13.638156
-2.2982206 16.343281 6.9747114 0 0 0 0 13.643103
-2.846874 15.446128 6.4815059 0 0 0 0 13.64805
-3.2812691 14.357917 5.9563026 0 0 0 0 13.652997
-3.718179 13.465454 5.5296493 0 0 0 0 13.657944
-2.5988867 15.905726 6.8000727 0 0 0 0 13.662891
-3.0763438 14.792055 6.2355881 0 0 0 0 13.667838
-3.5084252 13.876573 5.7978907 0 0 0 0 13.672785
-3.9699175 13.17009 5.4636521 0 0 0 0 13.677732
-2.8673389 15.368957 6.5853038 0 0 0 0 13.682679
-3.3202918 14.328896 6.0711465 0 0 0 0 13.687626
-3.7390008 13.469162 5.6736722 0 0 0 0 13.692574
-4.2838874 13.098075 5.4929972 0 0 0 0 13.69752
-3.091536 14.73785 6.3324742 0 0 0 0 13.702467
-3.5443625 13.849552 5.9007525 0 0 0 0 13.707415
-3.9768827 13.147722 5.5846663 0 0 0 0 13.71236
-3.3332584 14.293683 6.162097 0 0 0 0 13.722256
-3.7600698 13.416062 5.7515302 0 0 0 0 13.727201
-4.2887921 13.077703 5.6060276 0 0 0 0 13.732149
-3.5561485 13.828345 5.9847479 0 0 0 0 13.742043
-3.9597251 12.9884 5.6054001 0 0 0 0 13.74699
-5.0671611 12.463865 5.4205956 0 0 0 0 13.756884
-3.7580221 13.364789 5.8095036 0 0 0 0 13.761831
-4.2880039 12.992477 5.6488976 0 0 0 0 13.766778
-3.953603 12.937125 5.6493917 0 0 0 0 13.781619
-5.0656862 12.470481 5.5127344 0 0 0 0 13.791513
-4.2641478 12.901099 5.6658597 0 0 0 0 13.801407
-5.0820985 12.467401 5.5607586 0 0 0 0 13.826142
-5.9708548 10.862399 5.082942 0 0 0 0 13.855824
-5.0852804 12.47924 5.5918894 0 0 0 0 13.860771
-5.957036 10.877026 5.1251588 0 0 0 0 13.890453
-5.9503417 10.853874 5.115231 0 0 0 0 13.925082
-6.6389241 9.3244438 4.7795792 0 0 0 0 13.954763
-5.9462895 10.861782 5.0943804 0 0 0 0 13.959711
-6.6078677 9.3350496 4.7688613 0 0 0 0 13.989393
-6.5671735 7.9916935 4.3632088 0 0 0 0 14.014128
-6.6166945 9.3461161 4.7339535 0 0 0 0 14.024022
-6.4733005 8.3086157 4.4056234 0 0 0 0 14.028969
-6.6000223 7.665175 4.2801538 0 0 0 0 14.033916
-6.5349965 8.001359 4.3294864 0 0 0 0 14.048758
-6.7061572 7.4382143 4.252039 0 0 0 0 14.053704
-6.6098003 9.3479309 4.6694117 0 0 0 0 13.829073
-6.4884543 8.3255606 4.3630495 0 0 0 0 13.834021
-6.5960565 7.7098823 4.2577658 0 0 0 0 13.838966
-6.826714 7.2311759 4.237289 0 0 0 0 13.843914
-6.5441999 8.0102844 4.2749248 0 0 0 0 13.853807
-6.693294 7.4678831 4.2156534 0 0 0 0 13.858755
-6.9427242 7.025279 4.2231908 0 0 0 0 13.863703
-6.6018009 7.7139978 4.1968446 0 0 0 0 13.873596
-6.8142619 7.2630568 4.1945343 0 0 0 0 13.878543
-7.043797 6.8092527 4.2021337 0 0 0 0 13.88349
-6.5230489 7.9902205 4.1850629 0 0 0 0 13.888437
-6.6871109 7.4579172 4.1417475 0 0 0 0 13.893384
-6.914361 7.0390534 4.1624589 0 0 0 0 13.898331
-7.1299453 6.5830898 4.1771183 0 0 0 0 13.903278
-6.5885758 7.7000175 4.1049614 0 0 0 0 13.908225
-6.8130317 7.2551527 4.1156101 0 0 0 0 13.913172
-7.0253563 6.8311214 4.1423774 0 0 0 0 13.918119
-7.2627273 6.4091082 4.1820393 0 0 0 0 13.923066
-6.6778669 7.4497523 4.0442262 0 0 0 0 13.928013
-6.9180779 7.0389833 4.0791535 0 0 0 0 13.932961
-7.118412 6.6148238 4.1132278 0 0 0 0 13.937907
-7.4383092 6.2666707 4.2149496 0 0 0 0 13.942854
-6.8017769 7.2439766 4.0102134 0 0 0 0 13.947802
-7.025085 6.8250265 4.0501976 0 0 0 0 13.952748
-7.239255 6.4259553 4.1032715 0 0 0 0 13.957695
-7.5900116 6.1060247 4.2359238 0 0 0 0 13.962643
-6.9117832 7.0260725 3.9722345 0 0 0 0 13.967588
-7.1121664 6.5988951 4.0123014 0 0 0 0 13.972536
-7.4108286 6.2795 4.1261907 0 0 0 0 13.977484
-7.8083892 5.9959364 4.2947221 0 0 0 0 13.98243
-7.0177708 6.8101244 3.9352782 0 0 0 0 13.987377
-7.2598681 6.4292607 4.0132709 0 0 0 0 13.992324
-7.5505738 6.1077695 4.1331916 0 0 0 0 13.997271
-7.0939121 6.5719137 3.8854017 0 0 0 0 14.007165
-7.4055529 6.2606058 4.0132532 0 0 0 0 14.012112
-7.7938128 6.0149035 4.1989207 0 0 0 0 14.017059
-7.2873144 6.4406829 3.9032602 0 0 0 0 14.026953
-7.5651708 6.1030598 4.0232 0 0 0 0 14.0319
-7.3962231 6.2367296 3.8773212 0 0 0 0 14.046741
-7.6125488 6.119678 3.9101133 0 0 0 0 14.066529
-8.0581408 4.8482461 4.1710448 0 0 0 0 14.081369
-8.156044 4.6590862 4.1811929 0 0 0 0 14.101158
-8.8167667 5.3228464 4.4348965 0 0 0 0 14.115999
-8.4616814 4.1036749 4.226615 0 0 0 0 14.160522
-8.606349 5.395576 4.0441437 0 0 0 0 14.165469
-0.46801573 0.21107429 0.19783804 0 0 0 0 14.19515
-0.45829162 0.1819794 0.19781545 0 0 0 0 14.200098
-0.44225255 0.1748679 0.18190643 0 0 0 0 14.234727
-0.41951588 0.14465998 0.17693897 0 0 0 0 14.239674
-0.45485327 0.21200989 0.17495182 0 0 0 0 14.244621
-0.44511366 0.18491271 0.17593408 0 0 0 0 14.249568
-0.40746567 0.1395831 0.1630168 0 0 0 0 14.274303
-0.42565146 0.12672107 0.17790958 0 0 0 0 14.27925
-0.44007266 0.17989801 0.16398104 0 0 0 0 14.284197
-0.43030801 0.15579847 0.16597062 0 0 0 0 14.289145
-0.41490409 0.12161868 0.16368055 0 0 0 0 14.029882
-0.4340964 0.10876635 0.17956831 0 0 0 0 14.03483
-0.43853819 0.15586464 0.15866843 0 0 0 0 14.039778
-0.41078505 0.12760563 0.15372927 0 0 0 0 14.044724
-0.42703485 0.10573156 0.16762921 0 0 0 0 14.069459
-0.41924259 0.08564543 0.17162038 0 0 0 0 14.074406
-0.4087379 0.12361763 0.14276527 0 0 0 0 14.079353
-0.42292112 0.11072101 0.15667549 0 0 0 0 14.0843
-0.40418264 0.080543153 0.15571186 0 0 0 0 14.109035
-0.409372 0.065566242 0.16665731 0 0 0 0 14.113982
-0.41388002 0.10467227 0.14273775 0 0 0 0 14.118929
-0.4140659 0.088654101 0.15070304 0 0 0 0 14.123877
-0.39730635 0.061491091 0.15173772 0 0 0 0 14.148611
-0.40448993 0.047530983 0.16367672 0 0 0 0 14.153559
-0.40402445 0.082596026 0.13676959 0 0 0 0 14.158504
-0.40920371 0.068618909 0.14771752 0 0 0 0 14.163452
-0.39242402 0.043456189 0.148757 0 0 0 0 14.188187
-0.40461069 0.030536951 0.16367623 0 0 0 0 14.193134
-0.40116182 0.062580504 0.13377504 0 0 0 0 14.198081
-0.39933208 0.048540432 0.14275412 0 0 0 0 14.203028
-0.40156183 0.026539613 0.15271637 0 0 0 0 14.227763
-0.40474042 0.012542962 0.16367319 0 0 0 0 14.23271
-0.39628884 0.043545742 0.13079175 0 0 0 0 14.237658
-0.40045771 0.030558702 0.14174664 0 0 0 0 14.242604
-0.39466864 0.0094854878 0.14974684 0 0 0 0 14.26734
-0.4038547 -0.0034632306 0.16467948 0 0 0 0 14.272285
-0.39341953 0.024528015 0.12879947 0 0 0 0 14.277233
-0.39958718 0.012555195 0.14174795 0 0 0 0 14.282181
-0.39678249 -0.006491581 0.15073974 0 0 0 0 14.306915
-0.40999091 -0.020409336 0.16865216 0 0 0 0 14.311862
-0.39455301 0.0065414752 0.12979183 0 0 0 0 14.316809
-0.40271059 -0.0044123009 0.14273396 0 0 0 0 14.321756
-0.40392795 -0.024427973 0.15470546 0 0 0 0 14.346491
-0.42114902 -0.038314994 0.17560022 0 0 0 0 14.351439
-0.40368462 -0.01037325 0.13275123 0 0 0 0 14.356385
-0.4018335 -0.021418324 0.14373763 0 0 0 0 14.361332
-0.41609526 -0.04332405 0.16164657 0 0 0 0 14.386066
-0.42729777 -0.056264121 0.18057045 0 0 0 0 14.391014
-0.4038263 -0.029369578 0.13374543 0 0 0 0 14.395962
-0.41400594 -0.04131192 0.14967625 0 0 0 0 14.400908
-0.41623071 -0.061323188 0.16364326 0 0 0 0 14.425643
-0.43346488 -0.076213412 0.18553567 0 0 0 0 14.43059
-0.40797141 -0.048330121 0.13572191 0 0 0 0 14.435537
-0.41715074 -0.060282268 0.15165718 0 0 0 0 14.440484
-0.44246477 -0.084103398 0.17751271 0 0 0 0 14.465219
-0.44163984 -0.096148804 0.19249205 0 0 0 0 14.470166
-0.41915217 -0.069233783 0.14166249 0 0 0 0 14.475113
-0.43335804 -0.082148276 0.16157323 0 0 0 0 14.480061
-0.43171388 -0.10221102 0.1754394 0 0 0 0 14.392675
-0.4429346 -0.11615606 0.19636075 0 0 0 0 14.397622
-0.42445466 -0.090203658 0.1455112 0 0 0 0 14.402569
-0.42662054 -0.1012203 0.16047984 0 0 0 0 14.407516
-0.43487582 -0.12218663 0.1794178 0 0 0 0 14.432251
-0.45917857 -0.14102708 0.20826927 0 0 0 0 14.437199
-0.42361781 -0.11121235 0.1475047 0 0 0 0 14.442144
-0.43079636 -0.12218867 0.16545127 0 0 0 0 14.447092
-0.44207859 -0.14513144 0.186371 0 0 0 0 14.471827
-0.47443104 -0.16690828 0.22017977 0 0 0 0 14.476774
-0.41674304 -0.12927347 0.14753206 0 0 0 0 14.481721
-0.42995828 -0.14319751 0.16744471 0 0 0 0 14.486668
-0.46136773 -0.17397922 0.20025629 0 0 0 0 14.511403
-0.50078869 -0.20070224 0.23902184 0 0 0 0 14.51635
-0.42898741 -0.15617272 0.1554531 0 0 0 0 14.521297
-0.45024288 -0.17203318 0.18032557 0 0 0 0 14.526244
-0.49175739 -0.21073768 0.22007325 0 0 0 0 14.55098
-0.50906307 -0.22964886 0.24995579 0 0 0 0 14.555925
-0.46338239 -0.19389008 0.17424987 0 0 0 0 14.560873
-0.47058243 -0.20587438 0.19519399 0 0 0 0 14.565821
-0.4919855 -0.23675039 0.22704975 0 0 0 0 14.590555
-0.48813459 -0.24483204 0.24505219 0 0 0 0 14.595502
-0.48373038 -0.22873186 0.18911587 0 0 0 0 14.600449
-0.48288435 -0.23778251 0.20610264 0 0 0 0 14.605396
-7.1128688 -3.8178029 4.0231199 0 0 0 0 14.61529
-6.9803214 -3.8112872 3.6977444 0 0 0 0 14.630131
-6.9093208 -3.9036384 3.959841 0 0 0 0 14.635078
-0.48800465 -0.25970632 0.19606215 0 0 0 0 14.640025
-6.846158 -3.8308635 3.4033103 0 0 0 0 14.644972
-6.786911 -3.9060543 3.6463971 0 0 0 0 14.64992
-6.7198195 -3.9903598 3.9054961 0 0 0 0 14.654866
-6.7100005 -3.8514538 3.107882 0 0 0 0 14.659813
-6.6376882 -3.9207621 3.3490405 0 0 0 0 14.664761
-6.592443 -3.994827 3.5950682 0 0 0 0 14.669707
-6.542366 -4.0789809 3.8580923 0 0 0 0 14.674654
-6.4995761 -3.9433827 3.0596149 0 0 0 0 14.679602
-6.4473114 -4.0155134 3.3056779 0 0 0 0 14.684547
-6.4150448 -4.0874553 3.5516536 0 0 0 0 14.689495
-6.355762 -4.1546693 3.8047595 0 0 0 0 14.694443
-6.3001862 -4.0362186 3.0172956 0 0 0 0 14.699389
-6.2437344 -4.0933623 3.2534137 0 0 0 0 14.704336
-6.2043324 -4.1543527 3.4924471 0 0 0 0 14.709283
-6.1832299 -4.234242 3.7593539 0 0 0 0 14.71423
-6.108778 -4.1259828 2.9779475 0 0 0 0 14.719177
-6.060287 -4.1790504 3.2140403 0 0 0 0 14.724124
-6.0429554 -4.2448473 3.4589648 0 0 0 0 14.729071
-6.0207405 -4.315731 3.7198985 0 0 0 0 14.734018
-5.9173126 -4.209743 2.9386132 0 0 0 0 14.738965
-5.8929429 -4.271606 3.183578 0 0 0 0 14.743912
-5.8653979 -4.3204684 3.416589 0 0 0 0 14.748859
-5.8420706 -4.3823466 3.6715493 0 0 0 0 14.753806
-5.7318439 -4.2914534 2.9032562 0 0 0 0 14.758753
-5.7124081 -4.3482594 3.1442118 0 0 0 0 14.7637
-5.6988974 -4.3989987 3.3811562 0 0 0 0 14.768647
-5.6825123 -4.4558063 3.6340985 0 0 0 0 14.773594
-5.5594554 -4.3780575 2.8758285 0 0 0 0 14.778542
-5.5449386 -4.4278088 3.11378 0 0 0 0 14.783488
-5.5333576 -4.4735174 3.3457282 0 0 0 0 14.788435
-5.5279932 -4.5312285 3.6016197 0 0 0 0 14.793383
-5.3900595 -4.4626374 2.8513918 0 0 0 0 14.798328
-5.3835182 -4.5103111 3.0883131 0 0 0 0 14.803276
-5.3738523 -4.5489907 3.3162701 0 0 0 0 14.808224
-5.3643208 -4.5937147 3.562212 0 0 0 0 14.813169
-5.2236199 -4.5431838 2.8259509 0 0 0 0 14.818117
-5.2149806 -4.5828638 3.0579007 0 0 0 0 14.823064
-5.2193441 -4.6234193 3.2887919 0 0 0 0 14.828011
-5.2228661 -4.6720314 3.5386667 0 0 0 0 14.832958
-5.0541048 -4.6157551 2.8005419 0 0 0 0 14.837905
-5.0534492 -4.6543574 3.0314593 0 0 0 0 14.842852
-5.075922 -4.7037592 3.2682493 0 0 0 0 14.847799
-5.0752811 -4.7393866 3.5091743 0 0 0 0 14.852746
-4.8908124 -4.692307 2.7808166 0 0 0 0 15.329198
-4.9011426 -4.7318168 3.0126834 0 0 0 0 15.334145
-4.91745 -4.7702641 3.2415276 0 0 0 0 15.339092
-4.9267812 -4.8058057 3.4824088 0 0 0 0 15.344039
-4.7394342 -4.7756996 2.768286 0 0 0 0 15.348986
-4.7445979 -4.8012328 2.9912097 0 0 0 0 15.353933
-4.7719207 -4.8415799 3.2200017 0 0 0 0 15.35888
-4.7882552 -4.8770604 3.461853 0 0 0 0 15.363827
-4.5839467 -4.8491158 2.7517967 0 0 0 0 15.368774
-4.6001573 -4.8785563 2.9776633 0 0 0 0 15.373721
-4.6243367 -4.9069114 3.1984985 0 0 0 0 15.378668
-4.6486735 -4.9433165 3.4393134 0 0 0 0 15.383615
-4.4274344 -4.9195414 2.7363181 0 0 0 0 15.388562
-4.4475722 -4.942935 2.9581831 0 0 0 0 15.393509
-4.4797816 -4.9742203 3.1799767 0 0 0 0 15.398457
-4.5060325 -5.0035949 3.4158003 0 0 0 0 15.403403
-4.2769384 -4.9899187 2.724813 0 0 0 0 15.40835
-4.3040924 -5.0152493 2.9466429 0 0 0 0 15.413298
-4.3392253 -5.0404949 3.1634388 0 0 0 0 15.418243
-4.3714566 -5.0688105 3.3972402 0 0 0 0 15.423191
-4.1335387 -5.0682449 2.7192564 0 0 0 0 15.428139
-4.1575265 -5.0795808 2.9321349 0 0 0 0 15.433084
-4.1986666 -5.105772 3.1489029 0 0 0 0 15.438032
-4.2409143 -5.1359968 3.3826563 0 0 0 0 15.442979
-3.9829936 -5.1326222 2.7097642 0 0 0 0 15.447926
-4.0200744 -5.1528473 2.9255645 0 0 0 0 15.452873
-4.0631418 -5.1730108 3.1383395 0 0 0 0 15.45782
-4.1042771 -5.1942277 3.3651202 0 0 0 0 15.462767
-3.8456166 -5.2118974 2.7081778 0 0 0 0 15.467714
-3.882607 -5.2241135 2.9199984 0 0 0 0 15.472661
-3.9265842 -5.2372532 3.1267869 0 0 0 0 15.477608
-3.9737144 -5.2584138 3.3525424 0 0 0 0 15.482555
-3.703162 -5.2832141 2.7056317 0 0 0 0 15.487502
-3.7400312 -5.2854123 2.9104779 0 0 0 0 15.492449
-3.7930787 -5.3054762 3.1192102 0 0 0 0 15.497396
-3.8421099 -5.3186045 3.3389776 0 0 0 0 15.502343
-3.5586698 -5.3505454 2.7031033 0 0 0 0 15.50729
-3.6065912 -5.3576498 2.9098902 0 0 0 0 15.512238
-3.6585045 -5.3667035 3.1106553 0 0 0 0 15.517184
-3.7105129 -5.3787971 3.3274124 0 0 0 0 15.522131
-3.4202332 -5.421833 2.705538 0 0 0 0 15.527079
-3.4660299 -5.4189358 2.9043591 0 0 0 0 15.532024
-3.5239511 -5.4289355 3.1050963 0 0 0 0 15.536972
-3.5859716 -5.4429369 3.3208063 0 0 0 0 15.54192
-3.2797997 -5.4931374 2.7089803 0 0 0 0 15.546865
-3.3305244 -5.4841862 2.9037955 0 0 0 0 15.551813
-3.3964801 -5.4981141 3.1044888 0 0 0 0 15.556761
-3.4614689 -5.5100813 3.3171911 0 0 0 0 15.561707
-3.1331868 -5.5474792 2.7064905 0 0 0 0 15.566654
-3.2001238 -5.5584035 2.9091871 0 0 0 0 15.571601
-3.2649236 -5.5593185 3.1009178 0 0 0 0 15.576548
-3.3277655 -5.5592828 3.3046596 0 0 0 0 15.581495
-3.0029006 -5.6307139 2.7198577 0 0 0 0 15.586442
-3.0666635 -5.6266432 2.9136055 0 0 0 0 15.591389
-3.1323833 -5.6215353 3.0993476 0 0 0 0 15.596336
-3.2052689 -5.6264091 3.3030345 0 0 0 0 15.601283
-2.8563199 -5.6870599 2.7213609 0 0 0 0 15.60623
-2.9291046 -5.6859064 2.914063 0 0 0 0 15.611177
-3.0059257 -5.6907072 3.1027331 0 0 0 0 15.616124
-3.0797038 -5.6865582 3.3004389 0 0 0 0 15.621071
-2.7240212 -5.768312 2.7367394 0 0 0 0 15.626019
-2.7997475 -5.7621245 2.9264419 0 0 0 0 15.630965
-2.8743553 -5.7489147 3.1031671 0 0 0 0 15.635912
-2.9521201 -5.7447228 3.2978561 0 0 0 0 15.64086
-2.5856009 -5.8376083 2.7491732 0 0 0 0 15.645806
-2.6673 -5.830358 2.9348531 0 0 0 0 15.650753
-2.7438545 -5.8131199 3.1075802 0 0 0 0 15.655701
-2.8296366 -5.8118525 3.3002281 0 0 0 0 15.660646
-2.4492362 -5.9118915 2.7645845 0 0 0 0 15.665594
-2.5287538 -5.8886371 2.9413145 0 0 0 0 15.670542
-2.6163962 -5.8803062 3.115972 0 0 0 0 15.675488
-2.7020762 -5.8710217 3.3016407 0 0 0 0 15.680435
-2.3098035 -5.9791961 2.7790258 0 0 0 0 15.685382
-2.3994176 -5.965858 2.9576879 0 0 0 0 15.690329
-2.4848967 -5.9435239 3.1233902 0 0 0 0 15.695276
-2.5754838 -5.9271774 3.3020561 0 0 0 0 15.700223
-2.1694353 -6.0515199 2.7984571 0 0 0 0 15.70517
-2.2608683 -6.0231371 2.9661496 0 0 0 0 15.710117
-2.3543777 -6.0047293 3.1308084 0 0 0 0 15.715064
-2.4520307 -5.9953237 3.310427 0 0 0 0 15.720011
-2.0321314 -6.1298208 2.8208594 0 0 0 0 15.724958
-2.1244056 -6.0874109 2.9805841 0 0 0 0 15.729905
-2.2249284 -6.0719337 3.1422057 0 0 0 0 15.734852
-2.3265629 -6.0614882 3.3198104 0 0 0 0 15.739799
-1.8897156 -6.1971574 2.8403101 0 0 0 0 15.744746
-1.9931173 -6.1676569 3.002955 0 0 0 0 15.749693
-2.0955646 -6.1461501 3.1595843 0 0 0 0 15.754641
-2.1990147 -6.1206579 3.3252194 0 0 0 0 15.759587
-1.7473857 -6.2715054 2.8657415 0 0 0 0 15.764534
-1.8567522 -6.2399426 3.0243669 0 0 0 0 15.769482
-1.9630853 -6.2093811 3.1730025 0 0 0 0 15.774428
-2.0735745 -6.1888247 3.3375957 0 0 0 0 15.779375
-1.6040237 -6.3428578 2.8901839 0 0 0 0 15.784322
-1.7173108 -6.3052454 3.0428081 0 0 0 0 15.789269
-1.8337623 -6.286603 3.1943712 0 0 0 0 15.794216
-1.9440804 -6.2520204 3.348001 0 0 0 0 15.799163
-1.461198 -6.4200664 2.9193339 0 0 0 0 15.495823
-1.5814868 -6.3833661 3.0699201 0 0 0 0 15.500771
-1.6987379 -6.3476663 3.2095168 0 0 0 0 15.505717
-1.8149958 -6.3089962 3.3571255 0 0 0 0 15.510664
-1.3149509 -6.4994817 2.9517741 0 0 0 0 15.515612
-1.4421371 -6.4547019 3.0953517 0 0 0 0 15.520557
-1.564393 -6.4209499 3.2319226 0 0 0 0 15.525505
-1.6866467 -6.3832192 3.3765039 0 0 0 0 15.530453
-1.166702 -6.5779166 2.9862249 0 0 0 0 15.535398
-1.2977593 -6.5230799 3.1208115 0 0 0 0 15.540346
-1.4280196 -6.4912491 3.2543435 0 0 0 0 15.545293
-1.5562335 -6.4514527 3.3939047 0 0 0 0 15.55024
-1.015509 -6.6613836 3.023674 0 0 0 0 15.555187
-1.1555176 -6.6034541 3.1532304 0 0 0 0 15.560134
-1.2886535 -6.5615783 3.2787762 0 0 0 0 15.565081
-1.42277 -6.514709 3.4103303 0 0 0 0 15.570028
-0.86334497 -6.7468638 3.064121 0 0 0 0 15.574975
-1.0103494 -6.6898656 3.1906462 0 0 0 0 15.579922
-1.1493033 -6.6329088 3.3052051 0 0 0 0 15.584869
-1.2894779 -6.5929847 3.4357164 0 0 0 0 15.589816
-0.70705873 -6.8203702 3.1016147 0 0 0 0 15.594763
-0.86208117 -6.7662959 3.2260985 0 0 0 0 15.59971
-1.0090758 -6.715261 3.3376088 0 0 0 0 15.604657
-1.1541219 -6.6652699 3.4591253 0 0 0 0 15.609604
-0.54787242 -6.9019184 3.1460996 0 0 0 0 15.614552
-0.71186882 -6.8477492 3.2645459 0 0 0 0 15.619498
-0.8637929 -6.7916555 3.3700483 0 0 0 0 15.624445
-1.0157113 -6.7325754 3.4805586 0 0 0 0 15.629393
-0.38795915 -7.0085015 3.202523 0 0 0 0 15.634338
-0.55766338 -6.9292402 3.3050086 0 0 0 0 15.639286
-0.71749932 -6.8670559 3.4024935 0 0 0 0 15.644234
-0.87643164 -6.8109069 3.5099671 0 0 0 0 15.649179
-0.22283076 -7.0951066 3.2510176 0 0 0 0 15.654127
-0.40144247 -7.008749 3.3464837 0 0 0 0 15.659075
-0.56824386 -6.9454885 3.437942 0 0 0 0 15.664021
-0.73209256 -6.8832784 3.5384107 0 0 0 0 15.668968
-0.054748502 -7.1847482 3.3045158 0 0 0 0 15.673915
-0.24138786 -7.1033101 3.3959363 0 0 0 0 15.678862
-0.41606572 -7.0299597 3.479387 0 0 0 0 15.683809
-0.58676517 -6.9566584 3.5678549 0 0 0 0 15.688756
0.12018134 -7.2874713 3.3670089 0 0 0 0 15.693703
-0.079290785 -7.1928887 3.4464087 0 0 0 0 15.69865
-0.26086375 -7.112452 3.5198486 0 0 0 0 15.703597
-0.43850195 -7.0350747 3.6022978 0 0 0 0 15.708544
0.29717126 -7.3842072 3.4285247 0 0 0 0 15.713491
0.08896298 -7.2675056 3.4919436 0 0 0 0 15.718438
-0.10164178 -7.1919827 3.5623336 0 0 0 0 15.723385
-0.28721514 -7.1115127 3.6357574 0 0 0 0 15.728333
0.48211053 -7.4850206 3.4940622 0 0 0 0 15.733279
0.26176903 -7.3822184 3.5593956 0 0 0 0 15.738226
0.060489509 -7.2795491 3.6098092 0 0 0 0 15.743174
-0.13207161 -7.2000055 3.6782019 0 0 0 0 15.74812
0.6699602 -7.5928745 3.5665927 0 0 0 0 15.753067
0.43867034 -7.487956 3.6238859 0 0 0 0 15.758015
0.22854383 -7.3731809 3.6632934 0 0 0 0 15.76296
0.024091635 -7.2865047 3.7206545 0 0 0 0 15.767908
0.86770242 -7.7098312 3.6461408 0 0 0 0 15.772855
0.61972827 -7.5787144 3.6834304 0 0 0 0 15.777802
0.39844632 -7.4808445 3.7237487 0 0 0 0 15.782749
0.18607229 -7.3890786 3.7730896 0 0 0 0 15.787696
1.0646677 -7.8057566 3.7177374 0 0 0 0 15.792644
0.80851597 -7.6935744 3.7569451 0 0 0 0 15.79759
0.57649207 -7.5745664 3.7802722 0 0 0 0 15.802537
0.35227934 -7.4706635 3.8165946 0 0 0 0 15.807484
1.2743633 -7.9248328 3.8053274 0 0 0 0 15.812431
1.0004692 -7.7924457 3.8255124 0 0 0 0 15.817378
0.7583735 -7.6823454 3.8467753 0 0 0 0 15.822325
0.52525598 -7.5723391 3.873076 0 0 0 0 15.827272
1.4909915 -8.0499773 3.8969297 0 0 0 0 15.832219
1.2031881 -7.9114451 3.9080725 0 0 0 0 15.837166
0.94437164 -7.7791467 3.9093215 0 0 0 0 15.842113
0.69944978 -7.6539979 3.9206119 0 0 0 0 15.84706
1.7194784 -8.1862516 3.9995525 0 0 0 0 15.852007
1.4109055 -8.030489 3.9916518 0 0 0 0 15.856954
1.1401838 -7.8920598 3.9828672 0 0 0 0 15.861901
0.88151425 -7.7467446 3.9761512 0 0 0 0 15.866848
1.95682 -8.3346262 4.1121798 0 0 0 0 15.871795
1.6294688 -8.1616545 4.087245 0 0 0 0 15.876742
1.3419461 -8.0090332 4.0604262 0 0 0 0 15.881689
1.0703357 -7.8615794 4.0436621 0 0 0 0 15.886636
2.1974239 -8.4580002 4.2158818 0 0 0 0 15.891583
1.8521401 -8.2828417 4.1788788 0 0 0 0 15.89653
1.551694 -8.1260834 4.1420169 0 0 0 0 15.901477
1.2660904 -7.9814873 4.1171875 0 0 0 0 15.906425
2.4615195 -8.6266489 4.3465667 0 0 0 0 15.911371
2.0876133 -8.4211702 4.2825208 0 0 0 0 15.916318
1.7683618 -8.2502031 4.2286172 0 0 0 0 15.921265
1.4650922 -8.0783939 4.1807833 0 0 0 0 15.926212
2.7326763 -8.7883577 4.4782968 0 0 0 0 15.931159
2.3369334 -8.5716476 4.3981886 0 0 0 0 15.936106
1.9920808 -8.3683834 4.3162608 0 0 0 0 15.941053
1.677752 -8.2054663 4.2633591 0 0 0 0 15.946
3.0051429 -8.9200459 4.6001058 0 0 0 0 15.950947
2.5913405 -8.7131624 4.5128984 0 0 0 0 15.955894
2.2286072 -8.5027065 4.4169149 0 0 0 0 15.960841
1.8954369 -8.3295822 4.3469605 0 0 0 0 15.965788
3.3026175 -9.090456 4.7479239 0 0 0 0 15.726906
2.8639061 -8.8832655 4.6455941 0 0 0 0 15.731853
2.4774063 -8.6585093 4.53053 0 0 0 0 15.7368
2.1206846 -8.4510612 4.4315491 0 0 0 0 15.741747
3.6174409 -9.2746449 4.9087877 0 0 0 0 15.746695
3.1519027 -9.0571671 4.7863722 0 0 0 0 15.751641
2.7328796 -8.7940378 4.6382685 0 0 0 0 15.756588
2.3601282 -8.5934296 4.5312037 0 0 0 0 15.761536
3.9082921 -9.3644991 5.0257864 0 0 0 0 15.766481
3.446058 -9.2151098 4.9242139 0 0 0 0 15.771429
3.0089645 -8.9638004 4.7670059 0 0 0 0 15.776376
2.6076505 -8.7278624 4.6299109 0 0 0 0 15.781323
4.1466475 -9.3176966 5.0739074 0 0 0 0 15.78627
3.7259526 -9.3048382 5.0311666 0 0 0 0 15.791217
3.3009048 -9.1447296 4.9077797 0 0 0 0 15.796165
2.8650613 -8.8723946 4.734632 0 0 0 0 15.801111
4.3781958 -9.2528086 5.1140442 0 0 0 0 15.806058
3.958261 -9.2669611 5.0712385 0 0 0 0 15.811005
3.5756752 -9.2504015 5.0106688 0 0 0 0 15.815952
3.1471074 -9.0472031 4.8633785 0 0 0 0 15.820899
4.6068535 -9.1768827 5.151195 0 0 0 0 15.825846
4.1847715 -9.2100077 5.103334 0 0 0 0 15.830793
3.8078849 -9.2245169 5.0487103 0 0 0 0 15.83574
3.4323595 -9.2030134 4.9841852 0 0 0 0 15.840687
4.8355455 -9.0959568 5.1903577 0 0 0 0 15.845634
4.4191189 -9.1661482 5.1464276 0 0 0 0 15.850581
4.0411119 -9.1966381 5.08676 0 0 0 0 15.855528
3.6780272 -9.2302942 5.0391479 0 0 0 0 15.860476
5.0622463 -9.0130148 5.2315159 0 0 0 0 15.865422
4.6574883 -9.1183262 5.1925464 0 0 0 0 15.870369
4.2734222 -9.1597433 5.1238265 0 0 0 0 15.875316
3.9121954 -9.2114077 5.0721779 0 0 0 0 15.880263
5.2909675 -8.9270878 5.2736888 0 0 0 0 15.88521
4.8674359 -9.0181751 5.2106776 0 0 0 0 15.890157
4.5087504 -9.1198759 5.1629124 0 0 0 0 15.895104
4.1493115 -9.1955605 5.1112103 0 0 0 0 15.900051
