# .PCD v0.7 - Point Cloud Data file format
VERSION 0.7
FIELDS x y z normal_x normal_y normal_z intensity curvature
SIZE 4 4 4 4 4 4 4 4
TYPE F F F F F F F F
COUNT 1 1 1 1 1 1 1 1
WIDTH 973
HEIGHT 1
VIEWPOINT 0 0 0 1 0 0 0
POINTS 973
DATA ascii
-0.015596475 -4.901885 2.8065391 0 0 0 0 60.314835
-0.17260252 -4.9656978 2.7942307 0 0 0 0 60.319786
-0.32520205 -5.0453501 2.7890475 0 0 0 0 60.32473
-0.49382389 -5.1254711 2.7866983 0 0 0 0 60.329681
0.090208754 -4.8478179 2.779438 0 0 0 0 60.334625
-0.061836436 -4.9085097 2.7621646 0 0 0 0 60.339569
-0.20657437 -4.9799776 2.7470212 0 0 0 0 60.344521
-0.36808568 -5.0619144 2.7397547 0 0 0 0 60.349464
0.19297154 -4.793817 2.7563066 0 0 0 0 60.354416
0.048027504 -4.8553348 2.7321105 0 0 0 0 60.35936
-0.091888115 -4.9177036 2.7079709 0 0 0 0 60.364311
-0.24518967 -5.005415 2.6978183 0 0 0 0 60.369255
0.29395184 -4.7488418 2.7382038 0 0 0 0 60.374199
0.15287106 -4.8022966 2.7040062 0 0 0 0 60.37915
0.021054925 -4.8664455 2.6759593 0 0 0 0 60.384094
-0.12657398 -4.9390454 2.653789 0 0 0 0 60.389046
0.39259332 -4.68997 2.7120073 0 0 0 0 60.39399
0.25777149 -4.7522368 2.6789191 0 0 0 0 60.398933
0.12984739 -4.8103056 2.6438813 0 0 0 0 60.403885
-0.0098902043 -4.87572 2.6117563 0 0 0 0 60.408829
0.49061984 -4.6480556 2.6978915 0 0 0 0 60.41378
0.35956141 -4.6982698 2.6527805 0 0 0 0 60.418724
0.23673844 -4.7582088 2.6138051 0 0 0 0 60.423668
0.10287213 -4.8164887 2.5737045 0 0 0 0 60.428619
0.58651572 -4.6012092 2.6817298 0 0 0 0 60.433563
0.45930958 -4.6433539 2.6276174 0 0 0 0 60.438515
0.34268719 -4.7091212 2.5867352 0 0 0 0 60.443459
0.21283211 -4.7663031 2.5426705 0 0 0 0 60.44841
0.67901188 -4.5384974 2.6574531 0 0 0 0 60.453354
0.55828464 -4.5984249 2.609498 0 0 0 0 60.458298
0.44548452 -4.6551228 2.5596094 0 0 0 0 60.463249
0.32143065 -4.7021799 2.5055535 0 0 0 0 60.468193
0.77215368 -4.5026879 2.6493206 0 0 0 0 60.473145
0.65518928 -4.5505629 2.5893431 0 0 0 0 60.478088
0.54623997 -4.6001754 2.5334585 0 0 0 0 60.483032
0.4283672 -4.6520662 2.4764912 0 0 0 0 60.487984
0.86511356 -4.4598932 2.6381521 0 0 0 0 60.492928
0.7489422 -4.4977899 2.5691316 0 0 0 0 60.497879
0.64612418 -4.5502415 2.509325 0 0 0 0 60.502823
0.53325158 -4.6009989 2.4494038 0 0 0 0 60.507774
0.95391309 -4.4112282 2.6249113 0 0 0 0 60.512718
0.84510142 -4.4618936 2.5590322 0 0 0 0 60.517662
0.74619472 -4.5092587 2.4932404 0 0 0 0 60.522614
0.6370936 -4.5489521 2.4233019 0 0 0 0 60.527557
1.0438801 -4.3695054 2.6157191 0 0 0 0 60.532509
0.93904024 -4.4170833 2.5438654 0 0 0 0 60.537453
0.84202576 -4.4584274 2.4710622 0 0 0 0 60.542397
0.73917466 -4.5069265 2.4032335 0 0 0 0 60.547348
1.1317052 -4.3228464 2.6054807 0 0 0 0 60.552292
1.0298574 -4.3683619 2.5286472 0 0 0 0 60.557243
0.94007272 -4.4174867 2.456959 0 0 0 0 60.562187
0.83997357 -4.4539576 2.3780978 0 0 0 0 60.567131
1.2175491 -4.2772393 2.5962276 0 0 0 0 60.572083
1.1218117 -4.325583 2.517472 0 0 0 0 60.577026
1.0338891 -4.3676872 2.4387674 0 0 0 0 60.581978
0.93885058 -4.4050231 2.3569634 0 0 0 0 60.586922
1.3066299 -4.2415013 2.5930603 0 0 0 0 60.591873
1.2116652 -4.278872 2.5042562 0 0 0 0 60.596817
1.1266538 -4.3159194 2.4195561 0 0 0 0 60.601761
1.0379055 -4.3640494 2.3418727 0 0 0 0 60.606712
1.3903798 -4.1929483 2.5837724 0 0 0 0 60.611656
1.2973071 -4.2242985 2.4879572 0 0 0 0 60.616608
1.2205546 -4.2710791 2.4073932 0 0 0 0 60.621552
1.1335583 -4.3072114 2.3186667 0 0 0 0 60.626495
1.475093 -4.1548996 2.5804613 0 0 0 0 60.336037
1.3892453 -4.1949887 2.4867747 0 0 0 0 60.340981
1.3122029 -4.2288055 2.3941491 0 0 0 0 60.345924
1.2280744 -4.2598357 2.301435 0 0 0 0 60.350876
1.5589528 -4.11134 2.5761943 0 0 0 0 60.35582
1.476037 -4.1473675 2.4775174 0 0 0 0 60.360771
1.400877 -4.1751585 2.3788807 0 0 0 0 60.365715
1.3229078 -4.2110124 2.2852545 0 0 0 0 60.370659
1.6428304 -4.0687714 2.5729337 0 0 0 0 60.37561
1.5607387 -4.09582 2.4652195 0 0 0 0 60.380554
1.4928356 -4.1333761 2.3707075 0 0 0 0 60.385506
1.4199766 -4.1720891 2.2751489 0 0 0 0 60.39045
1.7256463 -4.02423 2.5696533 0 0 0 0 60.395401
1.6508327 -4.0610538 2.4640641 0 0 0 0 60.400345
1.5847623 -4.09059 2.3625302 0 0 0 0 60.405289
1.5127063 -4.1203136 2.2599342 0 0 0 0 60.41024
1.8095682 -3.9846315 2.5704103 0 0 0 0 60.415184
1.7356377 -4.0154595 2.4587996 0 0 0 0 60.420135
1.6746172 -4.0458565 2.3553228 0 0 0 0 60.425079
1.6086906 -4.0794029 2.2518098 0 0 0 0 60.430023
1.8934479 -3.944025 2.5721631 0 0 0 0 60.434975
1.8214099 -3.9688327 2.4535413 0 0 0 0 60.439919
1.7665886 -4.0060401 2.3511636 0 0 0 0 60.44487
1.7014844 -4.0315919 2.2416186 0 0 0 0 60.449814
1.973208 -3.8985529 2.5708489 0 0 0 0 60.454765
1.9083492 -3.9291475 2.4523315 0 0 0 0 60.459709
1.8553495 -3.9583297 2.3439319 0 0 0 0 60.464653
1.7932161 -3.9818079 2.2314074 0 0 0 0 60.469604
2.0601912 -3.8628254 2.5766613 0 0 0 0 60.474548
1.9941162 -3.8834965 2.4500804 0 0 0 0 60.4795
1.9462363 -3.9165263 2.341754 0 0 0 0 60.484444
1.8838856 -3.9300513 2.2211759 0 0 0 0 60.489388
2.1409061 -3.8163111 2.5763543 0 0 0 0 60.494339
2.0789013 -3.8388665 2.4488251 0 0 0 0 60.499283
2.0350022 -3.8697972 2.3365295 0 0 0 0 60.504234
1.9809395 -3.8940556 2.220093 0 0 0 0 60.509178
2.2226868 -3.7737355 2.5810795 0 0 0 0 60.514122
2.1667616 -3.7981193 2.4516232 0 0 0 0 60.519073
2.1258335 -3.8269761 2.3363483 0 0 0 0 60.524017
2.070504 -3.8393168 2.2108376 0 0 0 0 60.528969
2.3085833 -3.7360172 2.5888736 0 0 0 0 60.533913
2.2514412 -3.7504778 2.4513538 0 0 0 0 60.538864
2.2155633 -3.7801931 2.3341362 0 0 0 0 60.543808
2.1653626 -3.7973709 2.2107038 0 0 0 0 60.548752
2.3913591 -3.6934035 2.5936112 0 0 0 0 60.553703
2.3351388 -3.7038569 2.4520802 0 0 0 0 60.558647
2.30532 -3.7353899 2.3349359 0 0 0 0 60.563599
2.2570007 -3.746541 2.2054925 0 0 0 0 60.568542
2.4720325 -3.6478431 2.599313 0 0 0 0 60.573486
2.4322367 -3.6747632 2.4660387 0 0 0 0 60.578438
2.3961136 -3.6925409 2.3377576 0 0 0 0 60.583382
2.3507342 -3.7006185 2.2053294 0 0 0 0 60.588333
2.5578411 -3.6081038 2.6090996 0 0 0 0 60.593277
2.5168889 -3.6270993 2.4677727 0 0 0 0 60.598221
2.481596 -3.6378713 2.3354647 0 0 0 0 60.603172
2.4465046 -3.6566198 2.2071989 0 0 0 0 60.608116
2.6425571 -3.565392 2.6188607 0 0 0 0 60.613068
2.599438 -3.5764885 2.4704702 0 0 0 0 60.618011
2.5774317 -3.5978398 2.3423564 0 0 0 0 60.622963
2.54422 -3.611546 2.2110851 0 0 0 0 60.627907
2.7262211 -3.5207129 2.6276019 0 0 0 0 60.632851
2.6922293 -3.5365238 2.4813318 0 0 0 0 60.637802
2.6659763 -3.5470433 2.3451176 0 0 0 0 60.642746
2.6398838 -3.5645347 2.2139406 0 0 0 0 60.647697
2.8139601 -3.4798856 2.6404068 0 0 0 0 60.652641
2.7860076 -3.4965189 2.4932051 0 0 0 0 60.657585
2.7586465 -3.5020921 2.3529537 0 0 0 0 60.662537
2.7354741 -3.5155149 2.2177868 0 0 0 0 60.66748
2.8996267 -3.4371111 2.6541812 0 0 0 0 60.672432
2.872556 -3.4477479 2.500958 0 0 0 0 60.677376
2.8542516 -3.4550459 2.3608112 0 0 0 0 60.682327
2.831001 -3.4644914 2.2216232 0 0 0 0 60.687271
2.9882696 -3.3932467 2.6669829 0 0 0 0 60.692215
2.965198 -3.4037616 2.5138011 0 0 0 0 60.697166
2.9488447 -3.4080207 2.3696599 0 0 0 0 60.70211
2.9254348 -3.4104955 2.2254343 0 0 0 0 60.707062
3.079967 -3.3532536 2.6858377 0 0 0 0 60.712006
3.0588067 -3.358741 2.5266507 0 0 0 0 60.716949
3.0433636 -3.3589871 2.3794982 0 0 0 0 60.721901
3.0311306 -3.3681073 2.2384257 0 0 0 0 60.726845
3.1675038 -3.3064072 2.699615 0 0 0 0 60.731796
3.1441648 -3.3039908 2.534364 0 0 0 0 60.73674
3.1449759 -3.314707 2.3944383 0 0 0 0 60.741684
3.1336133 -3.3178246 2.2483437 0 0 0 0 60.746635
3.2590744 -3.2624075 2.7184508 0 0 0 0 60.751579
3.2478817 -3.2656062 2.5563579 0 0 0 0 60.756531
3.2444248 -3.2644961 2.407326 0 0 0 0 60.761475
3.2319429 -3.2626626 2.2581944 0 0 0 0 60.766426
3.3587077 -3.222131 2.742393 0 0 0 0 60.77137
3.3443582 -3.2174664 2.5722258 0 0 0 0 60.776314
3.3428612 -3.2143061 2.4212043 0 0 0 0 60.781265
3.3434944 -3.2170568 2.2752361 0 0 0 0 60.786209
3.4532201 -3.1770205 2.763257 0 0 0 0 60.791161
3.4448485 -3.1711779 2.5921476 0 0 0 0 60.796104
3.4462605 -3.1639431 2.4381363 0 0 0 0 60.801048
3.4437151 -3.1588199 2.286094 0 0 0 0 60.806
3.5458877 -3.1290536 2.7820237 0 0 0 0 60.566284
3.5475664 -3.1258848 2.6130352 0 0 0 0 60.571228
3.5478261 -3.1126962 2.4549823 0 0 0 0 60.57618
3.547157 -3.1025267 2.2989347 0 0 0 0 60.581123
3.644316 -3.0818264 2.8059137 0 0 0 0 60.586075
3.6499536 -3.0765471 2.6349566 0 0 0 0 60.591019
3.6521037 -3.05832 2.4728978 0 0 0 0 60.595963
3.660531 -3.0518644 2.3189654 0 0 0 0 60.600914
3.7467685 -3.0364566 2.8328569 0 0 0 0 60.605858
3.7532468 -3.0241752 2.6568732 0 0 0 0 60.610809
3.7705691 -3.0134573 2.5010135 0 0 0 0 60.615753
3.7717113 -2.9942715 2.3369393 0 0 0 0 60.620697
3.8470581 -2.9851561 2.8577485 0 0 0 0 60.625648
3.8585148 -2.9717274 2.6808119 0 0 0 0 60.630592
3.8786962 -2.9549406 2.5209517 0 0 0 0 60.635544
3.8898933 -2.9384334 2.3599977 0 0 0 0 60.640488
3.9452851 -2.9319122 2.8826098 0 0 0 0 60.645439
3.964658 -2.915246 2.7047408 0 0 0 0 60.650383
3.9847496 -2.8944759 2.5418596 0 0 0 0 60.655327
4.0110493 -2.8824878 2.3850892 0 0 0 0 60.660278
4.0525322 -2.881357 2.9135818 0 0 0 0 60.665222
4.0758333 -2.8615801 2.7337389 0 0 0 0 60.670174
4.1120172 -2.8452933 2.5760517 0 0 0 0 60.675117
4.137157 -2.826364 2.4142337 0 0 0 0 60.680061
4.1566777 -2.8269005 2.9425027 0 0 0 0 60.685013
4.1980586 -2.8115406 2.7688746 0 0 0 0 60.689957
4.2300448 -2.7864146 2.6040981 0 0 0 0 60.694908
4.2610712 -2.7633083 2.4413216 0 0 0 0 60.699852
4.2779279 -2.7798548 2.9836447 0 0 0 0 60.704796
4.3171411 -2.7565942 2.8029535 0 0 0 0 60.709747
4.3448482 -2.719636 2.6300712 0 0 0 0 60.714691
4.388958 -2.7001143 2.4704528 0 0 0 0 60.719643
4.3889399 -2.7221596 3.015625 0 0 0 0 60.724586
4.4381161 -2.6985769 2.8380387 0 0 0 0 60.729538
4.4778156 -2.6622353 2.6682878 0 0 0 0 60.734482
4.5318494 -2.6404021 2.5097635 0 0 0 0 60.739426
4.5028744 -2.6633475 3.0516324 0 0 0 0 60.744377
4.5660229 -2.6393251 2.8761933 0 0 0 0 60.749321
4.6197333 -2.6045322 2.7105997 0 0 0 0 60.754272
4.6705685 -2.5738294 2.5449965 0 0 0 0 60.759216
4.6278582 -2.6081605 3.0937774 0 0 0 0 60.76416
4.688755 -2.574228 2.9132643 0 0 0 0 60.769112
4.7473626 -2.5352926 2.7457023 0 0 0 0 60.774055
4.8070707 -2.5003145 2.5801725 0 0 0 0 60.779007
4.7466393 -2.5451753 3.1318188 0 0 0 0 60.783951
4.8275242 -2.5125968 2.9575262 0 0 0 0 60.788902
4.9011006 -2.474174 2.7951272 0 0 0 0 60.793846
4.9677038 -2.4349918 2.6276498 0 0 0 0 60.79879
4.8713412 -2.4809806 3.1739182 0 0 0 0 60.803741
4.9611378 -2.4461145 3.0017102 0 0 0 0 60.808685
5.0405598 -2.4015243 2.8363423 0 0 0 0 60.813637
5.116025 -2.3580606 2.6699386 0 0 0 0 60.818581
5.0070705 -2.4203992 3.2241561 0 0 0 0 60.823524
5.0955749 -2.3736031 3.0448737 0 0 0 0 60.828476
5.1828585 -2.3247619 2.880569 0 0 0 0 60.83342
5.2793102 -2.2826197 2.720397 0 0 0 0 60.838371
5.1405835 -2.3518915 3.2713315 0 0 0 0 60.843315
5.2409687 -2.3017161 3.0941596 0 0 0 0 60.848259
5.3431401 -2.250392 2.9340026 0 0 0 0 60.85321
5.4484434 -2.2029779 2.7728992 0 0 0 0 60.858154
5.2860518 -2.2849619 3.3276451 0 0 0 0 60.863106
5.3922195 -2.2266183 3.1474941 0 0 0 0 60.86805
5.5062404 -2.1709142 2.9894421 0 0 0 0 60.873001
5.610301 -2.1135635 2.8222752 0 0 0 0 60.877945
5.4314036 -2.2140317 3.3829386 0 0 0 0 60.882889
5.5553961 -2.151113 3.2069561 0 0 0 0 60.88784
5.6691628 -2.0854363 3.0438516 0 0 0 0 60.892784
5.7980928 -2.026273 2.8849428 0 0 0 0 60.897736
5.5815945 -2.1389272 3.4412651 0 0 0 0 60.902679
5.7163739 -2.0696592 3.2673666 0 0 0 0 60.907623
5.8529816 -2.000247 3.1094887 0 0 0 0 60.912575
5.9917216 -1.9347748 2.9506538 0 0 0 0 60.917519
5.7316165 -2.0578282 3.4975607 0 0 0 0 60.92247
5.8993206 -1.990467 3.3380268 0 0 0 0 60.927414
6.0446348 -1.9117726 3.1811957 0 0 0 0 60.932358
6.189106 -1.8361369 3.0183713 0 0 0 0 60.937309
5.9176865 -1.9864784 3.5792964 0 0 0 0 60.942253
6.081995 -1.9032589 3.4106457 0 0 0 0 60.947205
6.2280836 -1.8155601 3.2487776 0 0 0 0 60.952148
6.4083643 -1.7377435 3.0993283 0 0 0 0 60.9571
6.0874062 -1.8996876 3.647779 0 0 0 0 60.962044
6.2624702 -1.8091177 3.4812076 0 0 0 0 60.966988
6.44031 -1.7163774 3.3296564 0 0 0 0 60.971939
6.6323252 -1.6301842 3.1812918 0 0 0 0 60.976883
6.2650208 -1.8116109 3.7223425 0 0 0 0 60.981834
6.474813 -1.7158955 3.5681198 0 0 0 0 60.986778
6.6683531 -1.6146395 3.4206953 0 0 0 0 60.991722
6.8729801 -1.5150559 3.2703991 0 0 0 0 60.996674
6.4554458 -1.720084 3.8050287 0 0 0 0 61.001617
6.6778789 -1.6129614 3.6518853 0 0 0 0 61.006569
6.8890457 -1.5001388 3.5065928 0 0 0 0 61.011513
7.1213436 -1.3926409 3.3655555 0 0 0 0 61.016464
6.6606579 -1.6240495 3.8948541 0 0 0 0 61.021408
6.9006763 -1.5043548 3.7448368 0 0 0 0 61.026352
7.1395025 -1.383612 3.6098037 0 0 0 0 61.031303
7.3823915 -1.2617897 3.4658086 0 0 0 0 61.036247
6.8654547 -1.5223259 3.9831984 0 0 0 0 60.774406
7.1320963 -1.392818 3.8433976 0 0 0 0 60.779358
7.4065113 -1.2609868 3.7186692 0 0 0 0 60.784302
7.6769948 -1.1273373 3.5818901 0 0 0 0 60.789253
7.0882421 -1.4147426 4.0831404 0 0 0 0 60.794197
7.3874402 -1.2741644 3.9546328 0 0 0 0 60.799141
7.6843977 -1.1295903 3.8370829 0 0 0 0 60.804092
7.9803014 -0.97812337 3.7044866 0 0 0 0 60.809036
7.328752 -1.3025316 4.1962514 0 0 0 0 60.813988
7.6514215 -1.1461904 4.0729165 0 0 0 0 60.818932
7.9728189 -0.98482311 3.9605446 0 0 0 0 60.823875
8.3341427 -0.82121408 3.8505883 0 0 0 0 60.828827
7.5789523 -1.1809955 4.3114214 0 0 0 0 60.833771
7.9390192 -1.009414 4.2024117 0 0 0 0 60.838722
8.305769 -0.83155525 4.105444 0 0 0 0 60.843666
8.6764603 -0.6466493 3.9934819 0 0 0 0 60.84861
7.851799 -1.0526714 4.4408031 0 0 0 0 60.853561
8.2511911 -0.86279762 4.3441238 0 0 0 0 60.858505
8.650259 -0.6658718 4.2574081 0 0 0 0 60.863457
9.0830841 -0.45892575 4.1660018 0 0 0 0 60.868401
8.1423073 -0.91673237 4.580339 0 0 0 0 60.873352
8.5759134 -0.70472515 4.4949169 0 0 0 0 60.878296
9.0351048 -0.48581392 4.4297357 0 0 0 0 60.88324
9.4811401 -0.25244758 4.3363395 0 0 0 0 60.888191
8.4233828 -0.76509428 4.7136974 0 0 0 0 60.893135
8.9470167 -0.53407723 4.6691475 0 0 0 0 60.898087
9.4194269 -0.28973421 4.6039815 0 0 0 0 60.90303
9.9493313 -0.028601604 4.5403471 0 0 0 0 60.907974
8.7520018 -0.60782212 4.8755412 0 0 0 0 60.912926
9.2987118 -0.34804478 4.8350959 0 0 0 0 60.91787
9.8569155 -0.074851677 4.8037076 0 0 0 0 60.922821
10.471523 0.21908535 4.7708187 0 0 0 0 60.927765
9.1150303 -0.43736824 5.0556922 0 0 0 0 60.932716
9.6887617 -0.14769611 5.0213881 0 0 0 0 60.93766
10.350568 0.15696189 5.0349565 0 0 0 0 60.942604
11.059594 0.49301201 5.0328717 0 0 0 0 60.947556
9.5004559 -0.2511375 5.2470083 0 0 0 0 60.952499
10.1608 0.071445659 5.251472 0 0 0 0 60.957451
10.8941 0.41747895 5.2896023 0 0 0 0 60.962395
11.716249 0.80129248 5.3304954 0 0 0 0 60.967339
9.9281664 -0.050432883 5.4647107 0 0 0 0 60.97229
10.66297 0.31363449 5.496768 0 0 0 0 60.977234
11.49848 0.70508492 5.5757713 0 0 0 0 60.982185
12.443331 1.1499755 5.6606789 0 0 0 0 60.987129
10.411957 0.17019944 5.7129211 0 0 0 0 60.992073
11.264791 0.58223045 5.7960095 0 0 0 0 60.997025
12.210061 1.033349 5.9168959 0 0 0 0 61.001968
13.253648 1.5415238 6.0345497 0 0 0 0 61.00692
10.922877 0.41378829 5.9763131 0 0 0 0 61.011864
11.879586 0.881311 6.1022429 0 0 0 0 61.016815
12.951361 1.3966837 6.2761707 0 0 0 0 61.021759
14.200368 1.9967074 6.4725757 0 0 0 0 61.026703
11.491666 0.6833812 6.2722025 0 0 0 0 61.031654
12.59072 1.2167114 6.4623375 0 0 0 0 61.036598
13.806449 1.8129152 6.6934118 0 0 0 0 61.04155
15.487413 2.5523937 7.0727725 0 0 0 0 61.046494
12.149913 0.98705214 6.6168914 0 0 0 0 61.051437
13.366225 1.5933477 6.8569255 0 0 0 0 61.056389
14.807872 2.291158 7.1859274 0 0 0 0 61.061333
15.528966 2.9374838 7.114409 0 0 0 0 61.066284
12.830109 1.3185436 6.9786835 0 0 0 0 61.071228
14.246549 2.0216091 7.309392 0 0 0 0 61.076172
15.504811 2.7622581 7.5382009 0 0 0 0 61.081123
15.370485 3.2848902 7.0690756 0 0 0 0 61.086067
13.603323 1.6982405 7.3892426 0 0 0 0 61.091019
15.407705 2.5384529 7.9074526 0 0 0 0 61.095963
15.342727 3.1014709 7.4788685 0 0 0 0 61.100914
15.227892 3.6318426 7.0349116 0 0 0 0 61.105858
14.563615 2.1383824 7.9055262 0 0 0 0 61.110802
15.31936 2.8790779 7.8719082 0 0 0 0 61.115753
15.198601 3.4373031 7.4327421 0 0 0 0 61.120697
14.814669 3.9066973 6.8791833 0 0 0 0 61.125648
15.318617 2.5886149 8.3125477 0 0 0 0 61.130592
15.183579 3.2061257 7.8189163 0 0 0 0 61.135536
15.0258 3.7651794 7.3763423 0 0 0 0 61.140488
14.656563 4.237134 6.8439245 0 0 0 0 61.145432
15.201067 2.9111829 8.2517738 0 0 0 0 61.150383
15.053791 3.5313802 7.7709937 0 0 0 0 61.155327
14.661728 4.0325818 7.2291746 0 0 0 0 61.160278
14.525069 4.5744834 6.824914 0 0 0 0 61.165222
15.075672 3.227509 8.1929436 0 0 0 0 61.170166
14.655416 3.7885029 7.5865035 0 0 0 0 61.175117
14.528764 4.3568125 7.1982136 0 0 0 0 61.180061
14.36112 4.8967538 6.7956247 0 0 0 0 61.185013
14.929507 3.5391257 8.123908 0 0 0 0 61.189957
14.558457 4.1099014 7.5649467 0 0 0 0 61.194901
14.402706 4.6812911 7.1743226 0 0 0 0 61.199852
14.318363 5.2581353 6.8264446 0 0 0 0 61.204796
14.563437 3.7862372 7.9408107 0 0 0 0 61.209747
14.347046 4.3993955 7.4843068 0 0 0 0 61.214691
14.247059 4.9947863 7.1411624 0 0 0 0 61.219635
14.706974 5.7991877 7.0680223 0 0 0 0 61.224586
14.42151 4.0860157 7.8818717 0 0 0 0 61.22953
14.268659 4.7294383 7.4758992 0 0 0 0 61.234482
14.298018 5.3843226 7.2128515 0 0 0 0 61.239426
14.561163 6.1401496 7.0608244 0 0 0 0 61.244377
14.255241 4.3970957 7.8226876 0 0 0 0 62.070076
14.147774 5.0610275 7.4599586 0 0 0 0 62.07502
14.412935 6.4982486 7.0653129 0 0 0 0 62.084915
14.166223 4.7106261 7.7981658 0 0 0 0 62.089859
14.270493 6.844234 7.0680137 0 0 0 0 62.104706
14.095689 5.0348387 7.7887907 0 0 0 0 62.10965
14.071216 7.1612239 7.0452247 0 0 0 0 62.124489
13.924954 7.4981084 7.0549216 0 0 0 0 62.144279
13.739407 7.8176117 7.0472641 0 0 0 0 62.16407
14.303248 6.1985273 8.0163517 0 0 0 0 62.169014
13.588964 8.1573772 7.0618882 0 0 0 0 62.183853
13.448987 8.5095444 7.0875607 0 0 0 0 62.203644
13.277676 8.8446083 7.0999651 0 0 0 0 62.223434
13.615547 7.8671789 7.6271033 0 0 0 0 62.233322
13.09858 9.1724081 7.1123161 0 0 0 0 62.243217
12.923235 9.5043764 7.1336818 0 0 0 0 62.263008
12.751589 9.8434906 7.1600466 0 0 0 0 62.282799
12.896512 9.5377502 7.4194279 0 0 0 0 62.297638
12.567183 10.175167 7.1843014 0 0 0 0 62.302582
12.02846 10.208055 7.0101395 0 0 0 0 62.322372
11.691375 10.401198 6.9503937 0 0 0 0 62.342163
11.917561 10.152094 7.2053881 0 0 0 0 62.357002
11.525437 10.741557 6.9947934 0 0 0 0 62.361946
11.648683 10.391625 7.17416 0 0 0 0 62.376785
11.305131 11.038975 7.0138016 0 0 0 0 62.381737
12.650632 9.6946516 7.819355 0 0 0 0 62.386681
11.481985 10.727888 7.2075677 0 0 0 0 62.396576
11.130959 11.383093 7.0650768 0 0 0 0 62.40152
11.625362 10.356394 7.3502798 0 0 0 0 62.411415
11.27189 11.020595 7.2207112 0 0 0 0 62.416367
10.979519 11.759077 7.136435 0 0 0 0 62.42131
11.449401 10.675243 7.3666697 0 0 0 0 62.431206
11.105568 11.370931 7.2660365 0 0 0 0 62.43615
10.803632 12.119216 7.2015948 0 0 0 0 62.441101
11.675723 10.270541 7.5275083 0 0 0 0 62.446045
11.229829 10.957521 7.3617554 0 0 0 0 62.450996
10.934262 11.719114 7.3143125 0 0 0 0 62.45594
10.679026 12.549286 7.3069577 0 0 0 0 62.460884
11.468153 10.557147 7.5107069 0 0 0 0 62.465836
11.056148 11.293507 7.3900695 0 0 0 0 62.470779
10.76348 12.078366 7.3715296 0 0 0 0 62.475731
10.924924 13.459252 7.6829519 0 0 0 0 62.480675
11.24202 10.832089 7.486752 0 0 0 0 62.485626
10.873607 11.624198 7.4193053 0 0 0 0 62.49057
10.644757 12.513593 7.4709258 0 0 0 0 62.495514
11.087987 11.178717 7.5152273 0 0 0 0 62.505409
10.761464 12.046554 7.5048456 0 0 0 0 62.510361
10.907228 13.433161 7.8540549 0 0 0 0 62.515305
10.903802 11.503259 7.5294724 0 0 0 0 62.5252
10.598132 12.422039 7.5610495 0 0 0 0 62.530144
10.78157 11.89591 7.5897331 0 0 0 0 62.255119
10.963814 13.445083 8.0045385 0 0 0 0 62.260063
10.664629 12.319075 7.6652417 0 0 0 0 62.274902
9.1110525 16.69544 8.5126514 0 0 0 0 62.383736
7.995667 17.416733 8.4842014 0 0 0 0 62.40847
9.1284132 16.68063 8.5450335 0 0 0 0 62.418365
7.6586022 17.742582 8.554677 0 0 0 0 62.428261
8.0009785 17.397566 8.5304508 0 0 0 0 62.4431
7.3779473 18.214766 8.6999998 0 0 0 0 62.448051
9.2333078 16.656576 8.5614567 0 0 0 0 62.452995
7.6676412 17.734478 8.5918999 0 0 0 0 62.462891
7.0720582 18.665056 8.8371458 0 0 0 0 62.467834
8.0199146 17.406582 8.5286989 0 0 0 0 62.47773
7.3795667 18.195282 8.7161922 0 0 0 0 62.482681
6.8093743 19.267258 9.0489597 0 0 0 0 62.487625
7.6765919 17.720007 8.5661526 0 0 0 0 62.49752
7.0885816 18.67808 8.8553247 0 0 0 0 62.502464
6.5202937 19.879602 9.2624102 0 0 0 0 62.507416
8.1069489 17.364594 8.4919949 0 0 0 0 62.51236
7.3873835 18.18771 8.6803865 0 0 0 0 62.517311
6.8033485 19.246319 9.0330553 0 0 0 0 62.522255
6.1730013 20.362642 9.4198828 0 0 0 0 62.527199
7.7502017 17.668415 8.5043402 0 0 0 0 62.53215
7.0840173 18.658943 8.7954321 0 0 0 0 62.537094
6.51898 19.869762 9.2374897 0 0 0 0 62.542046
5.6423635 20.241785 9.3075075 0 0 0 0 62.546989
7.4516335 18.123665 8.5955267 0 0 0 0 62.551933
6.7984157 19.241114 8.9630737 0 0 0 0 62.556885
6.1847668 20.407312 9.4058104 0 0 0 0 62.561829
5.171072 20.323502 9.289712 0 0 0 0 62.56678
7.1442914 18.598675 8.6954985 0 0 0 0 62.571724
6.5091395 19.866295 9.1514349 0 0 0 0 62.576668
5.7156124 20.545143 9.3897343 0 0 0 0 62.581619
4.7701383 20.685425 9.4052 0 0 0 0 62.586563
6.8810582 19.255695 8.877984 0 0 0 0 62.591515
6.1579103 20.383087 9.2896624 0 0 0 0 62.596458
5.1930146 20.453527 9.2782774 0 0 0 0 62.60141
4.2384434 20.483274 9.2682276 0 0 0 0 62.606354
6.5956955 19.914986 9.0611954 0 0 0 0 62.611298
5.7951775 20.911541 9.4356861 0 0 0 0 62.616249
4.8322196 21.02832 9.4720669 0 0 0 0 62.621193
3.7229114 20.274662 9.1374664 0 0 0 0 62.626144
6.2178321 20.37459 9.1524181 0 0 0 0 62.631088
5.27671 20.900202 9.3448343 0 0 0 0 62.636032
4.302815 20.902376 9.3537006 0 0 0 0 62.640984
3.2229743 20.07658 9.0138216 0 0 0 0 62.645927
5.8921442 21.066635 9.3499727 0 0 0 0 62.650879
4.8039541 21.081947 9.3404551 0 0 0 0 62.655823
3.7765706 20.717367 9.2166824 0 0 0 0 62.660774
2.7315238 19.86375 8.8913469 0 0 0 0 62.665718
5.4939599 21.583763 9.4736328 0 0 0 0 62.670662
4.3936849 21.565722 9.4791489 0 0 0 0 62.675613
3.255959 20.514492 9.0768175 0 0 0 0 62.680557
2.2559409 19.653458 8.775034 0 0 0 0 62.685509
4.9521918 21.58456 9.3714314 0 0 0 0 62.690453
3.8436527 21.37882 9.3268595 0 0 0 0 62.695396
2.7657766 20.403929 8.9867964 0 0 0 0 62.700348
1.7111404 18.549105 8.2697573 0 0 0 0 62.705292
4.477809 21.86446 9.3994827 0 0 0 0 62.710243
3.317909 21.289026 9.2223148 0 0 0 0 62.715187
2.2716162 20.185907 8.8543043 0 0 0 0 62.720131
1.2854971 18.471867 8.2202864 0 0 0 0 62.725082
3.9212053 21.703493 9.2450047 0 0 0 0 62.476578
2.7986877 21.1057 9.0864706 0 0 0 0 62.481522
1.7922702 19.964212 8.725173 0 0 0 0 62.486465
0.86840844 18.249657 8.1158886 0 0 0 0 62.491417
3.3411255 21.385286 9.027113 0 0 0 0 62.496361
2.2916913 20.991632 8.9853067 0 0 0 0 62.501312
1.2721796 18.993217 8.2774611 0 0 0 0 62.506256
0.45398498 17.977327 7.990624 0 0 0 0 62.5112
2.7960639 21.17058 8.8660555 0 0 0 0 62.516151
1.7821552 20.811274 8.8584633 0 0 0 0 62.521095
0.83416742 18.873499 8.203105 0 0 0 0 62.526047
0.050774649 17.778589 7.9010868 0 0 0 0 62.530991
2.2792206 21.08317 8.7626276 0 0 0 0 62.535942
1.2192794 19.54096 8.2838688 0 0 0 0 62.540886
0.39849007 18.663593 8.0952549 0 0 0 0 62.54583
-0.34021488 17.573235 7.8127193 0 0 0 0 62.550781
1.7620615 20.976688 8.6542921 0 0 0 0 62.555725
0.76926887 19.637417 8.290204 0 0 0 0 62.560677
-0.023764282 18.361847 7.9520464 0 0 0 0 62.56562
-0.74160826 17.854069 7.945612 0 0 0 0 62.570564
1.249411 20.773108 8.5175238 0 0 0 0 62.575516
0.30696732 19.446615 8.1799383 0 0 0 0 62.58046
-0.43403098 18.112663 7.8366876 0 0 0 0 62.585411
-1.0158285 15.906116 7.0939512 0 0 0 0 62.590355
0.75049132 20.656231 8.4204388 0 0 0 0 62.595299
-0.14277294 19.266268 8.0797539 0 0 0 0 62.60025
-0.85929751 18.367521 7.9414363 0 0 0 0 62.605194
-1.3652523 15.843575 7.0802798 0 0 0 0 62.610146
0.25287116 20.450134 8.2908421 0 0 0 0 62.615089
-0.58016199 18.968981 7.9353356 0 0 0 0 62.620041
-1.2728381 18.309814 7.9149961 0 0 0 0 62.624985
-1.7206933 15.860082 7.1041083 0 0 0 0 62.629929
-0.23194693 20.193344 8.1506596 0 0 0 0 62.63488
-1.0182766 18.876287 7.8818002 0 0 0 0 62.639824
-1.6655161 18.042162 7.8039212 0 0 0 0 62.644775
-2.0741138 15.822483 7.1062465 0 0 0 0 62.649719
-0.7043761 19.952007 8.0215292 0 0 0 0 62.654663
-1.4861255 19.227942 8.0165186 0 0 0 0 62.659615
-1.8381774 15.947146 6.9102283 0 0 0 0 62.664558
-2.5264223 16.438709 7.4047174 0 0 0 0 62.66951
-1.17426 19.775934 7.9210696 0 0 0 0 62.674454
-1.9113963 18.977211 7.9059696 0 0 0 0 62.679405
-2.1732373 15.71651 6.8236127 0 0 0 0 62.684349
-2.5710008 14.588543 6.6041722 0 0 0 0 62.689293
-1.6252072 19.492207 7.7874031 0 0 0 0 62.694244
-2.3296475 18.725702 7.7975006 0 0 0 0 62.699188
-2.4951582 15.456199 6.7243047 0 0 0 0 62.70414
-3.1662464 15.88323 7.2143254 0 0 0 0 62.709084
-2.0668623 19.226837 7.6647387 0 0 0 0 62.714027
-2.7185967 18.357843 7.6499925 0 0 0 0 62.718979
-3.1243572 16.889997 7.3613038 0 0 0 0 62.723923
-3.4647965 15.582619 7.1124935 0 0 0 0 62.728874
-2.5011673 18.951675 7.5412068 0 0 0 0 62.733818
-3.1244009 18.171957 7.5793023 0 0 0 0 62.738762
-3.4553077 16.574238 7.2471781 0 0 0 0 62.743713
-3.7524161 15.283375 7.0147777 0 0 0 0 62.748657
-2.9005938 18.544315 7.3747873 0 0 0 0 62.753609
-3.4861093 17.770887 7.4232788 0 0 0 0 62.758553
-3.7885499 16.318584 7.1616964 0 0 0 0 62.763504
-4.0434771 15.022129 6.9348135 0 0 0 0 62.768448
-3.301831 18.238188 7.2517939 0 0 0 0 62.773392
-3.8566663 17.496923 7.3264627 0 0 0 0 62.778343
-4.0967669 15.982516 7.0459361 0 0 0 0 62.783287
-4.1522112 14.179005 6.5900955 0 0 0 0 62.788239
-3.7117448 18.002972 7.1593122 0 0 0 0 62.793182
-4.1955028 17.124702 7.1905398 0 0 0 0 62.798126
-4.1841507 14.917446 6.6116662 0 0 0 0 62.803078
-4.4093289 13.919879 6.5145082 0 0 0 0 62.808022
-4.1179557 17.800985 7.0856881 0 0 0 0 62.812973
-4.5326719 16.78764 7.0714426 0 0 0 0 62.817917
-4.524859 14.831076 6.6081753 0 0 0 0 62.822868
-4.6545448 13.637068 6.4301844 0 0 0 0 62.827812
-4.5250549 17.62105 7.0269294 0 0 0 0 62.832756
-4.6196294 15.654453 6.624548 0 0 0 0 62.837708
-4.8088188 14.568015 6.5282927 0 0 0 0 62.842651
-4.8834362 13.345768 6.3440924 0 0 0 0 62.847603
-4.9332004 17.44207 6.9701481 0 0 0 0 62.852547
-5.0072389 15.617649 6.6402369 0 0 0 0 62.857491
-5.0502362 14.21109 6.4134083 0 0 0 0 62.862442
-5.1121664 13.076537 6.2688813 0 0 0 0 62.867386
-5.3069806 17.171991 6.8852534 0 0 0 0 62.872337
-5.3051686 15.299952 6.5394816 0 0 0 0 62.877281
-5.3208871 13.965528 6.3465796 0 0 0 0 62.882225
-5.3227072 12.7768 6.1800442 0 0 0 0 62.887177
-5.5274372 16.470728 6.6304708 0 0 0 0 62.89212
-5.5734706 14.939111 6.4243007 0 0 0 0 62.897072
-5.5621028 13.655748 6.2554374 0 0 0 0 62.902016
-5.5136566 12.461664 6.0865149 0 0 0 0 62.906967
-5.8290076 16.063627 6.4941511 0 0 0 0 62.911911
-5.8408771 14.607383 6.3229699 0 0 0 0 62.916855
-5.7957749 13.35825 6.1703138 0 0 0 0 62.921806
-5.725101 12.21106 6.0243974 0 0 0 0 62.92675
-6.1469264 15.743266 6.4001684 0 0 0 0 62.931702
-6.1155853 14.309516 6.238368 0 0 0 0 62.936646
-6.1514425 13.344637 6.2182331 0 0 0 0 62.941589
-5.9304247 11.95764 5.9613647 0 0 0 0 62.946541
-6.4475961 15.416871 6.3052182 0 0 0 0 62.707115
-6.3529263 13.964172 6.1381822 0 0 0 0 62.712067
-6.4585218 13.220736 6.2200127 0 0 0 0 62.71701
-6.1056619 11.673495 5.8854418 0 0 0 0 62.721954
-6.7037854 14.995331 6.1735029 0 0 0 0 62.726906
-6.8499713 14.169654 6.2803183 0 0 0 0 62.73185
-6.6772008 12.919797 6.1410823 0 0 0 0 62.736801
-6.2801757 11.397078 5.8148937 0 0 0 0 62.741745
-7.2525067 15.221081 6.310925 0 0 0 0 62.746689
-7.0890436 13.82491 6.1843839 0 0 0 0 62.75164
-6.5673175 12.035728 5.7860775 0 0 0 0 62.756584
-6.4410648 11.105044 5.7365851 0 0 0 0 62.761536
-7.5152488 14.838464 6.2049174 0 0 0 0 62.766479
-7.3194919 13.489489 6.0964975 0 0 0 0 62.771431
-6.7927656 11.807798 5.7426763 0 0 0 0 62.776375
-6.6091409 10.843876 5.6740265 0 0 0 0 62.781319
-7.7946744 14.500422 6.118475 0 0 0 0 62.78627
-7.536633 13.146473 6.0058036 0 0 0 0 62.791214
-7.0054584 11.560223 5.6915259 0 0 0 0 62.796165
-6.8544273 10.714649 5.6838651 0 0 0 0 62.801109
-8.0643559 14.168728 6.0381079 0 0 0 0 62.806053
-7.7553539 12.818456 5.9240093 0 0 0 0 62.811005
-7.1985092 11.296235 5.6336889 0 0 0 0 62.815948
-7.13346 10.629465 5.7180738 0 0 0 0 62.8209
-8.2748051 13.751739 5.9258842 0 0 0 0 62.825844
-7.9419398 12.460415 5.8327465 0 0 0 0 62.830795
-7.3569403 10.990255 5.5584769 0 0 0 0 62.835739
-7.3372908 10.437372 5.6977243 0 0 0 0 62.840683
-8.5199919 13.406816 5.8448682 0 0 0 0 62.845634
-7.7587733 11.568801 5.4896388 0 0 0 0 62.850578
-7.513567 10.690336 5.4842529 0 0 0 0 62.85553
-7.481998 10.165944 5.6374846 0 0 0 0 62.860474
-8.7373161 13.038754 5.7582984 0 0 0 0 62.865417
-7.9664664 11.293308 5.4346886 0 0 0 0 62.870369
-7.6497264 10.378062 5.4073315 0 0 0 0 62.875313
-7.6101022 9.8799982 5.5685143 0 0 0 0 62.880264
-8.9256067 12.644558 5.6602039 0 0 0 0 62.885208
-8.1937227 11.057312 5.4022965 0 0 0 0 62.890152
-7.899209 10.226609 5.4132285 0 0 0 0 62.895103
-7.7471981 9.6188545 5.5153065 0 0 0 0 62.900047
-9.1365871 12.293759 5.5846119 0 0 0 0 62.904999
-8.367424 10.755865 5.3398771 0 0 0 0 62.909943
-8.1778355 10.103297 5.4366341 0 0 0 0 62.914894
-7.8657246 9.3442583 5.4533854 0 0 0 0 62.919838
-9.3135366 11.916994 5.4975533 0 0 0 0 62.924782
-8.518301 10.434091 5.2668304 0 0 0 0 62.929733
-8.3945713 9.9057817 5.4261551 0 0 0 0 62.934677
-7.9897246 9.0815277 5.3993363 0 0 0 0 62.939629
-9.5298691 11.60113 5.4417081 0 0 0 0 62.944572
-8.6456203 10.098053 5.1891346 0 0 0 0 62.949516
-8.5211334 9.6038542 5.3592844 0 0 0 0 62.954468
-8.0963659 8.8103342 5.3405342 0 0 0 0 62.959412
-9.270812 10.73821 5.1303396 0 0 0 0 62.964363
-8.7806988 9.7818203 5.1212411 0 0 0 0 62.969307
-8.3294601 8.9732065 5.1078844 0 0 0 0 62.974251
-8.1448431 8.4868402 5.2486892 0 0 0 0 62.979202
-9.430232 10.401145 5.063272 0 0 0 0 62.984146
-8.9317551 9.4901505 5.0680289 0 0 0 0 62.989098
-8.4324217 8.6830921 5.046226 0 0 0 0 62.994041
-7.9976907 7.978045 5.0401196 0 0 0 0 62.998993
-9.592123 10.076043 5.0041099 0 0 0 0 63.003937
-9.0426054 9.1686993 4.999445 0 0 0 0 63.008881
-8.5482073 8.4146166 4.9943018 0 0 0 0 63.013832
-8.0973797 7.7351685 4.9952478 0 0 0 0 63.018776
-9.4512062 9.4529543 4.7970834 0 0 0 0 63.023727
-9.1663589 8.8699083 4.9445877 0 0 0 0 63.028671
-8.6776867 8.1627636 4.9551282 0 0 0 0 63.033615
-8.160984 7.4663749 4.9339356 0 0 0 0 63.038567
-8.9740744 8.5510216 4.4424839 0 0 0 0 63.04351
-8.764761 8.0927219 4.6204348 0 0 0 0 63.048462
-8.7223444 7.8424401 4.8743124 0 0 0 0 63.053406
-8.3098221 7.2760844 4.9232073 0 0 0 0 63.058357
-9.9955177 9.0693598 4.8187499 0 0 0 0 63.063301
-8.6035557 7.5765176 4.4350781 0 0 0 0 63.068245
-8.2852097 7.1154146 4.5383096 0 0 0 0 63.073196
-8.2857237 6.9439015 4.8172598 0 0 0 0 63.07814
-10.637154 9.1859369 5.0026031 0 0 0 0 63.083092
-9.434473 7.9227428 4.7534938 0 0 0 0 63.088036
-8.0591049 6.6122608 4.3306437 0 0 0 0 63.092979
-8.0303535 6.4406028 4.5889349 0 0 0 0 63.097931
-9.3795986 7.7107563 4.3222189 0 0 0 0 63.102875
-9.5075254 7.6085587 4.6903119 0 0 0 0 63.107826
-7.7596021 6.0793734 4.0940003 0 0 0 0 63.11277
-7.5640159 5.8006258 4.2518158 0 0 0 0 63.117714
-9.7008839 7.3988075 4.6931615 0 0 0 0 63.127609
-7.5566168 5.5401254 4.1772962 0 0 0 0 63.137505
-9.718811 7.0583401 4.6137662 0 0 0 0 63.1474
-8.5765343 6.0070291 4.657846 0 0 0 0 63.157295
-6.3612814 4.0438704 2.6814337 0 0 0 0 63.055908
-6.4667287 3.9820406 3.153579 0 0 0 0 63.065796
-6.1535048 3.7047083 2.554682 0 0 0 0 63.075691
-6.2071557 3.6742194 2.7832415 0 0 0 0 63.080643
-6.2819886 3.6751049 3.0223827 0 0 0 0 63.085587
-6.3930063 3.6990018 3.2959793 0 0 0 0 63.09053
-5.9403148 3.382762 2.4309044 0 0 0 0 63.095482
-5.9890518 3.358382 2.6494868 0 0 0 0 63.100426
-6.0629807 3.3652484 2.8796048 0 0 0 0 63.105377
-6.1229138 3.3686452 3.1209052 0 0 0 0 63.110321
-5.7891412 3.1109507 2.3351374 0 0 0 0 63.115265
-5.8453283 3.1003239 2.5525575 0 0 0 0 63.120216
-5.9019718 3.1036835 2.7688947 0 0 0 0 63.12516
-5.9784856 3.1235471 3.0119116 0 0 0 0 63.130112
-5.6344805 2.8532994 2.2443378 0 0 0 0 63.135056
-5.69594 2.8524723 2.4566422 0 0 0 0 63.140007
-5.7670326 2.8683674 2.6747422 0 0 0 0 63.144951
-5.8395109 2.8903139 2.9087937 0 0 0 0 63.149895
-5.5681653 2.6519537 2.1902061 0 0 0 0 63.154846
-5.6481061 2.6635447 2.407227 0 0 0 0 63.15979
-5.6968946 2.6751063 2.6126091 0 0 0 0 63.164742
-5.7020502 2.6710722 2.810585 0 0 0 0 63.169685
-5.6700916 2.5066583 2.765852 0 0 0 0 63.189476
-0.43999997 0.18411765 0.23244935 0 0 0 0 63.19442
-0.46662039 0.19338153 0.25810006 0 0 0 0 63.199371
-0.4841899 0.2019362 0.2818599 0 0 0 0 63.204315
-0.44009531 0.17233981 0.27558812 0 0 0 0 63.22905
-0.42890313 0.15439968 0.22482412 0 0 0 0 63.233994
-0.41280487 0.148981 0.23305297 0 0 0 0 63.238945
-0.41704354 0.15092568 0.24800417 0 0 0 0 63.243889
-0.42908618 0.14561529 0.26694563 0 0 0 0 63.268623
-0.40469778 0.12309821 0.21336137 0 0 0 0 63.273575
-0.4140355 0.12689036 0.23124294 0 0 0 0 63.278519
-0.42339525 0.13167632 0.24811859 0 0 0 0 63.28347
-0.43542573 0.12635976 0.26606002 0 0 0 0 63.308205
-0.41102508 0.10285506 0.21448211 0 0 0 0 63.313148
-0.4193404 0.10666941 0.23037519 0 0 0 0 63.318092
-0.43275499 0.11233097 0.24919848 0 0 0 0 63.323044
-0.43367779 0.10536309 0.26327875 0 0 0 0 63.347778
-0.40315464 0.079051815 0.20978868 0 0 0 0 63.352722
-0.40136248 0.081181705 0.22180916 0 0 0 0 63.357674
-0.41375461 0.086865455 0.23864396 0 0 0 0 63.362617
-0.41574317 0.081863247 0.25270113 0 0 0 0 63.387352
-0.39130628 0.056377962 0.20413616 0 0 0 0 63.392303
-0.39864478 0.061219476 0.21903464 0 0 0 0 63.397247
-0.40092939 0.065219052 0.23199697 0 0 0 0 63.402191
-0.40491596 0.060149662 0.24603128 0 0 0 0 63.426933
-0.38254464 0.035613798 0.20043761 0 0 0 0 63.431877
-0.38787299 0.040517107 0.21435918 0 0 0 0 63.436821
-0.40126532 0.046166256 0.23118201 0 0 0 0 63.441772
-0.4012641 0.042220272 0.24325685 0 0 0 0 63.466507
-0.38893148 0.01736925 0.20154768 0 0 0 0 63.471451
-0.3861962 0.021526817 0.21256799 0 0 0 0 63.476402
-0.39958897 0.027175488 0.22939056 0 0 0 0 63.481346
-0.39455506 0.023382166 0.23852375 0 0 0 0 63.506081
-0.38299111 -0.0028616362 0.20112345 0 0 0 0 64.131744
-0.39334804 0.0018776522 0.21698344 0 0 0 0 64.136688
-0.4017168 0.007674031 0.23086113 0 0 0 0 64.141632
-0.38363028 0.004307467 0.23515081 0 0 0 0 64.166374
-0.37834471 -0.020741682 0.20036516 0 0 0 0 64.171318
-0.3806245 -0.01674778 0.21232633 0 0 0 0 64.176262
-0.39300308 -0.011084523 0.22715637 0 0 0 0 64.181213
-0.38903609 -0.012908178 0.23626763 0 0 0 0 64.205948
-0.39971864 -0.041470513 0.20831011 0 0 0 0 64.210892
-0.40306726 -0.035512678 0.22024706 0 0 0 0 64.215843
-0.40645069 -0.02855547 0.23217779 0 0 0 0 64.220787
-0.40550545 -0.030471966 0.24325326 0 0 0 0 64.245522
-0.40201899 -0.061581329 0.20948122 0 0 0 0 64.250473
-0.40839019 -0.055716321 0.2233822 0 0 0 0 64.255417
-0.40878651 -0.047667049 0.23334256 0 0 0 0 64.260361
-0.40586478 -0.048520278 0.24343586 0 0 0 0 64.285095
-0.40929317 -0.083842047 0.21460499 0 0 0 0 64.290047
-0.41070122 -0.075821787 0.22555332 0 0 0 0 64.294991
-0.40308964 -0.066517696 0.23160309 0 0 0 0 64.299942
-0.42021614 -0.06902045 0.24946369 0 0 0 0 64.324677
-0.39461026 -0.10139131 0.21096727 0 0 0 0 64.32962
-0.40699026 -0.09572991 0.2257964 0 0 0 0 64.334572
-0.41939303 -0.089074999 0.23961937 0 0 0 0 64.339516
-0.41552854 -0.087900206 0.24871257 0 0 0 0 64.36425
-0.40083444 -0.12462253 0.2151098 0 0 0 0 64.369194
-0.4013015 -0.11457431 0.22505771 0 0 0 0 64.374146
-0.40373254 -0.10559521 0.23498785 0 0 0 0 64.379089
-0.40585309 -0.1056171 0.24601564 0 0 0 0 64.403824
-0.40111822 -0.14565174 0.21831197 0 0 0 0 64.408775
-0.40454888 -0.13670762 0.2282301 0 0 0 0 64.413719
-0.40899119 -0.12779269 0.23913616 0 0 0 0 64.418671
-0.41410926 -0.12791961 0.25012809 0 0 0 0 64.443405
-0.43009546 -0.17962407 0.23224068 0 0 0 0 64.448349
-0.41770875 -0.16315956 0.23630735 0 0 0 0 64.453293
-0.42318574 -0.15328045 0.24719512 0 0 0 0 64.458244
-0.42335227 -0.15124565 0.25623462 0 0 0 0 64.482979
-0.43024755 -0.20464617 0.23646782 0 0 0 0 64.487923
-0.43873498 -0.19486655 0.2483194 0 0 0 0 64.492874
-0.4511621 -0.18722007 0.26113528 0 0 0 0 64.497818
-0.43848583 -0.17876291 0.26529384 0 0 0 0 64.522552
-0.46297359 -0.24674003 0.25339758 0 0 0 0 64.527504
-0.45270401 -0.22734074 0.25842166 0 0 0 0 64.532448
-0.43249607 -0.20363362 0.25654161 0 0 0 0 64.537399
-0.4475846 -0.20608822 0.27142534 0 0 0 0 64.562134
-0.47252771 -0.26500624 0.27148271 0 0 0 0 64.572021
-0.46724346 -0.2457878 0.27544683 0 0 0 0 64.576973
-3.9265912 -2.3777039 1.6786324 0 0 0 0 64.586868
-0.46058691 -0.23752911 0.28153339 0 0 0 0 64.601707
-3.7873394 -2.4169717 1.6472813 0 0 0 0 64.344452
-3.8146405 -2.4094663 1.7379433 0 0 0 0 64.369186
-3.6724939 -2.1745141 1.718321 0 0 0 0 64.37413
-3.6762409 -2.0243053 1.7614201 0 0 0 0 64.379082
-3.7002518 -2.3064473 1.7507695 0 0 0 0 64.393921
-3.6292994 -2.1048348 1.7564765 0 0 0 0 64.398865
-3.591181 -2.3529284 1.7233846 0 0 0 0 64.413704
-3.5932102 -2.1917081 1.7574395 0 0 0 0 64.418655
-3.5283663 -2.4289033 1.7176112 0 0 0 0 64.433495
-3.5481911 -2.2752843 1.7554933 0 0 0 0 64.438446
-3.4852371 -2.5175095 1.7216733 0 0 0 0 64.453285
-3.5061085 -2.3609562 1.7545246 0 0 0 0 64.458229
-3.4409811 -2.7752726 1.7077191 0 0 0 0 64.468124
-3.4254146 -2.5945659 1.7188728 0 0 0 0 64.473068
-3.4561901 -2.441355 1.7526224 0 0 0 0 64.47802
-3.3692992 -2.8479097 1.7050396 0 0 0 0 64.487915
-3.3773508 -2.6809938 1.7229853 0 0 0 0 64.492859
-3.4101846 -2.5248783 1.7526919 0 0 0 0 64.49781
-3.302542 -2.9236991 1.7053204 0 0 0 0 64.507698
-3.3292608 -2.7684131 1.7281054 0 0 0 0 64.51265
-3.3719857 -2.6156464 1.7577099 0 0 0 0 64.517593
-3.0451312 -3.0074515 1.6009592 0 0 0 0 64.522545
-3.2425926 -3.0066974 1.7105616 0 0 0 0 64.527489
-3.2811663 -2.85583 1.733227 0 0 0 0 64.532433
-3.3180935 -2.6948991 1.7558538 0 0 0 0 64.537384
-2.8890798 -2.9902978 1.5607938 0 0 0 0 64.542328
-3.178735 -3.0865602 1.7148342 0 0 0 0 64.547279
-3.2251666 -2.9399714 1.7374276 0 0 0 0 64.552223
-3.2719605 -2.7824018 1.7579523 0 0 0 0 64.557167
-2.7769578 -3.0115716 1.5413182 0 0 0 0 64.562119
-2.9300783 -2.9814303 1.6222872 0 0 0 0 64.567062
-3.1711383 -3.0251744 1.7426119 0 0 0 0 64.572014
-3.2268245 -2.8709195 1.7630463 0 0 0 0 64.576958
-2.6852779 -3.0534904 1.5347153 0 0 0 0 64.581909
-2.8218589 -3.0048528 1.6007769 0 0 0 0 64.586853
-3.0352912 -3.0317261 1.7043388 0 0 0 0 64.591797
-3.1719108 -2.9511175 1.7632126 0 0 0 0 64.596748
-2.6333866 -3.1376982 1.5488745 0 0 0 0 64.601692
-2.7107804 -3.0241675 1.5792798 0 0 0 0 64.606644
-2.8744826 -3.0034604 1.6521704 0 0 0 0 64.611588
-3.1305094 -3.0487366 1.7733169 0 0 0 0 64.616531
-2.5679421 -3.2064612 1.5561109 0 0 0 0 64.621483
-2.663744 -3.1125474 1.5934043 0 0 0 0 64.626427
-2.7710946 -3.032043 1.6316339 0 0 0 0 64.631378
-2.9413192 -2.9955795 1.7013507 0 0 0 0 64.636322
-2.540982 -3.3274515 1.5881826 0 0 0 0 64.641266
-2.6099176 -3.1937008 1.6045712 0 0 0 0 64.646217
-2.6901333 -3.0813482 1.6229457 0 0 0 0 64.651161
-2.8310483 -3.0179641 1.6728624 0 0 0 0 64.656113
-2.4801908 -3.4083366 1.6024361 0 0 0 0 64.661057
-2.5588763 -3.281935 1.618747 0 0 0 0 64.666008
-2.6478896 -3.1758916 1.6380492 0 0 0 0 64.670952
-2.7258093 -3.0405028 1.6473155 0 0 0 0 64.675896
-2.4356523 -3.5147326 1.6286412 0 0 0 0 64.680847
-2.5039043 -3.3680272 1.63296 0 0 0 0 64.685791
-2.5717571 -3.2313392 1.6333411 0 0 0 0 64.690742
-2.6739178 -3.1217535 1.6534599 0 0 0 0 64.695686
-2.4330893 -3.6894605 1.6847326 0 0 0 0 64.70063
-2.4575031 -3.4683902 1.6531528 0 0 0 0 64.705582
-2.5467145 -3.3534141 1.6623977 0 0 0 0 64.710526
-2.6103091 -3.1926198 1.6536887 0 0 0 0 64.715477
-2.3308637 -3.7169886 1.6761872 0 0 0 0 64.720421
-2.4512534 -3.6320193 1.7032249 0 0 0 0 64.725372
-2.4830093 -3.4292324 1.6696599 0 0 0 0 64.730316
-2.566056 -3.2861052 1.6658139 0 0 0 0 64.73526
-2.2887156 -3.8434179 1.711485 0 0 0 0 64.740211
-2.3700557 -3.6912372 1.7056072 0 0 0 0 64.745155
-2.452832 -3.5551183 1.6998049 0 0 0 0 64.750107
-2.5129442 -3.3742914 1.6750184 0 0 0 0 64.755051
-2.2349675 -3.9564583 1.7418487 0 0 0 0 64.759995
-2.3155653 -3.7942972 1.7279202 0 0 0 0 64.764946
-2.428225 -3.6951709 1.735966 0 0 0 0 64.76989
-2.4617229 -3.4665253 1.687225 0 0 0 0 64.774841
-2.1819687 -4.0775084 1.775252 0 0 0 0 64.779785
-2.2676351 -3.9125457 1.7582433 0 0 0 0 64.784729
-2.3278408 -3.7257822 1.7234187 0 0 0 0 64.78968
-2.4525414 -3.6250966 1.7293051 0 0 0 0 64.794624
-2.1334949 -4.2146769 1.816696 0 0 0 0 64.799576
-2.2194417 -4.038775 1.7906182 0 0 0 0 64.80452
-2.2875853 -3.853307 1.7537022 0 0 0 0 64.809471
-2.3798864 -3.6976125 1.7326632 0 0 0 0 64.814415
-2.0773342 -4.3459907 1.8546579 0 0 0 0 64.575073
-2.1645935 -4.1571546 1.820504 0 0 0 0 64.580025
-2.2405205 -3.9759564 1.7815319 0 0 0 0 64.584969
-2.3159168 -3.7807448 1.740484 0 0 0 0 64.589912
-2.1511724 -4.7739067 2.0142946 0 0 0 0 64.594864
-2.1083472 -4.286099 1.8549861 0 0 0 0 64.599808
-2.1846936 -4.0899639 1.8069203 0 0 0 0 64.604759
-2.2669115 -3.8990154 1.7628124 0 0 0 0 64.609703
-2.0891039 -4.9305739 2.0630133 0 0 0 0 64.614647
-2.1515553 -4.6341033 1.9805317 0 0 0 0 64.619598
-2.1352301 -4.2251501 1.8413563 0 0 0 0 64.624542
-2.2196803 -4.0253196 1.7901676 0 0 0 0 64.629494
-2.0236936 -5.0981026 2.1158385 0 0 0 0 64.634438
-2.1224954 -4.8558269 2.0522265 0 0 0 0 64.639389
-2.0769289 -4.3540435 1.8718656 0 0 0 0 64.644333
-2.1588945 -4.136179 1.8106005 0 0 0 0 64.649277
-1.9570922 -5.2725592 2.1737216 0 0 0 0 64.654228
-2.0601368 -5.0204849 2.1009984 0 0 0 0 64.659172
-2.1468875 -4.7748733 2.0235114 0 0 0 0 64.664124
-2.1045291 -4.2662234 1.8390687 0 0 0 0 64.669067
-1.8852657 -5.4538198 2.233711 0 0 0 0 64.674011
-1.9908694 -5.181901 2.1488383 0 0 0 0 64.678963
-2.0808637 -4.926455 2.062252 0 0 0 0 64.683907
-2.1240752 -4.5655417 1.9366223 0 0 0 0 64.688858
-1.8100606 -5.6469393 2.2978137 0 0 0 0 64.693802
-1.9229529 -5.3643236 2.2047868 0 0 0 0 64.698753
-2.0125668 -5.0869346 2.1050751 0 0 0 0 64.703697
-2.1164424 -4.8359718 2.0203424 0 0 0 0 64.708641
-1.6878461 -5.7086301 2.3117268 0 0 0 0 64.713593
-1.8498226 -5.553544 2.2638421 0 0 0 0 64.718536
-1.9457846 -5.2634296 2.1549757 0 0 0 0 64.723488
-2.0510213 -4.9985776 2.0591426 0 0 0 0 64.728432
-1.5279038 -5.6302299 2.2722855 0 0 0 0 64.733376
-1.7595364 -5.7142134 2.3109431 0 0 0 0 64.738327
-1.8728826 -5.4436955 2.2069762 0 0 0 0 64.743271
-1.9825495 -5.1630616 2.0999942 0 0 0 0 64.748222
-1.3712429 -5.5429521 2.2297537 0 0 0 0 64.753166
-1.6028666 -5.6579142 2.2755914 0 0 0 0 64.75811
-1.8001537 -5.6499295 2.2671292 0 0 0 0 64.763062
-1.910699 -5.3394046 2.144959 0 0 0 0 64.768005
-1.2212785 -5.4668665 2.1942074 0 0 0 0 64.772957
-1.4440304 -5.5745778 2.2301099 0 0 0 0 64.777901
-1.6723535 -5.6944957 2.2660143 0 0 0 0 64.782852
-1.836468 -5.5276423 2.1940255 0 0 0 0 64.787796
-1.079043 -5.4000287 2.1626222 0 0 0 0 64.79274
-1.2920654 -5.4964552 2.1885767 0 0 0 0 64.797691
-1.5113187 -5.6160946 2.2185893 0 0 0 0 64.802635
-1.7495421 -5.7054453 2.2391899 0 0 0 0 64.807587
-0.94106537 -5.3253422 2.1289401 0 0 0 0 64.812531
-1.1440189 -5.4214544 2.1490152 0 0 0 0 64.817474
-1.3553431 -5.5368519 2.1730993 0 0 0 0 64.822426
-1.5926602 -5.6531668 2.1978676 0 0 0 0 64.82737
-0.81118423 -5.2808733 2.1083381 0 0 0 0 64.832321
-1.0037256 -5.355689 2.1154149 0 0 0 0 64.837265
-1.2023454 -5.4587021 2.128581 0 0 0 0 64.842209
-1.4323452 -5.5827856 2.1504834 0 0 0 0 64.84716
-0.67854971 -5.1963649 2.0735359 0 0 0 0 64.852104
-0.86847919 -5.2890902 2.0827487 0 0 0 0 64.857056
-1.0600046 -5.3928871 2.0910058 0 0 0 0 64.862
-1.2745606 -5.4964967 2.099977 0 0 0 0 64.866951
-0.55422163 -5.1350956 2.04877 0 0 0 0 64.871895
-0.7361747 -5.2245841 2.0510604 0 0 0 0 64.876839
-0.91903043 -5.3161201 2.0513513 0 0 0 0 64.88179
-1.1254928 -5.4204783 2.0554252 0 0 0 0 64.886734
-0.43296468 -5.071929 2.0239563 0 0 0 0 64.891685
-0.60884774 -5.1622248 2.0233254 0 0 0 0 64.896629
-0.78369164 -5.251523 2.0167005 0 0 0 0 64.901573
-0.98228359 -5.3496461 2.0138335 0 0 0 0 64.906525
-0.31535646 -5.0208564 2.0051703 0 0 0 0 64.911469
-0.48548499 -5.1010013 1.9955496 0 0 0 0 64.91642
-0.65331799 -5.1890783 1.9850031 0 0 0 0 64.921364
-0.84124047 -5.2738876 1.9711878 0 0 0 0 64.926315
-0.20133533 -4.9509377 1.9792306 0 0 0 0 64.931259
-0.36419418 -5.0378447 1.9677383 0 0 0 0 64.936203
-0.52697933 -5.1257706 1.9532521 0 0 0 0 64.941154
-0.70524621 -5.198277 1.9324827 0 0 0 0 64.946098
-0.089599423 -4.9050412 1.9644059 0 0 0 0 64.95105
-0.24786845 -4.9768419 1.94288 0 0 0 0 64.955994
-0.40109053 -5.04849 1.9174149 0 0 0 0 64.960938
-0.57553244 -5.1458473 1.9018381 0 0 0 0 64.965889
0.018701473 -4.8452845 1.9444581 0 0 0 0 64.970833
-0.13260312 -4.9138765 1.9169984 0 0 0 0 64.975784
-0.28157783 -4.9923806 1.8916254 0 0 0 0 64.980728
-0.44845533 -5.0735316 1.8650453 0 0 0 0 64.985672
0.12521291 -4.792572 1.9275312 0 0 0 0 64.990623
-0.021867391 -4.8670263 1.8991574 0 0 0 0 64.995567
-0.16500647 -4.938365 1.8668133 0 0 0 0 65.000519
-0.32513261 -5.0103116 1.8342614 0 0 0 0 65.005463
0.22794738 -4.7479625 1.9156069 0 0 0 0 65.010414
0.087607525 -4.8122239 1.8792553 0 0 0 0 65.015358
-0.051837146 -4.8724718 1.8398905 0 0 0 0 65.020302
-0.20462158 -4.9531775 1.8054802 0 0 0 0 65.025253
0.32939771 -4.6944079 1.900615 0 0 0 0 65.030197
0.19182393 -4.7496119 1.8572432 0 0 0 0 65.035149
0.060707707 -4.8185768 1.8170321 0 0 0 0 65.040092
-0.088170409 -4.8951693 1.7786452 0 0 0 0 65.045036
0.42863813 -4.6430535 1.884781 0 0 0 0 64.800911
0.29545379 -4.7100635 1.8425432 0 0 0 0 64.805855
0.16599904 -4.767962 1.7962973 0 0 0 0 64.810806
0.025916789 -4.8372331 1.7519865 0 0 0 0 64.81575
0.52616996 -4.5926409 1.8727541 0 0 0 0 64.820694
0.39690477 -4.6555433 1.8255394 0 0 0 0 64.825645
0.27328616 -4.7062774 1.7723223 0 0 0 0 64.830589
0.13757934 -4.7863965 1.7291284 0 0 0 0 64.835541
0.62413299 -4.5561852 1.8658156 0 0 0 0 64.840485
0.49647164 -4.6050754 1.8105375 0 0 0 0 64.845428
0.37807548 -4.6616364 1.7564182 0 0 0 0 64.85038
0.24583146 -4.722693 1.7021538 0 0 0 0 64.855324
0.71868593 -4.5068631 1.8547609 0 0 0 0 64.860275
0.59620106 -4.5595937 1.796568 0 0 0 0 64.865219
0.47970045 -4.6121063 1.7394476 0 0 0 0 64.870163
0.35343248 -4.6709776 1.6812432 0 0 0 0 64.875114
0.81231904 -4.4605589 1.8457139 0 0 0 0 64.880058
0.6939283 -4.5151601 1.7855817 0 0 0 0 64.88501
0.58113563 -4.5565872 1.7204409 0 0 0 0 64.889954
0.4581027 -4.622344 1.6633161 0 0 0 0 64.894905
0.90499693 -4.4162731 1.8386681 0 0 0 0 64.899849
0.78831547 -4.4598589 1.7704912 0 0 0 0 64.904793
0.68095648 -4.514091 1.7074921 0 0 0 0 64.909744
0.56265384 -4.5697207 1.6433654 0 0 0 0 64.914688
0.99461645 -4.3700957 1.8305745 0 0 0 0 64.91964
0.88415724 -4.4194736 1.7615079 0 0 0 0 64.924583
0.77955264 -4.4646425 1.6924887 0 0 0 0 64.929527
0.66521508 -4.5181508 1.6253976 0 0 0 0 64.934479
1.0853149 -4.3268657 1.824513 0 0 0 0 64.939423
0.9777981 -4.3731647 1.7514638 0 0 0 0 64.944374
0.87510115 -4.4142904 1.6784434 0 0 0 0 64.949318
0.76708019 -4.4765821 1.6114815 0 0 0 0 64.954262
1.1748825 -4.2796755 1.8174152 0 0 0 0 64.959213
1.0694616 -4.3279161 1.7424026 0 0 0 0 64.964157
0.97189373 -4.3718758 1.6674618 0 0 0 0 64.969109
0.86446339 -4.4201846 1.5934241 0 0 0 0 64.974052
1.2615089 -4.234581 1.8112946 0 0 0 0 64.979004
1.1601825 -4.2846918 1.7343429 0 0 0 0 64.983948
1.0666023 -4.3275237 1.6574442 0 0 0 0 64.988892
0.96089119 -4.3658047 1.5773678 0 0 0 0 64.993843
1.3502954 -4.1953835 1.8092368 0 0 0 0 64.998787
1.2507591 -4.2374654 1.7262591 0 0 0 0 65.003738
1.1602975 -4.2831964 1.6484156 0 0 0 0 65.008682
1.0608091 -4.3272681 1.5674498 0 0 0 0 65.013626
1.4348359 -4.1483479 1.8040811 0 0 0 0 65.018578
