# .PCD v0.7 - Point Cloud Data file format
VERSION 0.7
FIELDS x y z normal_x normal_y normal_z intensity curvature
SIZE 4 4 4 4 4 4 4 4
TYPE F F F F F F F F
COUNT 1 1 1 1 1 1 1 1
WIDTH 948
HEIGHT 1
VIEWPOINT 0 0 0 1 0 0 0
POINTS 948
DATA ascii
-0.36524323 -0.13574702 0.029817918 0 0 0 0 18.003304
-0.35536054 -0.1265972 0.034786776 0 0 0 0 18.008249
-0.34636259 -0.12546623 0.03981081 0 0 0 0 18.032986
-0.38773003 -0.17307948 0.026007587 0 0 0 0 18.037931
-0.39874378 -0.17120156 0.036022086 0 0 0 0 18.042879
-0.39385933 -0.16211739 0.041996922 0 0 0 0 18.047827
-0.3868472 -0.16201016 0.04802601 0 0 0 0 18.072561
-0.4320797 -0.21967518 0.03425641 0 0 0 0 18.077509
-0.38750482 -0.18806247 0.035119094 0 0 0 0 18.082455
-0.39256352 -0.18311159 0.042117618 0 0 0 0 18.087402
-0.38456562 -0.18199119 0.0481425 0 0 0 0 18.112137
-0.42475879 -0.24258311 0.035375126 0 0 0 0 18.117085
-0.42388508 -0.23254783 0.043351796 0 0 0 0 18.12203
-0.42897102 -0.22559686 0.05034437 0 0 0 0 18.126978
-0.42494661 -0.22653012 0.056379523 0 0 0 0 18.151712
-4.1819835 -2.7821858 0.59618741 0 0 0 0 18.15666
-0.43045354 -0.26363969 0.046510115 0 0 0 0 18.161608
-0.42959535 -0.25261056 0.052483939 0 0 0 0 18.166553
-4.1007743 -2.8740263 0.59737653 0 0 0 0 18.176449
-4.1755295 -2.8127832 0.67728275 0 0 0 0 18.181395
-0.42857137 -0.25358459 0.058522437 0 0 0 0 18.19129
-4.024581 -2.9649348 0.59956813 0 0 0 0 18.196236
-4.0983534 -2.9026892 0.67547029 0 0 0 0 18.201183
-4.1692038 -2.8354297 0.74235445 0 0 0 0 18.206131
-3.9414468 -3.0517547 0.60073942 0 0 0 0 18.216024
-4.0132899 -2.9844909 0.67362475 0 0 0 0 18.22097
-4.098032 -2.9254248 0.73854864 0 0 0 0 18.225918
-4.1759491 -2.8532619 0.80442643 0 0 0 0 18.230865
-3.8612876 -3.1406152 0.60291964 0 0 0 0 18.235811
-3.9391191 -3.0744405 0.67281497 0 0 0 0 18.240759
-4.0139751 -3.0072539 0.73270386 0 0 0 0 18.245707
-4.086977 -2.9290352 0.79455853 0 0 0 0 18.250652
-3.7831304 -3.2295027 0.60610175 0 0 0 0 18.2556
-3.8609929 -3.1613388 0.67199129 0 0 0 0 18.260548
-3.9358785 -3.0921607 0.72887456 0 0 0 0 18.265493
-4.0208001 -3.0201082 0.78876066 0 0 0 0 18.270441
-3.7020047 -3.3163559 0.60827416 0 0 0 0 18.275389
-3.7779238 -3.2441738 0.67114985 0 0 0 0 18.280334
-3.8637159 -3.182148 0.72606623 0 0 0 0 18.285282
-3.9397783 -3.0999918 0.77991301 0 0 0 0 18.29023
-3.6218946 -3.4022229 0.61144447 0 0 0 0 18.295176
-3.7067215 -3.3371689 0.67135096 0 0 0 0 18.300123
-3.7797213 -3.2599835 0.72120881 0 0 0 0 18.305071
-3.8548138 -3.1758249 0.77104872 0 0 0 0 18.310017
-3.5447328 -3.4921296 0.61562943 0 0 0 0 18.314964
-3.6226983 -3.4169934 0.67149884 0 0 0 0 18.319912
-3.6957147 -3.338819 0.717354 0 0 0 0 18.324858
-3.7856719 -3.2648628 0.7662403 0 0 0 0 18.329805
-3.4636149 -3.5789862 0.61980063 0 0 0 0 18.334751
-3.5436106 -3.5018876 0.67166668 0 0 0 0 18.339699
-3.623574 -3.4278119 0.7155416 0 0 0 0 18.344646
-3.7126021 -3.3488531 0.76041234 0 0 0 0 18.349592
-3.3825138 -3.6648457 0.6239686 0 0 0 0 18.35454
-3.4635115 -3.5877686 0.67283589 0 0 0 0 18.359488
-3.5494635 -3.5147805 0.71372062 0 0 0 0 18.364433
-3.6286318 -3.4257054 0.75255114 0 0 0 0 18.369381
-3.3102789 -3.7608218 0.63017529 0 0 0 0 18.374329
-3.3893752 -3.6767323 0.67402023 0 0 0 0 18.379274
-3.4664795 -3.5926385 0.70986295 0 0 0 0 18.384222
-3.5594985 -3.5147483 0.74874145 0 0 0 0 18.38917
-3.2252111 -3.8446343 0.63433206 0 0 0 0 18.394115
-3.3073082 -3.7605896 0.67618054 0 0 0 0 18.399063
-3.3953061 -3.6846468 0.71005905 0 0 0 0 18.404011
-3.4784927 -3.5946436 0.74189162 0 0 0 0 18.408957
-3.1442029 -3.9360633 0.6404295 0 0 0 0 18.16441
-3.2332797 -3.8551383 0.67929286 0 0 0 0 18.169355
-3.3154221 -3.7701473 0.70813644 0 0 0 0 18.174303
-3.3937681 -3.6701059 0.73593134 0 0 0 0 18.179251
-3.065011 -4.0279365 0.64661813 0 0 0 0 18.184196
-3.1501873 -3.9399714 0.68045646 0 0 0 0 18.189144
-3.2353439 -3.8540263 0.70730072 0 0 0 0 18.194092
-3.3216102 -3.7601004 0.73212278 0 0 0 0 18.199038
-2.9818766 -4.1157589 0.65279007 0 0 0 0 18.203985
-3.070055 -4.027842 0.6836319 0 0 0 0 18.208933
-3.1572146 -3.9419346 0.70647866 0 0 0 0 18.213879
-3.2455235 -3.8450437 0.72829449 0 0 0 0 18.218826
-2.8967447 -4.2035546 0.65995914 0 0 0 0 18.223774
-2.9908977 -4.1177258 0.687814 0 0 0 0 18.22872
-3.0771554 -4.0248165 0.70663929 0 0 0 0 18.233667
-3.1625373 -3.9229021 0.7224372 0 0 0 0 18.238613
-2.8174524 -4.3034301 0.66816992 0 0 0 0 18.243561
-2.9077861 -4.2045627 0.69098234 0 0 0 0 18.248508
-2.9950469 -4.1116767 0.70580888 0 0 0 0 18.253454
-3.0884016 -4.0118747 0.71962214 0 0 0 0 18.258402
-2.7342455 -4.3972554 0.67635804 0 0 0 0 18.26335
-2.8265817 -4.2984257 0.69517297 0 0 0 0 18.268295
-2.9168847 -4.2025881 0.70699441 0 0 0 0 18.273243
-3.012229 -4.1038232 0.71681309 0 0 0 0 18.278191
-2.6450975 -4.4870067 0.68352711 0 0 0 0 18.283136
-2.7443666 -4.3932753 0.70036489 0 0 0 0 18.288084
-2.8366859 -4.2964749 0.70818591 0 0 0 0 18.293032
-2.9272094 -4.1846576 0.71296114 0 0 0 0 18.297977
-2.5637603 -4.5908585 0.69374573 0 0 0 0 18.302925
-2.660182 -4.4861012 0.70554817 0 0 0 0 18.307873
-2.7476683 -4.3772511 0.7073288 0 0 0 0 18.312819
-2.8500156 -4.278595 0.71115583 0 0 0 0 18.317766
-2.4745233 -4.6876101 0.70293432 0 0 0 0 18.322714
-2.5720561 -4.5748801 0.70971489 0 0 0 0 18.32766
-2.6684339 -4.4741516 0.71052933 0 0 0 0 18.332607
-2.7659354 -4.3644481 0.70731884 0 0 0 0 18.337555
-2.388207 -4.7903986 0.71414334 0 0 0 0 18.342501
-2.4867692 -4.6756921 0.71691942 0 0 0 0 18.347448
-2.5832591 -4.5669813 0.71171087 0 0 0 0 18.352394
-2.6818562 -4.4502993 0.70548153 0 0 0 0 18.357342
-2.305691 -4.908237 0.72739977 0 0 0 0 18.362289
-2.4005141 -4.7744975 0.72311658 0 0 0 0 18.367235
-2.4980593 -4.6618071 0.71489775 0 0 0 0 18.372183
-2.5996585 -4.5451756 0.7046721 0 0 0 0 18.377131
-2.2114236 -5.0079255 0.73858982 0 0 0 0 18.382076
-2.3131802 -4.8792868 0.73132938 0 0 0 0 18.387024
-2.4117827 -4.7626233 0.71810043 0 0 0 0 18.391972
-2.5154657 -4.6400318 0.70285994 0 0 0 0 18.396917
-2.1151199 -5.1105905 0.74978578 0 0 0 0 18.401865
-2.2267296 -4.9930887 0.74056882 0 0 0 0 18.406813
-2.3205783 -4.8583789 0.72028244 0 0 0 0 18.411758
-2.4292488 -4.7368612 0.70205086 0 0 0 0 18.416706
-2.0187125 -5.2212558 0.76200444 0 0 0 0 18.421654
-2.1304724 -5.0927677 0.74775594 0 0 0 0 18.4266
-2.2342272 -4.9651952 0.72550142 0 0 0 0 18.431547
-2.3458867 -4.8447266 0.70327634 0 0 0 0 18.436495
-1.9222541 -5.3359189 0.77623397 0 0 0 0 18.441441
-2.0361247 -5.1994739 0.75596505 0 0 0 0 18.446388
-2.1418817 -5.0719371 0.72971308 0 0 0 0 18.451336
-2.2566378 -4.9445229 0.70247149 0 0 0 0 18.456282
-1.8198678 -5.4455094 0.78944182 0 0 0 0 18.461229
-1.9368204 -5.3031144 0.76515931 0 0 0 0 18.466177
-2.0475659 -5.1766539 0.73491615 0 0 0 0 18.471123
-2.1624727 -5.0382557 0.70164329 0 0 0 0 18.47607
-1.7154452 -5.558074 0.80365551 0 0 0 0 18.481016
-1.8412519 -5.4268041 0.77641499 0 0 0 0 18.485964
-1.9502556 -5.2813373 0.73911542 0 0 0 0 18.490911
-2.0691099 -5.1469989 0.70285881 0 0 0 0 18.495857
-1.6099185 -5.6786227 0.81989044 0 0 0 0 18.500805
-1.7378358 -5.5393953 0.78662956 0 0 0 0 18.505753
-1.8538132 -5.396028 0.74634385 0 0 0 0 18.510698
-1.971885 -5.2456956 0.70304066 0 0 0 0 18.515646
-1.5012635 -5.8091326 0.83715004 0 0 0 0 18.520594
-1.6314241 -5.6519508 0.79684019 0 0 0 0 18.525539
-1.7523504 -5.5126591 0.75257194 0 0 0 0 18.530487
-1.8754237 -5.3624024 0.7052747 0 0 0 0 18.535435
-1.3895994 -5.9406033 0.85540849 0 0 0 0 18.54038
-1.5218971 -5.7734675 0.80807269 0 0 0 0 18.545328
-1.6449727 -5.6232185 0.75777555 0 0 0 0 18.550276
-1.775021 -5.4750633 0.70649219 0 0 0 0 18.555222
-1.272954 -6.071013 0.87365782 0 0 0 0 18.560169
-1.4102935 -5.9009557 0.8213194 0 0 0 0 18.565117
-1.5384508 -5.7447853 0.76601118 0 0 0 0 18.570063
-1.6706085 -5.5886722 0.70870751 0 0 0 0 18.57501
-1.1513523 -6.1983585 0.89289236 0 0 0 0 18.579958
-1.2975609 -6.0384278 0.83659291 0 0 0 0 18.584904
-1.4269087 -5.8682928 0.77324623 0 0 0 0 18.589851
-1.5603073 -5.6942096 0.70989287 0 0 0 0 18.594797
-1.0284103 -6.351685 0.91519916 0 0 0 0 18.599745
-1.1779416 -6.1678195 0.84983516 0 0 0 0 18.604692
-1.3123432 -5.9937596 0.7824831 0 0 0 0 18.609638
-1.4517974 -5.8157701 0.71312553 0 0 0 0 18.614586
-0.89868706 -6.4889312 0.93545198 0 0 0 0 18.619534
-1.0552335 -6.3041697 0.86509335 0 0 0 0 18.624479
-1.1956513 -6.1292033 0.79174554 0 0 0 0 18.629427
-1.3381875 -5.9452691 0.7163747 0 0 0 0 18.634375
-0.76459551 -6.6331191 0.95771879 0 0 0 0 18.592533
-0.92433888 -6.434423 0.88032305 0 0 0 0 18.597481
-1.0736747 -6.2665935 0.80200452 0 0 0 0 18.602428
-1.2212871 -6.077744 0.72162431 0 0 0 0 18.607374
-0.62545049 -6.8022313 0.98405188 0 0 0 0 18.612322
-0.79335642 -6.5916615 0.89863145 0 0 0 0 18.61727
-0.9449333 -6.4058776 0.81326437 0 0 0 0 18.622215
-1.1004959 -6.2211471 0.72690487 0 0 0 0 18.627163
-0.48127195 -6.9742804 1.0113871 0 0 0 0 18.632111
-0.6561814 -6.7638192 0.91897488 0 0 0 0 18.637056
-0.8140924 -6.5531397 0.82454407 0 0 0 0 18.642004
-0.97481543 -6.3564901 0.73215652 0 0 0 0 18.646952
-0.32810068 -7.1462169 1.0387114 0 0 0 0 18.651897
-0.51210529 -6.9288917 0.93928981 0 0 0 0 18.656845
-0.67427105 -6.6992888 0.83581024 0 0 0 0 18.661793
-0.84126067 -6.4827394 0.73537326 0 0 0 0 18.666739
-0.16896057 -7.3160758 1.0680227 0 0 0 0 18.671686
-0.36008844 -7.0898657 0.95958394 0 0 0 0 18.676634
-0.53307062 -6.874413 0.85215658 0 0 0 0 18.68158
-0.70613027 -6.6529627 0.74371254 0 0 0 0 18.686527
-0.0025117991 -7.5098414 1.0993931 0 0 0 0 18.691475
-0.20277448 -7.2737689 0.98293662 0 0 0 0 18.696421
-0.38297123 -7.0424323 0.86647236 0 0 0 0 18.701368
-0.565072 -6.8181138 0.75203031 0 0 0 0 18.706314
0.17290486 -7.7014909 1.1327471 0 0 0 0 18.711262
-0.036388934 -7.4635577 1.0072953 0 0 0 0 18.716209
-0.22587766 -7.2103629 0.88177961 0 0 0 0 18.721155
-0.41421846 -6.9681463 0.75829399 0 0 0 0 18.726103
0.35762933 -7.9170194 1.1691577 0 0 0 0 18.73105
0.1360431 -7.657269 1.0336578 0 0 0 0 18.735996
-0.059633926 -7.3901787 0.89810991 0 0 0 0 18.740944
-0.25987092 -7.1561284 0.76966059 0 0 0 0 18.745892
0.55463612 -8.1543827 1.210616 0 0 0 0 18.750837
0.32158372 -7.859817 1.0600305 0 0 0 0 18.755785
0.11191886 -7.5939217 0.91850132 0 0 0 0 18.760733
-0.094624475 -7.3369794 0.77899456 0 0 0 0 18.765678
0.76355374 -8.385601 1.2510432 0 0 0 0 18.770626
0.51559091 -8.0982456 1.0934942 0 0 0 0 18.775574
0.29642284 -7.7945065 0.93786907 0 0 0 0 18.780519
0.077614546 -7.5177455 0.78832 0 0 0 0 18.785467
0.9837783 -8.6406689 1.2965243 0 0 0 0 18.790415
0.72243023 -8.3245201 1.124909 0 0 0 0 18.795361
0.4880763 -8.0070009 0.95926183 0 0 0 0 18.800308
0.25916022 -7.7223916 0.80070186 0 0 0 0 18.805256
1.2192293 -8.913538 1.3460382 0 0 0 0 18.810202
0.94153601 -8.5716333 1.1603683 0 0 0 0 18.815149
0.69509906 -8.2482967 0.98371828 0 0 0 0 18.820097
0.45085472 -7.9389081 0.81510544 0 0 0 0 18.825043
1.4728785 -9.2021742 1.3985758 0 0 0 0 18.82999
1.1760104 -8.8475475 1.1998911 0 0 0 0 18.834936
0.91207409 -8.4864693 1.0091542 0 0 0 0 18.839884
0.65559065 -8.1592674 0.82850504 0 0 0 0 18.844831
1.7428304 -9.5145979 1.4561615 0 0 0 0 18.849777
1.4265386 -9.1282616 1.2404091 0 0 0 0 18.854725
1.1454161 -8.7534332 1.0376525 0 0 0 0 18.859673
0.87274724 -8.4124641 0.84598249 0 0 0 0 18.864618
2.0370963 -9.8517065 1.5187893 0 0 0 0 18.869566
1.6943039 -9.4277534 1.2849602 0 0 0 0 18.874514
1.3970603 -9.0441599 1.0701969 0 0 0 0 18.879459
1.1058789 -8.6644669 0.86243856 0 0 0 0 18.884407
2.3558962 -10.230491 1.5895061 0 0 0 0 18.889355
1.9886411 -9.7719002 1.3356067 0 0 0 0 18.8943
1.6668473 -9.3466616 1.1037536 0 0 0 0 18.899248
1.3544297 -8.9492683 0.88396895 0 0 0 0 18.904196
2.7040451 -10.636899 1.6652676 0 0 0 0 18.909142
2.3042774 -10.139771 1.3912954 0 0 0 0 18.914089
1.9569725 -9.6759024 1.1413622 0 0 0 0 18.919037
1.6242636 -9.2568073 0.90553898 0 0 0 0 18.923983
3.0669336 -11.024127 1.7419581 0 0 0 0 18.92893
2.6513655 -10.543239 1.4530487 0 0 0 0 18.933878
2.2693815 -10.027863 1.1820092 0 0 0 0 18.938824
1.9154871 -9.5950708 0.93217075 0 0 0 0 18.943771
3.4799211 -11.496695 1.8328321 0 0 0 0 18.948717
3.0300069 -10.990299 1.5218883 0 0 0 0 18.953665
2.6145122 -10.4364 1.2297776 0 0 0 0 18.958612
2.2236173 -9.9271336 0.95676613 0 0 0 0 18.963558
3.9418998 -12.046618 1.9378676 0 0 0 0 18.968506
3.4294631 -11.424105 1.5906674 0 0 0 0 18.973454
2.9939616 -10.870503 1.2815793 0 0 0 0 18.978399
2.5686879 -10.332718 0.99052542 0 0 0 0 18.983347
4.447298 -12.629983 2.0519481 0 0 0 0 18.988295
3.8745456 -11.907329 1.6665339 0 0 0 0 18.99324
3.3891482 -11.285423 1.3313097 0 0 0 0 18.998188
2.9470596 -10.76289 1.0243163 0 0 0 0 19.003136
5.0198627 -13.304464 2.1852088 0 0 0 0 19.008081
4.3819098 -12.490739 1.7586113 0 0 0 0 19.013029
3.8444984 -11.791571 1.3912281 0 0 0 0 19.017977
3.3409657 -11.157883 1.0559921 0 0 0 0 19.022923
5.6559134 -14.018143 2.3255086 0 0 0 0 19.02787
4.9502692 -13.152356 1.8658386 0 0 0 0 19.032818
4.3486776 -12.363089 1.4622744 0 0 0 0 19.037764
3.8057356 -11.698965 1.0999961 0 0 0 0 19.042711
6.1485353 -14.313815 2.4008 0 0 0 0 19.047659
5.5853324 -13.87013 1.9811491 0 0 0 0 19.052605
4.9158201 -13.010803 1.5434631 0 0 0 0 19.057552
4.3004465 -12.236679 1.1459575 0 0 0 0 19.062498
6.4188757 -14.091608 2.3872893 0 0 0 0 19.787909
6.1589069 -14.376616 2.0672657 0 0 0 0 19.792856
5.5590754 -13.768922 1.6372511 0 0 0 0 19.797804
4.8568153 -12.876444 1.2015969 0 0 0 0 19.80275
6.6817741 -13.854603 2.3754134 0 0 0 0 19.807697
6.4315886 -14.122509 2.046335 0 0 0 0 19.812645
6.201448 -14.394173 1.717247 0 0 0 0 19.817591
5.4963264 -13.596769 1.2648427 0 0 0 0 19.822538
6.921061 -13.566915 2.352432 0 0 0 0 19.827484
6.7075353 -13.889365 2.0294588 0 0 0 0 19.832432
6.4913969 -14.16187 1.6953584 0 0 0 0 19.837379
6.2197447 -14.394102 1.3342052 0 0 0 0 19.842325
7.0838852 -13.158191 2.3102138 0 0 0 0 19.847273
6.9691644 -13.629412 2.0085301 0 0 0 0 19.852221
6.7742972 -13.924658 1.6744673 0 0 0 0 19.857166
6.5350566 -14.191504 1.3113717 0 0 0 0 19.862114
7.3471284 -12.947203 2.3014152 0 0 0 0 19.867062
7.1306705 -13.193718 1.9612467 0 0 0 0 19.872007
7.0531216 -13.680508 1.6525655 0 0 0 0 19.876955
5.6068573 -11.459183 1.0532002 0 0 0 0 19.881903
7.5961514 -12.717398 2.2905843 0 0 0 0 19.886848
7.3948069 -12.973736 1.947426 0 0 0 0 19.891796
6.1928248 -11.356452 1.3753892 0 0 0 0 19.896744
5.3468075 -10.308597 0.94348484 0 0 0 0 19.90169
7.832077 -12.478757 2.2797465 0 0 0 0 19.906637
7.6324224 -12.710094 1.9265211 0 0 0 0 19.911585
6.4161205 -11.146955 1.3576411 0 0 0 0 19.916531
5.9898148 -10.904961 0.99841404 0 0 0 0 19.921478
8.182188 -12.419694 2.3022654 0 0 0 0 19.926426
7.8916378 -12.495183 1.9157243 0 0 0 0 19.931372
7.7310972 -12.736045 1.5644853 0 0 0 0 19.936319
6.7279072 -11.593202 1.0624878 0 0 0 0 19.941265
8.2700043 -12.45781 1.9322741 0 0 0 0 19.95116
7.9717774 -12.47638 1.5445936 0 0 0 0 19.956106
7.8177342 -12.761216 1.1724589 0 0 0 0 19.961054
6.7167292 -9.9920053 1.2424124 0 0 0 0 19.975895
6.5288286 -10.115075 0.92689776 0 0 0 0 19.980843
9.2814512 -12.234996 2.3747714 0 0 0 0 19.985788
8.8673553 -12.556026 1.5809635 0 0 0 0 19.995684
6.8828006 -10.126019 0.92960274 0 0 0 0 20.000629
9.3758059 -12.236139 1.9726844 0 0 0 0 20.010525
9.1413984 -12.324988 1.5671225 0 0 0 0 20.015471
8.9756765 -12.556033 1.161858 0 0 0 0 20.020418
9.6632919 -12.040932 1.9699258 0 0 0 0 20.030312
9.4053946 -12.089077 1.5542815 0 0 0 0 20.035259
9.2545919 -12.313956 1.1429868 0 0 0 0 20.040207
10.116968 -11.652665 2.3825312 0 0 0 0 20.045153
9.8746099 -11.747668 1.9509913 0 0 0 0 20.0501
9.6775408 -11.865077 1.5424665 0 0 0 0 20.055046
9.5366735 -12.084844 1.1281488 0 0 0 0 20.059994
10.419725 -11.478281 2.3898182 0 0 0 0 20.064941
10.141829 -11.528726 1.9451973 0 0 0 0 20.069887
9.956707 -11.642003 1.5316507 0 0 0 0 20.074835
9.7862806 -11.81513 1.1092412 0 0 0 0 20.079782
10.370488 -11.262263 1.9313217 0 0 0 0 20.089676
10.212635 -11.398215 1.5188071 0 0 0 0 20.094624
10.082508 -11.59687 1.0954247 0 0 0 0 20.099569
10.604324 -11.00974 1.9214801 0 0 0 0 20.109465
10.492832 -11.176145 1.5099995 0 0 0 0 20.11441
10.389936 -11.394481 1.0856413 0 0 0 0 20.119358
10.865442 -10.779895 1.9166739 0 0 0 0 20.129251
10.764982 -10.949173 1.5031902 0 0 0 0 20.134199
10.658759 -11.140566 1.0697665 0 0 0 0 20.139147
11.124593 -10.552083 1.911878 0 0 0 0 20.14904
11.027938 -10.705327 1.49235 0 0 0 0 20.153988
10.932737 -10.89859 1.0589205 0 0 0 0 20.158934
11.633806 -10.286129 2.3767641 0 0 0 0 20.163881
11.384729 -10.322264 1.9090794 0 0 0 0 20.168829
11.303094 -10.477338 1.486542 0 0 0 0 20.173775
11.821295 -10.001189 2.3658962 0 0 0 0 20.183668
11.651886 -10.093373 1.9062799 0 0 0 0 20.188616
11.551942 -10.222674 1.4766941 0 0 0 0 20.193563
12.034019 -9.7349491 2.3600559 0 0 0 0 20.203457
11.915995 -9.8595247 1.9044743 0 0 0 0 20.208405
11.846186 -10.000479 1.4728901 0 0 0 0 20.21335
10.711627 -8.2852087 2.057636 0 0 0 0 20.223246
12.187171 -9.6306 1.9046777 0 0 0 0 20.228191
12.172696 -9.7999058 1.4751147 0 0 0 0 20.233139
10.820086 -7.9941988 2.0378354 0 0 0 0 20.243032
10.988152 -8.2892189 1.6774234 0 0 0 0 20.24798
12.432562 -9.544138 1.4682645 0 0 0 0 20.252928
11.497095 -8.1081667 2.1261513 0 0 0 0 19.908701
11.167645 -8.0283117 1.6682556 0 0 0 0 19.913649
6.1611447 -4.5887947 0.47709233 0 0 0 0 19.923542
11.175825 -7.5194249 2.029964 0 0 0 0 19.92849
13.020507 -8.923955 1.9088557 0 0 0 0 19.933435
6.4175892 -4.5468578 0.48277375 0 0 0 0 19.943331
11.352917 -7.2855425 2.026227 0 0 0 0 19.948277
13.309547 -8.6867599 1.9120054 0 0 0 0 19.953224
6.710165 -4.5154982 0.49045041 0 0 0 0 19.963118
11.837299 -7.2378922 2.078685 0 0 0 0 19.968065
11.874501 -7.3745556 1.6710042 0 0 0 0 19.973013
7.0560031 -4.5055099 0.50213426 0 0 0 0 19.982906
13.322545 -7.7500157 2.3026524 0 0 0 0 19.987852
13.298222 -7.8475528 1.838928 0 0 0 0 19.9928
7.4817777 -4.4668808 0.77766758 0 0 0 0 19.997747
7.4379482 -4.5041003 0.51680851 0 0 0 0 20.002693
13.637924 -7.5375004 2.3188515 0 0 0 0 20.007641
13.59337 -7.6162968 1.8460979 0 0 0 0 20.012589
7.7487473 -4.3838463 0.78924155 0 0 0 0 20.017534
7.720983 -4.4268885 0.5233826 0 0 0 0 20.022482
14.461544 -7.5887938 2.423259 0 0 0 0 20.02743
12.910104 -6.8568902 1.7218251 0 0 0 0 20.032375
8.1082401 -4.3437104 0.80984187 0 0 0 0 20.037323
8.0904446 -4.3846579 0.53496844 0 0 0 0 20.042271
13.564235 -6.746067 2.2379737 0 0 0 0 20.047216
8.4393692 -4.2729282 0.82739252 0 0 0 0 20.057112
13.351532 -6.2789836 2.1690192 0 0 0 0 20.067005
8.790431 -4.195919 0.84691143 0 0 0 0 20.076899
13.763508 -6.1113105 2.2052572 0 0 0 0 20.086794
9.1112432 -4.0735183 1.1493381 0 0 0 0 20.09174
9.137331 -4.1049733 0.86540133 0 0 0 0 20.096687
5.7811022 -2.6135859 0.35068715 0 0 0 0 20.101635
12.720837 -5.3182559 2.0082381 0 0 0 0 20.106581
9.5183659 -3.9998426 1.1828194 0 0 0 0 20.111528
9.5996323 -4.0466657 0.89387155 0 0 0 0 20.116474
5.9861493 -2.5342851 0.35633588 0 0 0 0 20.121422
15.132575 -5.9454336 2.3606782 0 0 0 0 20.126369
10.084084 -3.9742792 1.2362812 0 0 0 0 20.131315
6.4081554 -2.5344276 0.37499049 0 0 0 0 20.141211
15.135007 -5.5667596 2.3297653 0 0 0 0 20.146156
10.226607 -3.7678056 1.2356722 0 0 0 0 20.151104
6.8923659 -2.5332725 0.61457968 0 0 0 0 20.156052
6.9444404 -2.557236 0.40060124 0 0 0 0 20.160997
16.198048 -5.5623221 2.4628427 0 0 0 0 20.165945
10.606061 -3.6365058 1.2640415 0 0 0 0 20.170893
7.3651834 -2.5158162 0.6481486 0 0 0 0 20.175838
7.3960471 -2.5230651 0.41914755 0 0 0 0 20.180786
15.014712 -4.7939062 2.2530239 0 0 0 0 20.185734
10.998436 -3.4980674 1.2933846 0 0 0 0 20.19068
7.7935452 -2.4599051 0.67666346 0 0 0 0 20.195627
11.293844 -3.3338528 1.6687433 0 0 0 0 20.205521
8.2653942 -2.4248455 0.95418495 0 0 0 0 20.210468
8.2839441 -2.4062772 0.71013117 0 0 0 0 20.215416
11.572637 -3.1457779 1.6900693 0 0 0 0 20.225309
8.5930786 -2.3111372 0.98065007 0 0 0 0 20.230255
8.7018213 -2.3085237 0.73655629 0 0 0 0 20.235203
11.931534 -2.9647582 1.7223446 0 0 0 0 20.245096
9.0811205 -2.2255399 1.0250454 0 0 0 0 20.250044
9.2137976 -2.2176745 0.77191794 0 0 0 0 20.254992
12.305346 -2.7755716 1.7575897 0 0 0 0 20.264885
9.5578623 -2.1140976 1.0663896 0 0 0 0 20.269833
10.907458 -2.2094855 1.5374686 0 0 0 0 20.284674
9.9832706 -1.9742798 1.1017119 0 0 0 0 20.289619
10.222015 -1.8408732 1.424207 0 0 0 0 20.304461
10.347324 -1.8042039 1.1290166 0 0 0 0 20.309408
6.8984623 -1.1179338 0.35137483 0 0 0 0 20.319302
10.622117 -1.6733589 1.4654888 0 0 0 0 20.324249
10.604036 -1.6054009 1.1463479 0 0 0 0 20.329197
7.0554609 -1.0147159 0.55901492 0 0 0 0 20.334143
6.9936714 -0.96296597 0.35295162 0 0 0 0 20.33909
10.556255 -1.4293745 1.4419935 0 0 0 0 20.344036
7.6783595 -0.98303103 0.81542456 0 0 0 0 20.348984
6.3674865 -0.76590329 0.49804741 0 0 0 0 20.353931
6.244616 -0.70580524 0.31001696 0 0 0 0 20.358877
10.26408 -1.1610632 1.3866379 0 0 0 0 20.363825
8.3041983 -0.87485224 0.87465686 0 0 0 0 20.368773
6.3176723 -0.60962039 0.48874941 0 0 0 0 20.373718
5.8173676 -0.51488513 0.28496322 0 0 0 0 20.378666
10.824335 -0.98500985 1.4491396 0 0 0 0 20.144117
8.5743856 -0.70473069 0.89447016 0 0 0 0 20.149063
5.5545282 -0.35662833 0.26833078 0 0 0 0 20.158958
10.847544 -0.74796921 1.4385769 0 0 0 0 20.163904
8.7002163 -0.5184117 0.89993888 0 0 0 0 20.168852
5.4328976 -0.21817452 0.26013592 0 0 0 0 20.178745
10.936834 -0.5161373 1.4369704 0 0 0 0 20.183693
8.8190069 -0.32817936 0.90540636 0 0 0 0 20.188641
8.9487629 -0.23825994 0.68307757 0 0 0 0 20.193586
10.995074 -0.27967727 1.4323825 0 0 0 0 20.203482
8.9447107 -0.12987308 0.90984976 0 0 0 0 20.208427
11.137293 -0.039218806 1.4377122 0 0 0 0 20.223269
9.0663767 0.072384186 0.91528922 0 0 0 0 20.228216
11.307475 0.20557117 1.4480091 0 0 0 0 20.243057
9.1929693 0.28169683 0.92170912 0 0 0 0 20.248005
11.520543 0.46186677 1.4642426 0 0 0 0 20.262844
9.2675447 0.49238774 0.92217416 0 0 0 0 20.267792
12.011377 0.74345332 1.5151713 0 0 0 0 20.282633
9.3890266 0.71263319 0.92857629 0 0 0 0 20.28758
9.5144711 0.93692243 0.9359675 0 0 0 0 20.307367
5.5232263 0.70912641 0.26006651 0 0 0 0 20.317263
9.6208525 1.1669803 0.94036371 0 0 0 0 20.327156
5.7054024 0.87114364 0.27055454 0 0 0 0 20.337049
9.5504475 1.3769604 0.92896682 0 0 0 0 20.346945
5.8914466 1.045199 0.28101182 0 0 0 0 20.356838
9.723608 1.6287985 0.9402557 0 0 0 0 20.366732
6.0547543 1.1203671 0.43672225 0 0 0 0 20.371679
6.0883698 1.2303729 0.29143474 0 0 0 0 20.376627
9.6563578 1.6704435 1.1702585 0 0 0 0 20.381573
9.8387995 1.8779556 0.94760478 0 0 0 0 20.38652
6.4222722 1.3435329 0.46390507 0 0 0 0 20.391466
6.4008636 1.4548825 0.30866316 0 0 0 0 20.396414
9.7855997 1.9157622 1.1786059 0 0 0 0 20.401361
10.121547 2.1690698 0.9717083 0 0 0 0 20.406307
6.4514275 1.5077469 0.46552977 0 0 0 0 20.411255
6.6294017 1.67541 0.32197762 0 0 0 0 20.416203
10.094378 2.2051845 1.2086924 0 0 0 0 20.421148
6.7039385 1.7315582 0.48481691 0 0 0 0 20.431044
6.9644914 1.9371673 0.34310216 0 0 0 0 20.435989
6.9154239 1.9578849 0.50113654 0 0 0 0 20.45083
7.2784419 2.2116666 0.36221769 0 0 0 0 20.455778
7.1725993 2.2127349 0.52135026 0 0 0 0 20.470619
7.6659126 2.5300055 0.38616711 0 0 0 0 20.475567
7.6079659 2.5416386 0.55523437 0 0 0 0 20.490408
7.7564082 2.6086302 0.7289902 0 0 0 0 20.505247
8.1337099 2.9275737 0.59690756 0 0 0 0 20.510195
8.074955 2.9221706 0.75801879 0 0 0 0 20.525036
8.6790161 3.3537178 0.64047247 0 0 0 0 20.529984
8.4600401 3.278471 0.79389149 0 0 0 0 20.544825
9.2498293 3.8251367 0.68591249 0 0 0 0 20.54977
8.8695955 3.4305253 1.0212255 0 0 0 0 20.559666
9.0738306 3.753402 0.85228825 0 0 0 0 20.564611
9.7267742 4.2854609 0.72646588 0 0 0 0 20.569559
6.3649206 2.9844449 0.33747748 0 0 0 0 20.574507
9.224535 3.8014622 1.0590967 0 0 0 0 20.579453
9.7578888 4.2961273 0.919469 0 0 0 0 20.5844
6.2057509 3.0925152 0.33341143 0 0 0 0 20.594294
9.6299706 4.2189684 1.1018183 0 0 0 0 20.599241
10.564828 4.9412394 0.99630743 0 0 0 0 20.604189
6.1042924 3.227252 0.33323276 0 0 0 0 20.614082
10.209128 4.741786 1.1650308 0 0 0 0 20.589075
11.317368 5.6090517 1.0700222 0 0 0 0 20.594023
10.841681 5.3319001 1.2341532 0 0 0 0 20.608864
6.2113442 3.6724672 0.35210252 0 0 0 0 20.623705
12.019711 6.2452879 1.3650479 0 0 0 0 20.628653
6.4614172 4.0322189 0.37409192 0 0 0 0 20.643494
12.910686 7.073329 1.464402 0 0 0 0 20.648439
14.217356 8.2051229 1.6106926 0 0 0 0 20.668228
7.3035746 4.765923 0.57174677 0 0 0 0 20.678122
7.7093525 4.9857378 0.73193568 0 0 0 0 20.692963
9.0468149 6.2066913 0.72092491 0 0 0 0 20.69791
8.5097246 5.7787514 0.81345177 0 0 0 0 20.712751
9.9572706 7.1749229 0.80594212 0 0 0 0 20.717697
10.131005 6.782515 1.1367748 0 0 0 0 20.727592
9.9861269 7.1194577 0.96211505 0 0 0 0 20.732538
9.7283468 7.3581629 0.79778314 0 0 0 0 20.737486
9.5359735 6.6985183 1.0675523 0 0 0 0 20.747379
9.7185526 7.2702374 0.94106519 0 0 0 0 20.752327
9.802372 7.2183862 1.0981838 0 0 0 0 20.767168
16.313919 13.397902 1.6143202 0 0 0 0 20.791903
14.054106 12.259772 1.2129012 0 0 0 0 20.79685
13.775459 12.757145 0.99898511 0 0 0 0 20.801798
14.173279 12.185342 1.4120681 0 0 0 0 20.811691
13.783596 12.596515 1.2114477 0 0 0 0 20.816639
7.3559022 7.1484752 0.54059178 0 0 0 0 20.821585
13.990699 11.812475 1.5781853 0 0 0 0 20.826532
13.883037 12.496828 1.3946909 0 0 0 0 20.831478
8.1568661 7.8136706 0.72243083 0 0 0 0 20.836426
13.822521 12.209323 1.561506 0 0 0 0 20.846319
9.8213568 9.2606125 0.98973423 0 0 0 0 20.851267
13.225701 13.261839 1.2055788 0 0 0 0 20.856215
13.504706 12.481481 1.527244 0 0 0 0 20.866108
8.5721521 8.4613323 0.87072217 0 0 0 0 20.871056
12.904648 13.560045 1.200262 0 0 0 0 20.876001
12.508625 14.007251 1.0275663 0 0 0 0 20.880949
9.4747658 9.1646261 1.0684078 0 0 0 0 20.885897
12.976666 13.404963 1.342658 0 0 0 0 20.890842
12.588539 13.864321 1.1959282 0 0 0 0 20.89579
12.206208 14.341722 1.0381519 0 0 0 0 20.900738
13.075021 13.21917 1.4871036 0 0 0 0 20.905684
12.677506 13.713403 1.3283006 0 0 0 0 20.910631
10.958926 12.64781 1.0622112 0 0 0 0 20.915579
11.896937 14.664131 1.049773 0 0 0 0 20.920525
12.801686 13.542867 1.4606895 0 0 0 0 20.925472
12.381358 14.021891 1.314942 0 0 0 0 20.93042
10.943744 13.236515 1.0879639 0 0 0 0 20.935366
10.981204 14.199739 1.005718 0 0 0 0 20.940313
12.531431 13.860616 1.4372885 0 0 0 0 20.945259
12.105938 14.356622 1.3035071 0 0 0 0 20.950207
10.082807 12.786716 1.0278193 0 0 0 0 20.955154
9.688633 13.164133 0.92028624 0 0 0 0 20.9601
10.899049 12.614036 1.2536205 0 0 0 0 20.965048
11.15846 13.863809 1.2195363 0 0 0 0 20.969995
6.6021204 8.7924976 0.68500072 0 0 0 0 20.974941
9.5763655 13.671806 0.9493103 0 0 0 0 20.979889
10.934366 13.250262 1.2652286 0 0 0 0 20.984837
11.488833 14.961381 1.2778453 0 0 0 0 20.989782
6.9552345 9.7223949 0.74364847 0 0 0 0 20.99473
5.7960796 8.712328 0.59193832 0 0 0 0 20.999678
10.100209 12.816729 1.1760149 0 0 0 0 21.004623
6.5181441 8.9124479 0.7299403 0 0 0 0 21.009571
5.9085822 8.6825867 0.64898014 0 0 0 0 21.014519
5.5995808 8.8650904 0.59782547 0 0 0 0 21.019464
6.597754 8.7792864 0.76724923 0 0 0 0 21.024412
9.1657181 13.152063 1.055124 0 0 0 0 21.02936
5.6777301 8.7749481 0.64403433 0 0 0 0 21.034306
5.4925089 9.1648655 0.61530262 0 0 0 0 21.039253
6.9371958 9.6819916 0.81498283 0 0 0 0 21.044201
5.7667193 8.6978779 0.67120397 0 0 0 0 21.049147
5.5196376 8.9831333 0.64776355 0 0 0 0 21.054094
6.0389242 10.630979 0.71357727 0 0 0 0 21.059042
5.9417853 8.6902962 0.70405549 0 0 0 0 21.751867
5.5921521 8.8506393 0.66798127 0 0 0 0 21.756815
6.1846871 10.582919 0.75886416 0 0 0 0 21.761761
5.0556812 9.3920746 0.62924355 0 0 0 0 21.766708
5.7052207 8.7597256 0.6841585 0 0 0 0 21.771654
6.3587255 10.596636 0.78178078 0 0 0 0 21.776602
6.7340078 12.158661 0.86019379 0 0 0 0 21.781549
5.7398043 11.284274 0.75679463 0 0 0 0 21.786495
5.5099812 8.896596 0.66808748 0 0 0 0 21.791443
6.0417395 10.612247 0.76206487 0 0 0 0 21.796391
4.9719405 9.4980965 0.65722471 0 0 0 0 21.801336
5.4550877 11.37528 0.76089627 0 0 0 0 21.806284
6.2409902 10.60418 0.77001077 0 0 0 0 21.811232
6.4052143 11.87801 0.83320099 0 0 0 0 21.816177
5.5870538 11.297551 0.77503991 0 0 0 0 21.821125
5.5822034 12.380638 0.8267591 0 0 0 0 21.826073
6.8288465 12.232255 0.85722268 0 0 0 0 21.831018
5.7552652 11.293146 0.77000183 0 0 0 0 21.835966
5.360075 11.514156 0.77783304 0 0 0 0 21.840914
5.3663397 12.688397 0.8463555 0 0 0 0 21.84586
4.9987354 9.4630404 0.63349307 0 0 0 0 21.850807
5.4589028 11.348006 0.75518787 0 0 0 0 21.855755
5.5085688 12.584725 0.84155113 0 0 0 0 21.860701
2.584959 6.5460691 0.42743528 0 0 0 0 21.865648
5.6426353 11.290714 0.7322517 0 0 0 0 21.870596
5.601871 12.371481 0.80401295 0 0 0 0 21.875542
2.5833783 7.0170798 0.45850551 0 0 0 0 21.885435
5.3903346 11.439022 0.71220815 0 0 0 0 21.890383
2.4014661 7.0211945 0.45969182 0 0 0 0 21.905224
5.5762901 12.56692 0.75679159 0 0 0 0 21.910172
2.6139905 6.5731416 0.39852408 0 0 0 0 21.915117
2.5025942 7.0181303 0.44467926 0 0 0 0 21.920065
2.4208539 7.0131254 0.40686569 0 0 0 0 21.954695
2.5547354 7.0333362 0.36878222 0 0 0 0 21.969536
2.4068215 7.1377897 0.36073339 0 0 0 0 21.989323
3.0937097 9.8949614 0.48957115 0 0 0 0 22.009111
1.9871888 6.9224219 0.32360545 0 0 0 0 22.028898
1.2597764 7.4885802 0.50097114 0 0 0 0 22.043739
1.3678176 7.4925151 0.45094037 0 0 0 0 22.05858
1.0398158 7.193315 0.48280096 0 0 0 0 22.063528
1.1681502 7.3704739 0.43939611 0 0 0 0 22.078369
0.85242039 7.0434089 0.47530395 0 0 0 0 22.083317
1.29199 7.4955459 0.37810373 0 0 0 0 22.09321
0.96151906 7.1423569 0.42307413 0 0 0 0 22.098158
0.66908669 6.8865457 0.46581632 0 0 0 0 22.103104
1.0680532 7.1962438 0.35594013 0 0 0 0 22.112999
0.77343893 6.9594398 0.41064334 0 0 0 0 22.117945
0.49775782 6.7288113 0.45832023 0 0 0 0 22.122892
1.219218 7.3895602 0.28248936 0 0 0 0 22.127838
0.87868583 7.0423126 0.34145001 0 0 0 0 22.132786
0.59611672 6.8006396 0.39915317 0 0 0 0 22.137733
0.33521739 6.5921721 0.45177263 0 0 0 0 22.142679
1.0087894 7.1394043 0.26121172 0 0 0 0 22.147627
0.69636202 6.8834596 0.32796308 0 0 0 0 22.152575
0.42864197 6.6569448 0.38862318 0 0 0 0 22.15752
0.17764229 6.4585886 0.4452135 0 0 0 0 22.162468
0.81870776 6.9554667 0.24378133 0 0 0 0 22.167416
0.52126598 6.7006817 0.3135182 0 0 0 0 22.172361
0.26711345 6.5183167 0.37907681 0 0 0 0 22.177309
0.027820377 6.2470727 0.4338071 0 0 0 0 22.182257
0.63844371 6.7896352 0.22730483 0 0 0 0 22.187202
0.35863763 6.5720396 0.30195174 0 0 0 0 22.19215
0.11302672 6.3337612 0.36761755 0 0 0 0 22.197098
-0.11573637 6.2136583 0.4350296 0 0 0 0 22.202044
0.46809575 6.6319094 0.2118029 0 0 0 0 22.206991
0.1999362 6.4504433 0.29036641 0 0 0 0 22.211939
-0.032746043 6.2193041 0.36000726 0 0 0 0 22.216885
-0.25352019 6.1002898 0.43041056 0 0 0 0 22.221832
0.30368352 6.5085216 0.19840786 0 0 0 0 21.96195
0.04746313 6.2371082 0.27516937 0 0 0 0 21.966898
-0.17552353 6.1430435 0.35453501 0 0 0 0 21.971846
-0.3889294 5.990056 0.42601717 0 0 0 0 21.976791
0.14770138 6.3169065 0.18297753 0 0 0 0 21.981739
-0.097120509 6.2066422 0.27039155 0 0 0 0 21.986687
-0.31112695 6.01366 0.34695712 0 0 0 0 21.991632
-0.52772188 5.9806747 0.42918897 0 0 0 0 21.99658
-0.00015942051 6.2133923 0.17235498 0 0 0 0 22.001528
-0.23679505 6.0842161 0.2608017 0 0 0 0 22.006474
-0.450872 5.9992614 0.34614006 0 0 0 0 22.011421
-0.67439288 6.0602384 0.43917972 0 0 0 0 22.016369
-0.14306466 6.1139312 0.16071898 0 0 0 0 22.021315
-0.37272078 5.9868374 0.25315529 0 0 0 0 22.026262
-0.58975571 5.998879 0.34629241 0 0 0 0 22.03121
-0.28195325 6.0125179 0.1500828 0 0 0 0 22.041103
-0.51246935 5.972436 0.24833728 0 0 0 0 22.046049
-0.42377171 6.0050931 0.1432517 0 0 0 0 22.06089
-0.66330028 6.0679483 0.24929775 0 0 0 0 22.065838
-0.56683689 6.0226626 0.13636892 0 0 0 0 22.080679
-1.7662315 5.8315864 0.46482828 0 0 0 0 22.174671
-1.6900024 5.8090997 0.34586358 0 0 0 0 22.189512
-1.6291751 5.827455 0.22282556 0 0 0 0 22.204353
-1.7802079 5.8420014 0.22194883 0 0 0 0 22.224142
-3.0932832 4.6240897 0.45377064 0 0 0 0 22.431915
-3.0544934 4.6256747 0.31121567 0 0 0 0 22.199886
-3.0175197 4.6257734 0.16722448 0 0 0 0 22.214727
-2.9716315 4.633935 0.011211066 0 0 0 0 22.229568
-4.4836874 3.51367 0.3159503 0 0 0 0 22.476917
-4.3969584 3.4312005 0.1440865 0 0 0 0 22.491758
-4.3788738 3.4160736 -0.032867886 0 0 0 0 22.506599
-0.39452043 0.23470983 0.023052147 0 0 0 0 22.580805
-0.33737618 0.21716401 -0.017940862 0 0 0 0 22.585752
-0.36433485 0.21495712 0.0070958794 0 0 0 0 22.595646
-0.33816707 0.19717005 -0.0068617919 0 0 0 0 22.610487
-0.38322634 0.20580065 0.021164738 0 0 0 0 22.62038
-0.3321186 0.19220065 -0.017832195 0 0 0 0 22.625328
-0.36410609 0.19294572 0.0062016654 0 0 0 0 22.635221
-0.34398499 0.18010357 -0.0067620575 0 0 0 0 22.650063
-0.39405331 0.18968907 0.021265484 0 0 0 0 22.659958
-0.32097942 0.16536501 -0.018106068 0 0 0 0 22.423992
-0.37909895 0.1798566 0.0059176111 0 0 0 0 22.433886
-0.36298525 0.16797979 -0.0070454585 0 0 0 0 22.448727
-0.41103593 0.17557628 0.020985464 0 0 0 0 22.458622
-0.34789968 0.15909496 -0.019013848 0 0 0 0 22.463568
-0.416026 0.17449977 0.008014136 0 0 0 0 22.473461
-0.40393215 0.164583 -0.0059504127 0 0 0 0 22.488302
-0.42587021 0.16042814 0.022087215 0 0 0 0 22.498198
-0.42095962 0.16739295 -0.018921947 0 0 0 0 22.503143
-0.43586028 0.15930486 0.0091189947 0 0 0 0 22.513039
-0.43681356 0.15426509 -0.0048471699 0 0 0 0 22.52788
-0.42063236 0.1374661 0.021191476 0 0 0 0 22.537773
-0.41570196 0.14243312 -0.018813694 0 0 0 0 22.542721
-0.40454036 0.12758452 0.0062241941 0 0 0 0 22.552614
-0.38644743 0.11772531 -0.0067443764 0 0 0 0 22.567455
-0.37631586 0.10586254 0.016288212 0 0 0 0 22.577349
-0.38740021 0.11268906 -0.018710665 0 0 0 0 22.582296
-0.375269 0.10084485 0.004320622 0 0 0 0 22.59219
-0.36018535 0.091958508 -0.0076480457 0 0 0 0 22.607031
-0.36008868 0.083968654 0.014418468 0 0 0 0 22.616924
-0.36013836 0.086900607 -0.01857972 0 0 0 0 22.621872
-0.35303381 0.078006774 0.0024486822 0 0 0 0 22.631765
-0.33395061 0.069160059 -0.0085239261 0 0 0 0 22.646606
-0.32686606 0.062263589 0.011500435 0 0 0 0 22.656502
-0.34993127 0.066985093 -0.018484879 0 0 0 0 22.661448
-0.33482841 0.058163952 0.0015375881 0 0 0 0 22.671343
-0.32676333 0.051214993 -0.0084310109 0 0 0 0 22.686184
-0.32970765 0.04722207 0.010594605 0 0 0 0 22.696077
-0.33472514 0.047117703 -0.017393947 0 0 0 0 22.701023
-0.32866135 0.042207215 0.00062707684 0 0 0 0 22.710918
-0.32059601 0.035259958 -0.0083415955 0 0 0 0 22.72576
-0.33455896 0.033164036 0.010687959 0 0 0 0 22.735653
-0.33455792 0.031106906 -0.017300285 0 0 0 0 22.740601
-0.33150369 0.027168 0.00072087516 0 0 0 0 22.750494
-0.32243881 0.020229882 -0.0082485983 0 0 0 0 22.765335
-0.33340219 0.018162256 0.010778684 0 0 0 0 22.775229
-0.33539179 0.015086793 -0.017206175 0 0 0 0 22.780176
-0.33234724 0.012147587 0.00081295474 0 0 0 0 22.79007
-0.32228282 0.0052185035 -0.0081573101 0 0 0 0 22.804911
-0.33324718 0.0031491448 0.0098698847 0 0 0 0 22.814806
-0.33323625 9.4500872e-05 -0.017116463 0 0 0 0 22.819752
-0.33220121 -0.0018635488 0.00090209034 0 0 0 0 22.829645
-0.32813695 -0.0088483933 -0.0080639496 0 0 0 0 22.844486
-0.34110078 -0.01093395 0.010964573 0 0 0 0 22.854382
-0.33407247 -0.015925596 -0.017022891 0 0 0 0 22.859327
-0.33803746 -0.017929932 0.0009991785 0 0 0 0 22.869223
-0.33297372 -0.024905562 -0.0079676751 0 0 0 0 22.884064
-0.34294716 -0.025963206 0.011056656 0 0 0 0 22.893957
-0.33994061 -0.03296084 -0.017089961 0 0 0 0 22.791658
-0.32593489 -0.031800117 -8.6731045e-05 0 0 0 0 22.801554
-0.32486081 -0.039810788 -0.0080487067 0 0 0 0 22.816395
-0.34283453 -0.040944919 0.009981419 0 0 0 0 22.826288
-0.34475821 -0.051015683 -0.015989799 0 0 0 0 22.831236
-0.3417522 -0.04995729 0.0010213148 0 0 0 0 22.841129
-0.32969829 -0.055868201 -0.0079525728 0 0 0 0 22.85597
-0.33668199 -0.055900358 0.010067638 0 0 0 0 22.865864
-0.33660609 -0.06595242 -0.015905108 0 0 0 0 22.870811
-0.33560014 -0.064912781 0.0011074237 0 0 0 0 22.880705
-0.32254666 -0.070814945 -0.0078672143 0 0 0 0 22.895546
-0.33653095 -0.07091333 0.0091579044 0 0 0 0 22.905439
-0.33144572 -0.081917264 -0.015816536 0 0 0 0 22.910387
-0.33344904 -0.079905413 0.0011961546 0 0 0 0 22.92028
-0.33834866 -0.090970717 -0.0067561162 0 0 0 0 22.935122
-0.33338049 -0.085896902 0.0092458045 0 0 0 0 22.945017
-0.36317524 -0.11022037 -0.01567887 0 0 0 0 22.949963
-0.36519635 -0.10620644 0.0023298608 0 0 0 0 22.959858
-0.34914389 -0.11208164 -0.006647055 0 0 0 0 22.974697
-0.35415646 -0.10909715 0.010365739 0 0 0 0 22.984592
-0.34206387 -0.12103907 -0.015611865 0 0 0 0 22.989538
-0.34806734 -0.11906367 0.0014035484 0 0 0 0 22.999434
-0.33600533 -0.12597397 -0.0065686549 0 0 0 0 23.014275
-0.33006516 -0.11789379 0.0084268488 0 0 0 0 23.024168
-0.37973243 -0.15639165 -0.014457666 0 0 0 0 23.029116
-0.3747904 -0.14831446 0.0035384512 0 0 0 0 23.039009
-0.37168404 -0.16030796 -0.0054180627 0 0 0 0 23.05385
-0.37373325 -0.15329622 0.011584874 0 0 0 0 23.063744
-0.4382588 -0.20793249 -0.014259203 0 0 0 0 23.068691
-0.36862731 -0.16527171 0.0026269071 0 0 0 0 23.078585
-0.42423773 -0.20879002 -0.0032298863 0 0 0 0 23.093426
-0.37155193 -0.17228773 0.011679783 0 0 0 0 23.103319
-0.41810656 -0.22375764 -0.01318313 0 0 0 0 23.108267
-0.42515454 -0.2167867 0.0058231247 0 0 0 0 23.11816
-0.41006836 -0.22667193 -0.0031458845 0 0 0 0 23.133001
-0.41513494 -0.21768507 0.014855229 0 0 0 0 23.142897
-0.41984701 -0.25178099 -0.01206935 0 0 0 0 23.147842
-0.41795877 -0.23773152 0.0059174635 0 0 0 0 23.157738
-0.41579157 -0.25673127 -0.0020257374 0 0 0 0 23.172579
-0.41590369 -0.2427018 0.014962507 0 0 0 0 23.182472
-4.07128 -2.7924104 0.031225666 0 0 0 0 23.18742
-4.0957179 -2.737431 0.12614079 0 0 0 0 23.192366
-0.42169207 -0.26677272 0.0070340647 0 0 0 0 23.197313
-3.9815853 -2.8745456 0.034333397 0 0 0 0 23.207207
-4.0398445 -2.8398724 0.12730938 0 0 0 0 23.212154
-4.0931458 -2.8011732 0.21027447 0 0 0 0 23.2171
-4.1455169 -2.7544618 0.29522386 0 0 0 0 23.222048
-3.9048226 -2.9647996 0.037464626 0 0 0 0 23.226995
-3.9581282 -2.9250875 0.12742782 0 0 0 0 23.231941
-4.015449 -2.8844295 0.20739186 0 0 0 0 23.236889
-4.0708036 -2.8397498 0.28934708 0 0 0 0 23.241837
-3.8270707 -3.0540457 0.041592836 0 0 0 0 23.246782
-3.8843873 -3.0133743 0.12855686 0 0 0 0 23.25173
-3.9377372 -2.9696884 0.2045126 0 0 0 0 23.256678
-3.9990931 -2.9250669 0.28347188 0 0 0 0 23.261623
-3.7496784 -3.1397645 0.045004115 0 0 0 0 23.798117
-3.8040142 -3.0950549 0.12896082 0 0 0 0 23.803064
-3.8613563 -3.0503893 0.20191941 0 0 0 0 23.80801
-3.9227047 -3.0047517 0.27787873 0 0 0 0 23.812958
-3.670011 -3.2250385 0.049117211 0 0 0 0 23.817905
-3.7303324 -3.1823857 0.12908114 0 0 0 0 23.822851
-3.7837088 -3.1336901 0.20003028 0 0 0 0 23.827799
-3.8450758 -3.0860591 0.27198616 0 0 0 0 23.832747
-3.5962965 -3.3163655 0.053244084 0 0 0 0 23.837692
-3.6487029 -3.2636514 0.1301856 0 0 0 0 23.84264
-3.7060733 -3.2159956 0.19713901 0 0 0 0 23.847588
-3.770458 -3.1663945 0.26609325 0 0 0 0 23.852533
-3.5116694 -3.3976042 0.057346292 0 0 0 0 23.857481
-3.57601 -3.3529942 0.13130918 0 0 0 0 23.862429
-3.63639 -3.3043683 0.19526273 0 0 0 0 23.867374
-3.6908433 -3.2466908 0.26019692 0 0 0 0 23.872322
-3.4379699 -3.4879365 0.061470531 0 0 0 0 23.87727
-3.4973705 -3.4362905 0.1324182 0 0 0 0 23.882215
-3.5518186 -3.3796215 0.19235419 0 0 0 0 23.887163
-3.6172061 -3.3300381 0.2553091 0 0 0 0 23.892111
-3.3553162 -3.5731997 0.064580142 0 0 0 0 23.897057
-3.4117758 -3.5145335 0.13251388 0 0 0 0 23.902004
-3.4801335 -3.4689832 0.19047756 0 0 0 0 23.906952
-3.5435808 -3.4123895 0.24941915 0 0 0 0 23.911898
-3.2746565 -3.6594801 0.068692312 0 0 0 0 23.916845
-3.3420594 -3.6079094 0.13364492 0 0 0 0 23.921793
-3.4035008 -3.5523062 0.18858704 0 0 0 0 23.926739
-3.4649909 -3.490701 0.24451882 0 0 0 0 23.931686
-3.1979744 -3.7487948 0.073811665 0 0 0 0 23.936632
-3.2614455 -3.6891978 0.13474807 0 0 0 0 23.94158
-3.3248801 -3.6346157 0.18669319 0 0 0 0 23.946527
-3.3913546 -3.5750563 0.23963155 0 0 0 0 23.951473
-3.1192968 -3.8380978 0.07792937 0 0 0 0 23.956421
-3.1808097 -3.7734892 0.13585603 0 0 0 0 23.961369
-3.2522209 -3.7219772 0.18481119 0 0 0 0 23.966314
-3.3177216 -3.6594157 0.23374382 0 0 0 0 23.971262
-3.0366628 -3.9223695 0.083035633 0 0 0 0 23.97621
-3.107111 -3.8658388 0.13798153 0 0 0 0 23.981155
-3.1725979 -3.8052843 0.18291765 0 0 0 0 23.986103
-3.240124 -3.7397439 0.22884643 0 0 0 0 23.991051
-2.9549832 -4.0126534 0.087152407 0 0 0 0 23.995996
-3.0245063 -3.9471195 0.13908233 0 0 0 0 24.000944
-3.0939696 -3.8896019 0.18102606 0 0 0 0 24.005892
-3.163497 -3.8240824 0.22395612 0 0 0 0 24.010838
-2.8733149 -4.1019392 0.092267029 0 0 0 0 24.015785
-2.9408803 -4.0313954 0.14018729 0 0 0 0 24.020733
-3.0103855 -3.9688823 0.17912252 0 0 0 0 24.025679
-3.0819304 -3.9013853 0.21805046 0 0 0 0 24.030626
-2.7965596 -4.2022681 0.097402997 0 0 0 0 24.035574
-2.8651671 -4.1267371 0.1423154 0 0 0 0 24.04052
-2.9346976 -4.0612288 0.17824559 0 0 0 0 24.045467
-3.0033095 -3.9857135 0.21315818 0 0 0 0 24.050413
-2.710907 -4.2905293 0.10151264 0 0 0 0 24.055361
-2.7844906 -4.2180429 0.14343326 0 0 0 0 24.060308
-2.8540788 -4.1455388 0.17635159 0 0 0 0 24.065254
-2.9296427 -4.0760846 0.20827867 0 0 0 0 24.070202
-2.6262155 -4.3837976 0.10763097 0 0 0 0 24.07515
-2.7028086 -4.3103418 0.14555174 0 0 0 0 24.080095
-2.7773659 -4.2418842 0.17447996 0 0 0 0 24.085043
-2.8460681 -4.1553783 0.20337413 0 0 0 0 24.089991
-2.5385528 -4.4740467 0.11274199 0 0 0 0 24.094936
-2.6201382 -4.4016356 0.14766751 0 0 0 0 24.099884
-2.6947289 -4.3291826 0.17358904 0 0 0 0 24.104832
-2.7644405 -4.2416906 0.19848228 0 0 0 0 24.109777
-2.4548202 -4.5733314 0.11787018 0 0 0 0 24.114725
-2.5344553 -4.4949083 0.14978448 0 0 0 0 24.119673
-2.6101036 -4.4154696 0.17169483 0 0 0 0 24.124619
-2.6867671 -4.3340378 0.1936025 0 0 0 0 24.129566
-2.3660994 -4.671577 0.12399325 0 0 0 0 24.134514
-2.4468 -4.5851684 0.15189475 0 0 0 0 24.13946
-2.5254328 -4.5077577 0.17081037 0 0 0 0 24.144407
-2.6011617 -4.418324 0.18870412 0 0 0 0 24.149355
-2.2734065 -4.7667961 0.12910847 0 0 0 0 24.154301
-2.3630354 -4.6894631 0.15403049 0 0 0 0 24.159248
-2.4407337 -4.6040506 0.16893218 0 0 0 0 24.164194
-2.5165362 -4.5056233 0.18281096 0 0 0 0 24.169142
-2.1875806 -4.8790717 0.13525587 0 0 0 0 24.174089
-2.271379 -4.7806973 0.15613924 0 0 0 0 24.179035
-2.3511019 -4.6923046 0.16803721 0 0 0 0 24.183983
-2.4348249 -4.6039472 0.17793761 0 0 0 0 24.188931
-2.0928781 -4.9762778 0.14237234 0 0 0 0 24.193876
-2.1826134 -4.8859568 0.15927276 0 0 0 0 24.198824
-2.2643859 -4.7915878 0.166162 0 0 0 0 24.203772
-2.3491652 -4.6962423 0.17305142 0 0 0 0 24.208717
-2.0039804 -5.098536 0.14853358 0 0 0 0 24.213665
-2.096772 -5.0012426 0.16242416 0 0 0 0 24.218613
-2.1766253 -4.8968644 0.16529572 0 0 0 0 24.223558
-2.2614853 -4.7915244 0.16816862 0 0 0 0 24.228506
-1.9052382 -5.2017169 0.15565675 0 0 0 0 24.233454
-2.0029988 -5.108469 0.16555704 0 0 0 0 24.2384
-2.0829561 -4.9910965 0.16440716 0 0 0 0 24.243347
-2.1737533 -4.8938093 0.16329703 0 0 0 0 24.248295
-1.8054521 -5.310894 0.16278885 0 0 0 0 24.253241
-1.9013335 -5.2026372 0.1676632 0 0 0 0 24.258188
-1.9960836 -5.1113849 0.16456535 0 0 0 0 24.263136
-2.0879536 -5.0051136 0.15844101 0 0 0 0 24.268082
-1.7014146 -5.4252958 0.16985928 0 0 0 0 24.011452
-1.8023065 -5.319109 0.1707367 0 0 0 0 24.016397
-1.8952193 -5.2108717 0.16260609 0 0 0 0 24.021345
-1.9911234 -5.1036592 0.15347911 0 0 0 0 24.026293
-1.5984718 -5.5514307 0.17702107 0 0 0 0 24.031239
-1.7014704 -5.4322653 0.17387764 0 0 0 0 24.036186
-1.795449 -5.3160424 0.16173416 0 0 0 0 24.041134
-1.8983293 -5.2118921 0.14861666 0 0 0 0 24.04608
-1.4896225 -5.6665187 0.18515991 0 0 0 0 24.051027
-1.5976059 -5.5494013 0.17702307 0 0 0 0 24.055975
-1.696577 -5.4342241 0.1608845 0 0 0 0 24.060921
-1.7985723 -5.3160734 0.14274272 0 0 0 0 24.065868
-1.3777533 -5.7845864 0.19330153 0 0 0 0 24.070814
-1.4936237 -5.6815395 0.18119346 0 0 0 0 24.075762
-1.5937499 -5.5473776 0.16002336 0 0 0 0 24.080709
-1.6958185 -5.4202328 0.13786654 0 0 0 0 24.085655
-1.263751 -5.919642 0.20147029 0 0 0 0 24.090603
-1.3827603 -5.7996264 0.18433525 0 0 0 0 24.095551
-1.4868948 -5.6645021 0.15916613 0 0 0 0 24.100496
-1.5988748 -5.5484428 0.13303405 0 0 0 0 24.105444
-1.1487123 -6.05969 0.21164626 0 0 0 0 24.110392
-1.2678686 -5.9216828 0.18848093 0 0 0 0 24.115337
-1.37602 -5.7845984 0.15831105 0 0 0 0 24.120285
-1.4900897 -5.6575623 0.12716177 0 0 0 0 24.125233
-1.0247117 -6.1956711 0.22080947 0 0 0 0 24.130178
-1.1509089 -6.0527277 0.19264005 0 0 0 0 24.135126
-1.2621255 -5.9076743 0.15745872 0 0 0 0 24.140074
-1.3782766 -5.7706618 0.12129398 0 0 0 0 24.14502
-0.89662808 -6.3426251 0.22998825 0 0 0 0 24.149967
-1.0259144 -6.1887126 0.19680232 0 0 0 0 24.154915
-1.1451393 -6.0427303 0.15662426 0 0 0 0 24.159861
-1.2643875 -5.8937488 0.11544135 0 0 0 0 24.164808
-0.76262158 -6.4805341 0.24014768 0 0 0 0 24.169756
-0.89990819 -6.3266921 0.2019667 0 0 0 0 24.174702
-1.0231256 -6.1817489 0.15679294 0 0 0 0 24.179649
-1.147455 -6.0228157 0.10959646 0 0 0 0 24.184595
-0.62454838 -6.6274157 0.25031927 0 0 0 0 24.189543
-0.76780397 -6.4776301 0.20614877 0 0 0 0 24.19449
-0.89711785 -6.3207412 0.15595864 0 0 0 0 24.199436
-1.0245832 -6.1448393 0.10373578 0 0 0 0 24.204384
-0.48230404 -6.796267 0.26252463 0 0 0 0 24.209332
-0.6298086 -6.6155238 0.21130489 0 0 0 0 24.214277
-0.76415521 -6.4546828 0.1551113 0 0 0 0 24.219225
-0.90050882 -6.2928581 0.097917385 0 0 0 0 24.224173
-0.33401045 -6.972075 0.27473745 0 0 0 0 24.229118
-0.48857969 -6.7833972 0.21650869 0 0 0 0 24.234066
-0.62906975 -6.6046114 0.15528886 0 0 0 0 24.239014
-0.77146387 -6.4378424 0.092090376 0 0 0 0 24.243959
-0.17579517 -7.1388102 0.28692862 0 0 0 0 24.248907
-0.34030059 -6.9582171 0.22371928 0 0 0 0 24.253855
-0.48593515 -6.7614822 0.15447275 0 0 0 0 24.258801
-0.63542503 -6.5827775 0.08525867 0 0 0 0 24.263748
-0.011324232 -7.3385005 0.30017036 0 0 0 0 24.268696
-0.1830689 -7.1279745 0.22891559 0 0 0 0 24.273642
-0.33671942 -6.9293113 0.15367073 0 0 0 0 24.278589
-0.49128097 -6.7416534 0.078444943 0 0 0 0 24.283537
0.16207637 -7.5301247 0.31439278 0 0 0 0 24.288483
-0.017811574 -7.3016734 0.23511314 0 0 0 0 24.29343
-0.17949371 -7.0990806 0.15386666 0 0 0 0 24.298376
-0.34314287 -6.9005032 0.071628176 0 0 0 0 24.303324
0.34442171 -7.7156858 0.3275992 0 0 0 0 24.308271
0.15268409 -7.5063357 0.24235825 0 0 0 0 24.313217
-0.016196253 -7.2788095 0.15307488 0 0 0 0 24.318165
-0.18686123 -7.0782948 0.064837463 0 0 0 0 24.323112
0.53809249 -7.9431596 0.3448678 0 0 0 0 24.328058
0.33610889 -7.7029023 0.2495818 0 0 0 0 24.333006
0.15425213 -7.4784875 0.15331121 0 0 0 0 24.337954
-0.023610435 -7.2530389 0.057037011 0 0 0 0 24.342899
0.74388009 -8.1865454 0.36215481 0 0 0 0 24.347847
0.52768362 -7.9194107 0.2578328 0 0 0 0 24.352795
0.33681041 -7.6930771 0.15356442 0 0 0 0 24.35774
0.14678264 -7.4467335 0.049262971 0 0 0 0 24.362688
0.95750177 -8.4098778 0.37940332 0 0 0 0 24.367636
0.73028922 -8.1408405 0.26608476 0 0 0 0 24.372581
0.52924263 -7.8925967 0.15278642 0 0 0 0 24.377529
0.32716048 -7.6393561 0.041480765 0 0 0 0 24.382477
1.1914907 -8.681057 0.39871809 0 0 0 0 24.387423
0.94606632 -8.3851738 0.27536598 0 0 0 0 24.39237
0.73181653 -8.111042 0.15403295 0 0 0 0 24.397318
0.52065516 -7.8478847 0.032716531 0 0 0 0 24.402264
1.4426261 -8.9721079 0.4200547 0 0 0 0 24.407211
1.1819741 -8.6473579 0.28466427 0 0 0 0 24.412159
0.94847441 -8.3413887 0.15329021 0 0 0 0 24.417105
0.72424304 -8.0693426 0.023966921 0 0 0 0 24.422052
1.7046576 -9.2510824 0.44236428 0 0 0 0 24.426998
1.4300516 -8.9324551 0.29599202 0 0 0 0 24.431946
1.1823956 -8.6066093 0.15359387 0 0 0 0 24.436893
0.94203144 -8.3177004 0.014252359 0 0 0 0 24.441839
1.9930437 -9.5768585 0.46673441 0 0 0 0 24.446787
1.6931413 -9.2204437 0.30731493 0 0 0 0 24.451735
1.4314384 -8.8887205 0.15391549 0 0 0 0 24.45668
1.1748723 -8.5739489 0.0045412728 0 0 0 0 24.461628
2.3046887 -9.9374657 0.49314696 0 0 0 0 24.466576
1.9814988 -9.5442467 0.31968096 0 0 0 0 24.471521
1.6976099 -9.1887074 0.15525551 0 0 0 0 24.476469
