# .PCD v0.7 - Point Cloud Data file format
VERSION 0.7
FIELDS x y z normal_x normal_y normal_z intensity curvature
SIZE 4 4 4 4 4 4 4 4
TYPE F F F F F F F F
COUNT 1 1 1 1 1 1 1 1
WIDTH 945
HEIGHT 1
VIEWPOINT 0 0 0 1 0 0 0
POINTS 945
DATA ascii
3.6789746 -2.2630467 0.00052011188 0 0 0 0 58.462009
3.6366158 -2.2888863 -0.10376892 0 0 0 0 58.466953
3.6042535 -2.3097324 -0.20698909 0 0 0 0 58.471905
3.5639174 -2.3295689 -0.31425795 0 0 0 0 58.476849
3.7979951 -2.2201118 0.0043666107 0 0 0 0 58.4818
3.751663 -2.2439437 -0.1039448 0 0 0 0 58.486744
3.7163274 -2.2627828 -0.21118101 0 0 0 0 58.491695
3.683022 -2.2846162 -0.32340878 0 0 0 0 58.496639
3.9110184 -2.172174 0.0081839338 0 0 0 0 58.501583
3.8737106 -2.1980052 -0.10407388 0 0 0 0 58.506535
3.8384013 -2.2158389 -0.21530874 0 0 0 0 58.511478
3.8071218 -2.2376678 -0.3315239 0 0 0 0 58.51643
4.0337381 -2.1242704 0.012299582 0 0 0 0 58.211918
4.0024552 -2.1521001 -0.10591926 0 0 0 0 58.216869
3.9671595 -2.1699312 -0.22114995 0 0 0 0 58.221813
3.9398994 -2.1917589 -0.34233657 0 0 0 0 58.226757
4.174758 -2.0813468 0.016273269 0 0 0 0 58.231709
4.1355033 -2.1041667 -0.10598831 0 0 0 0 58.236652
4.1012459 -2.1219902 -0.2272127 0 0 0 0 58.241604
4.082016 -2.1458156 -0.35335246 0 0 0 0 58.246548
4.3127813 -2.0314217 0.02023961 0 0 0 0 58.251499
4.2765574 -2.0562363 -0.10700602 0 0 0 0 58.256443
4.2453327 -2.0720549 -0.23320921 0 0 0 0 58.261387
4.2261343 -2.0958731 -0.36434877 0 0 0 0 58.266338
4.4508076 -1.9774965 0.024213172 0 0 0 0 58.271282
4.4206142 -2.0033076 -0.10799662 0 0 0 0 58.276234
4.3894215 -2.0181196 -0.23919837 0 0 0 0 58.281178
4.3522553 -2.0309231 -0.37443462 0 0 0 0 58.286121
4.5948343 -1.9215747 0.028228482 0 0 0 0 58.291073
4.5676804 -1.9453794 -0.10996002 0 0 0 0 58.296017
4.5435119 -1.9621897 -0.24512096 0 0 0 0 58.300968
4.3733368 -1.9149319 -0.37410161 0 0 0 0 58.305912
4.7518554 -1.8636611 0.033328947 0 0 0 0 58.310863
4.7237396 -1.8874574 -0.11086556 0 0 0 0 58.315807
4.7016106 -1.9022604 -0.2520113 0 0 0 0 58.320751
4.3413987 -1.7789193 -0.36907005 0 0 0 0 58.325703
4.9108853 -1.8007475 0.037450653 0 0 0 0 58.330647
4.8888073 -1.8245388 -0.11270647 0 0 0 0 58.335598
4.864718 -1.8373328 -0.25986174 0 0 0 0 58.340542
4.3294725 -1.6549135 -0.36693019 0 0 0 0 58.345486
5.0939131 -1.7418466 0.0417183 0 0 0 0 58.350437
5.0658755 -1.7616266 -0.11447055 0 0 0 0 58.355381
4.9968157 -1.7553928 -0.26487985 0 0 0 0 58.360332
4.3275437 -1.5359129 -0.36473453 0 0 0 0 58.365276
5.2779441 -1.6759464 0.046003979 0 0 0 0 58.37022
5.2599511 -1.6957222 -0.1171225 0 0 0 0 58.375172
4.9648848 -1.6163793 -0.26083988 0 0 0 0 58.380116
4.3456283 -1.4269189 -0.3654274 0 0 0 0 58.385067
5.4569745 -1.599045 0.051275738 0 0 0 0 58.390011
5.4510245 -1.6218177 -0.11877976 0 0 0 0 58.394962
4.9529619 -1.4853737 -0.25868601 0 0 0 0 58.399906
4.3707161 -1.3219273 -0.36708137 0 0 0 0 58.40485
5.672008 -1.5271615 0.055767562 0 0 0 0 58.409801
5.6421075 -1.5409122 -0.12142501 0 0 0 0 58.414745
4.9270272 -1.3533635 -0.25461772 0 0 0 0 58.419697
4.3567872 -1.2039205 -0.3649604 0 0 0 0 58.424641
5.8820462 -1.4462755 0.060243204 0 0 0 0 58.429585
5.7651877 -1.4339745 -0.12145679 0 0 0 0 58.434536
4.9381104 -1.2343676 -0.25433588 0 0 0 0 58.43948
4.3498554 -1.0919173 -0.36280352 0 0 0 0 58.444431
6.0990891 -1.3563933 0.064777486 0 0 0 0 58.449375
5.7012634 -1.2809447 -0.11759216 0 0 0 0 58.454319
4.9611926 -1.115378 -0.25397861 0 0 0 0 58.45927
4.3839488 -0.98892909 -0.36540231 0 0 0 0 58.464214
6.3711238 -1.2685419 0.070655599 0 0 0 0 58.469166
5.6913433 -1.1429408 -0.11541054 0 0 0 0 58.47411
4.9672689 -0.99738079 -0.25272813 0 0 0 0 58.479061
4.381022 -0.87892663 -0.36422229 0 0 0 0 58.484005
6.6141667 -1.1656752 0.076376274 0 0 0 0 58.488949
5.7004204 -1.0099469 -0.11311647 0 0 0 0 58.4939
4.9613471 -0.87637711 -0.25154829 0 0 0 0 58.498844
4.3991113 -0.77393132 -0.36591715 0 0 0 0 58.503796
6.8532214 -1.0518053 0.081090152 0 0 0 0 58.508739
5.7425056 -0.88396788 -0.11262462 0 0 0 0 58.513683
6.6953163 -0.8767249 0.083402671 0 0 0 0 58.52853
5.7025795 -0.74694937 -0.10963083 0 0 0 0 58.533474
6.7583899 -0.73376173 0.087056421 0 0 0 0 58.548313
5.7476654 -0.61997205 -0.1091174 0 0 0 0 58.553265
6.7124782 -0.57973939 0.089042179 0 0 0 0 58.568104
5.773747 -0.48998594 -0.10771825 0 0 0 0 58.573048
6.7435546 -0.4317593 0.092503518 0 0 0 0 58.587894
5.7418261 -0.35497031 -0.10567612 0 0 0 0 58.592838
6.7786326 -0.28278136 0.095992222 0 0 0 0 58.607677
5.7749133 -0.22598664 -0.10523307 0 0 0 0 58.612629
6.7927175 -0.13279094 0.098351069 0 0 0 0 58.627468
5.7920017 -0.09499447 -0.10488724 0 0 0 0 58.632412
6.8148012 0.016195199 0.10075967 0 0 0 0 58.647259
5.7780852 0.036012884 -0.10373616 0 0 0 0 58.652203
6.7808876 0.16621117 0.10281709 0 0 0 0 58.667042
5.7561679 0.16602451 -0.10263666 0 0 0 0 58.671993
6.7857375 0.31619918 0.10322323 0 0 0 0 58.438129
5.7719984 0.29800007 -0.10310628 0 0 0 0 58.443073
5.7790818 0.42999628 -0.1018235 0 0 0 0 58.462864
5.7461648 0.56001365 -0.1007927 0 0 0 0 58.482655
5.746254 0.69101489 -0.10055424 0 0 0 0 58.502438
5.7523508 0.82601422 -0.10127244 0 0 0 0 58.522228
5.7494416 0.9590171 -0.10104918 0 0 0 0 58.542019
5.7405324 1.0920231 -0.1008632 0 0 0 0 58.561802
5.7646322 1.2330129 -0.10145896 0 0 0 0 58.581593
4.8934765 1.098666 -0.24909674 0 0 0 0 58.586536
4.2611675 1.005156 -0.36818177 0 0 0 0 58.591488
5.7047138 1.3580447 -0.10060336 0 0 0 0 58.601383
4.8895736 1.2186725 -0.25090173 0 0 0 0 58.606327
4.2492523 1.110166 -0.3690615 0 0 0 0 58.611271
5.7078137 1.4960458 -0.10133433 0 0 0 0 58.621166
4.8666577 1.3356866 -0.25083002 0 0 0 0 58.626118
4.2253289 1.212181 -0.36902058 0 0 0 0 58.631062
5.6989126 1.6330531 -0.10214171 0 0 0 0 58.640957
4.8507409 1.4526969 -0.25071415 0 0 0 0 58.645901
4.2134204 1.3191923 -0.37089729 0 0 0 0 58.650852
5.7040215 1.7760544 -0.1038524 0 0 0 0 58.660748
4.8828583 1.5866868 -0.25427243 0 0 0 0 58.665691
4.1874976 1.4222084 -0.37086758 0 0 0 0 58.670635
5.6541033 1.9020809 -0.10293267 0 0 0 0 58.680531
4.826932 1.6947173 -0.25342053 0 0 0 0 58.685482
4.1805906 1.5312171 -0.37270972 0 0 0 0 58.690426
5.6402049 2.0430911 -0.10376546 0 0 0 0 58.700321
4.8190317 1.8187259 -0.25524408 0 0 0 0 58.705265
4.1536751 1.6352351 -0.37368479 0 0 0 0 58.710217
5.6043024 2.1741128 -0.10475063 0 0 0 0 58.720104
4.8121338 1.9467342 -0.25705561 0 0 0 0 58.725056
4.1347618 1.7442489 -0.37460256 0 0 0 0 58.73
5.6144161 2.3271115 -0.10641488 0 0 0 0 58.739895
4.7932281 2.0707476 -0.25794819 0 0 0 0 58.744846
4.1298642 1.8592578 -0.37742338 0 0 0 0 58.74979
5.5835176 2.4651306 -0.10735865 0 0 0 0 58.759686
4.7673216 2.1927645 -0.25888777 0 0 0 0 58.764629
4.1229682 1.9762678 -0.38025388 0 0 0 0 58.769581
5.5676293 2.6121433 -0.10919505 0 0 0 0 58.779469
4.7174034 2.3037932 -0.25899446 0 0 0 0 58.78442
4.0770373 2.0742934 -0.37935746 0 0 0 0 58.789364
5.5417385 2.7541611 -0.11110143 0 0 0 0 58.799259
4.7165165 2.4397995 -0.26175624 0 0 0 0 58.804203
4.0721436 2.1953025 -0.38216954 0 0 0 0 58.809155
6.2626281 3.1644931 0.10309059 0 0 0 0 58.814098
5.5008402 2.8921857 -0.11210852 0 0 0 0 58.81905
4.6976218 2.5718145 -0.26363754 0 0 0 0 58.823994
4.0642567 2.3173144 -0.38599902 0 0 0 0 58.828945
6.2037387 3.3095281 0.10098389 0 0 0 0 58.833889
5.5019674 3.0561905 -0.1148131 0 0 0 0 58.838833
4.680728 2.705828 -0.2655032 0 0 0 0 58.843784
4.0343466 2.4303341 -0.38698059 0 0 0 0 58.848728
6.143856 3.454565 0.097870521 0 0 0 0 58.85368
5.4430604 3.1892235 -0.11494158 0 0 0 0 58.858624
4.6518331 2.8368483 -0.2674492 0 0 0 0 58.863567
4.0134468 2.5513504 -0.38889393 0 0 0 0 58.868519
6.0909719 3.609597 0.095814995 0 0 0 0 58.873463
4.0546198 2.7153442 -0.3983528 0 0 0 0 58.888309
3.8944902 2.630197 -0.22644497 0 0 0 0 58.903149
3.4841397 2.4545734 -0.34329414 0 0 0 0 58.908092
4.063745 2.7679245 -0.086995244 0 0 0 0 58.965076
3.6354482 2.5803237 -0.21298516 0 0 0 0 58.97002
3.2560577 2.4106748 -0.32263818 0 0 0 0 58.974972
6.1924644 4.2505565 0.090726398 0 0 0 0 58.979916
4.2229481 3.0198514 -0.093573563 0 0 0 0 58.984867
4.1439943 3.0911074 -0.24997199 0 0 0 0 58.989811
3.0709701 2.3887556 -0.30780497 0 0 0 0 58.994755
5.7214508 4.1188169 0.083595648 0 0 0 0 58.999706
4.1800442 3.1348791 -0.095633768 0 0 0 0 59.00465
4.1211081 3.226126 -0.25287673 0 0 0 0 59.009602
4.0021758 3.273411 -0.41456553 0 0 0 0 59.014545
5.7346001 4.3258152 0.081033066 0 0 0 0 59.019489
4.1731639 3.2828887 -0.098417513 0 0 0 0 59.024441
4.1092348 3.3741398 -0.25669283 0 0 0 0 59.029385
3.9843094 3.4194298 -0.41942361 0 0 0 0 59.034336
5.3776131 4.2490144 0.074701518 0 0 0 0 59.03928
4.1442771 3.4179103 -0.10136027 0 0 0 0 59.044231
4.0633373 3.4981697 -0.25876042 0 0 0 0 59.049175
3.9273973 3.5374629 -0.41957107 0 0 0 0 59.054119
4.9425817 4.0852561 0.067743175 0 0 0 0 59.059071
4.5656991 3.9447114 -0.11786544 0 0 0 0 59.064014
4.0184431 3.6281989 -0.2608135 0 0 0 0 59.068966
3.9145451 3.6974807 -0.42537749 0 0 0 0 59.07391
4.440762 4.0167804 -0.11851019 0 0 0 0 59.083805
3.9815598 3.7662251 -0.26380417 0 0 0 0 59.088749
3.8736646 3.8395092 -0.42838904 0 0 0 0 59.0937
4.4058871 4.1738052 -0.12145837 0 0 0 0 59.103588
3.9286585 3.8952572 -0.26491061 0 0 0 0 59.10854
3.8217738 3.9725425 -0.43048415 0 0 0 0 59.113483
4.6318688 4.3864408 0.057344127 0 0 0 0 59.118435
4.3530054 4.3158402 -0.12454344 0 0 0 0 59.123379
3.885777 4.0362864 -0.26793611 0 0 0 0 59.12833
3.7869079 4.1295691 -0.43443644 0 0 0 0 59.133274
4.5739932 4.529479 0.05322985 0 0 0 0 59.138218
4.3041368 4.4698734 -0.12858632 0 0 0 0 59.143169
3.8288841 4.1673222 -0.27006614 0 0 0 0 59.148113
3.7580612 4.297596 -0.44033465 0 0 0 0 59.153065
4.5211239 4.6845145 0.049164228 0 0 0 0 59.158009
4.2462568 4.6149111 -0.1317001 0 0 0 0 59.162952
3.7679911 4.2983603 -0.2722224 0 0 0 0 59.167904
3.7252119 4.4726233 -0.44524896 0 0 0 0 59.172848
4.460258 4.8335562 0.044038288 0 0 0 0 59.177799
4.1883883 4.76895 -0.13580172 0 0 0 0 59.182743
3.7281265 4.4583898 -0.27620277 0 0 0 0 59.187695
3.6693439 4.6236615 -0.44934553 0 0 0 0 59.192638
4.3943868 4.9835987 0.03988092 0 0 0 0 59.197582
4.1335239 4.929987 -0.13987441 0 0 0 0 59.202534
3.6732576 4.609427 -0.28029296 0 0 0 0 59.207478
3.6395171 4.81569 -0.45621666 0 0 0 0 59.212429
4.3365288 5.1466384 0.034793168 0 0 0 0 59.217373
4.0676503 5.0850291 -0.14302716 0 0 0 0 59.222317
3.6123796 4.7554669 -0.28342929 0 0 0 0 59.227268
3.5916722 4.997725 -0.46121854 0 0 0 0 59.232212
4.2766743 5.3156796 0.029700501 0 0 0 0 59.237164
4.0037937 5.2480726 -0.14815609 0 0 0 0 59.242107
3.5595188 4.9215035 -0.2874862 0 0 0 0 59.247051
3.5258033 5.1577678 -0.4643681 0 0 0 0 59.252003
4.2198315 5.4947205 0.02364099 0 0 0 0 59.256947
3.9419372 5.4231133 -0.15225568 0 0 0 0 59.261898
3.4996569 5.0845442 -0.29159296 0 0 0 0 59.266842
3.4539368 5.3218141 -0.46755159 0 0 0 0 59.271793
4.1599846 5.6767616 0.018565932 0 0 0 0 59.276737
3.873085 5.5931602 -0.1574081 0 0 0 0 59.281681
3.4257822 5.2355909 -0.294808 0 0 0 0 59.286633
3.3790708 5.4858613 -0.47075501 0 0 0 0 59.291576
4.0841379 5.8468127 0.012369654 0 0 0 0 59.296528
3.8152523 5.7872014 -0.16345568 0 0 0 0 59.301472
3.3479085 5.3876395 -0.29804823 0 0 0 0 59.306416
3.2992074 5.6549115 -0.47398457 0 0 0 0 59.311367
4.0113044 6.0288634 0.0052092187 0 0 0 0 59.316311
3.7434101 5.9752498 -0.16860318 0 0 0 0 59.321262
3.2640331 5.5356917 -0.30133376 0 0 0 0 59.326206
3.1932957 5.7809706 -0.47344461 0 0 0 0 59.33115
3.9454765 6.2329092 -0.00087515649 0 0 0 0 59.336102
3.67258 6.1732988 -0.17473054 0 0 0 0 59.341045
3.1881778 5.7097416 -0.30553129 0 0 0 0 59.345997
3.1144559 5.9690232 -0.47864231 0 0 0 0 59.350941
3.8606436 6.4149675 -0.0081147384 0 0 0 0 59.355892
3.6007648 6.3863502 -0.18184374 0 0 0 0 59.360836
3.1063209 5.8797936 -0.30977416 0 0 0 0 59.36578
3.0135744 6.1270828 -0.48002651 0 0 0 0 59.370731
3.775825 6.6110268 -0.016335284 0 0 0 0 59.375675
3.5119307 6.5754089 -0.18810216 0 0 0 0 59.380627
3.0354967 6.0868435 -0.31589365 0 0 0 0 59.385571
2.9167144 6.3001423 -0.48336434 0 0 0 0 59.390514
3.6950164 6.8250833 -0.024504874 0 0 0 0 59.395466
3.4361348 6.8114634 -0.19621006 0 0 0 0 59.40041
2.9466543 6.2709017 -0.32116374 0 0 0 0 59.405361
2.8158598 6.4832048 -0.48671505 0 0 0 0 59.410305
3.6122134 7.0491419 -0.032673955 0 0 0 0 59.415257
3.3553402 7.048521 -0.20434959 0 0 0 0 59.4202
2.8558209 6.4709606 -0.32642511 0 0 0 0 59.425144
2.7120149 6.6712704 -0.49107921 0 0 0 0 59.430096
3.5240803 7.2812648 -0.040094052 0 0 0 0 60.011257
3.2782612 7.3166485 -0.21169491 0 0 0 0 60.016201
2.7717233 6.6951003 -0.33201113 0 0 0 0 60.021145
2.5988955 6.8524284 -0.49194324 0 0 0 0 60.026096
3.4343083 7.5283308 -0.050283257 0 0 0 0 60.03104
3.2035272 7.6197085 -0.22270273 0 0 0 0 60.035992
3.0498221 7.889039 -0.39134273 0 0 0 0 60.040936
2.4870625 7.0564995 -0.49635121 0 0 0 0 60.045879
3.3395424 7.7863998 -0.060490713 0 0 0 0 60.050831
3.1588695 8.0257559 -0.23635732 0 0 0 0 60.055775
2.9360521 8.1591158 -0.39966366 0 0 0 0 60.060726
2.3702388 7.264575 -0.50178802 0 0 0 0 60.06567
3.245801 8.0764704 -0.071645185 0 0 0 0 60.070621
3.0681596 8.3578262 -0.24843113 0 0 0 0 60.075565
2.8193038 8.4551973 -0.40896773 0 0 0 0 60.080509
2.2434027 7.4736533 -0.50529218 0 0 0 0 60.085461
3.1460743 8.3795462 -0.083821766 0 0 0 0 60.090405
2.9684691 8.712904 -0.26153257 0 0 0 0 60.095356
2.7035954 8.7862825 -0.42121443 0 0 0 0 60.1003
2.1125884 7.6977367 -0.51080269 0 0 0 0 60.105244
3.0423658 8.7026243 -0.09699662 0 0 0 0 60.110195
2.8547766 9.0619879 -0.27473816 0 0 0 0 60.115139
2.5778966 9.1343727 -0.43350482 0 0 0 0 60.12009
1.9717534 7.9078231 -0.51440269 0 0 0 0 60.125034
2.9196537 9.0177135 -0.11031277 0 0 0 0 60.129978
2.7331026 9.4310789 -0.28896931 0 0 0 0 60.13493
2.4422133 9.4964705 -0.44684333 0 0 0 0 60.139874
1.829955 8.1469145 -0.5209682 0 0 0 0 60.144825
2.8090005 9.4028015 -0.12644534 0 0 0 0 60.149769
2.5954351 9.79918 -0.30431128 0 0 0 0 60.15472
2.3005664 9.8995743 -0.46216324 0 0 0 0 60.159664
1.6731368 8.374012 -0.52565467 0 0 0 0 60.164608
2.675329 9.7649002 -0.1417686 0 0 0 0 60.169559
2.4517992 10.210287 -0.3206318 0 0 0 0 60.174503
2.138896 10.282686 -0.47564951 0 0 0 0 60.179455
1.8241453 10.420113 -0.64758611 0 0 0 0 60.184399
2.5427225 10.207004 -0.15996832 0 0 0 0 60.189342
2.2931683 10.629401 -0.33704352 0 0 0 0 60.194294
1.9743083 10.752809 -0.49402943 0 0 0 0 60.199238
1.6445415 10.883241 -0.6640808 0 0 0 0 60.204189
2.3971379 10.663116 -0.18023653 0 0 0 0 60.209133
2.1215732 11.087526 -0.35548756 0 0 0 0 60.214077
1.7897195 11.231939 -0.51153344 0 0 0 0 60.219028
1.4510202 11.432383 -0.6855455 0 0 0 0 60.223972
2.2436047 11.185237 -0.20246287 0 0 0 0 60.228924
1.93801 11.576662 -0.37596881 0 0 0 0 60.233868
1.5972081 11.788083 -0.53397983 0 0 0 0 60.238819
1.2365376 12.02454 -0.70909148 0 0 0 0 60.243763
2.0831387 11.791366 -0.22761384 0 0 0 0 60.248707
1.7384969 12.11781 -0.39948383 0 0 0 0 60.253658
1.380688 12.338239 -0.55560011 0 0 0 0 60.258602
1.0101647 12.739714 -0.73853934 0 0 0 0 60.263554
1.897686 12.406511 -0.25392291 0 0 0 0 60.268497
1.519997 12.68097 -0.42309752 0 0 0 0 60.273441
1.1351616 12.887409 -0.57642174 0 0 0 0 60.278393
0.83021784 14.932991 -0.85449886 0 0 0 0 60.283337
1.6591098 12.831682 -0.27787605 0 0 0 0 60.288288
1.7919025 18.670153 -0.64237249 0 0 0 0 60.293232
1.0582774 16.424696 -0.73669499 0 0 0 0 60.298183
0.51531452 16.166252 -0.90979111 0 0 0 0 60.303127
1.6069812 15.212826 -0.3516731 0 0 0 0 60.308071
1.3216254 18.242405 -0.6341632 0 0 0 0 60.313023
0.64356172 15.628866 -0.69465506 0 0 0 0 60.317966
0.15536098 18.404623 -1.0209136 0 0 0 0 60.322918
1.5216193 18.577034 -0.45624334 0 0 0 0 60.327862
0.74307364 15.026561 -0.52381325 0 0 0 0 60.332806
0.28601468 16.155098 -0.71428227 0 0 0 0 60.337757
-0.27387318 18.263826 -0.99501562 0 0 0 0 60.342701
0.89321578 15.159275 -0.38454008 0 0 0 0 60.347652
0.39324373 15.155776 -0.53497458 0 0 0 0 60.352596
-0.10311274 18.299459 -0.80774319 0 0 0 0 60.35754
-0.69216138 18.06402 -0.96613562 0 0 0 0 60.362492
0.53324026 15.001498 -0.39819556 0 0 0 0 60.367435
0.045938704 18.353165 -0.66159272 0 0 0 0 60.372387
-0.52924883 18.152683 -0.79684043 0 0 0 0 60.377331
-1.1034096 17.900215 -0.9401601 0 0 0 0 60.382282
0.21654761 17.82283 -0.49915531 0 0 0 0 60.387226
-0.37910753 18.196407 -0.66469884 0 0 0 0 60.39217
-0.94139326 17.991899 -0.78586811 0 0 0 0 60.397121
-1.5136307 17.761412 -0.9161467 0 0 0 0 60.402065
-0.19623508 17.883099 -0.52285808 0 0 0 0 60.407017
-0.79516143 18.038647 -0.66675049 0 0 0 0 60.411961
-1.3535466 17.828115 -0.77390623 0 0 0 0 60.416904
-1.9178209 17.654608 -0.89405024 0 0 0 0 60.421856
-0.6238966 18.098383 -0.55143934 0 0 0 0 60.4268
-1.2051985 17.886883 -0.67075783 0 0 0 0 60.431751
-1.7596453 17.713333 -0.76583612 0 0 0 0 60.436695
-2.3120863 17.462793 -0.8680169 0 0 0 0 60.441647
-1.0358316 17.957642 -0.56944484 0 0 0 0 60.44659
-1.6152358 17.74712 -0.67375338 0 0 0 0 60.451534
-2.152807 17.523539 -0.75479364 0 0 0 0 60.456486
-2.7062836 17.332985 -0.84689707 0 0 0 0 60.46143
-1.4477718 17.806902 -0.58747113 0 0 0 0 60.466381
-2.0241964 17.683363 -0.68163466 0 0 0 0 60.471325
-2.5797567 17.577782 -0.75462848 0 0 0 0 60.476269
-3.1382737 17.437216 -0.83669704 0 0 0 0 60.48122
-1.8669866 17.805109 -0.61088151 0 0 0 0 60.227879
-2.4435267 17.658546 -0.69103092 0 0 0 0 60.232822
-2.9742684 17.445923 -0.74696523 0 0 0 0 60.237774
-2.279851 17.743376 -0.63275635 0 0 0 0 60.247669
-5.56671 15.700262 -0.66117078 0 0 0 0 60.361446
-5.4505591 15.813216 -0.67019367 0 0 0 0 60.376286
-5.9378591 15.59845 -0.64486402 0 0 0 0 60.381237
-5.8176522 15.675418 -0.66491359 0 0 0 0 60.396076
-6.2770758 15.412615 -0.62546664 0 0 0 0 60.40102
-5.6803236 15.649415 -0.71099663 0 0 0 0 60.410915
-6.1498098 15.460596 -0.65651166 0 0 0 0 60.415867
-6.6362643 15.266793 -0.60715306 0 0 0 0 60.420811
-5.5448637 15.696432 -0.76998341 0 0 0 0 60.425762
-6.0493207 15.522637 -0.71872014 0 0 0 0 60.430706
-6.5119066 15.316795 -0.65121651 0 0 0 0 60.43565
-7.0203886 15.184992 -0.59292215 0 0 0 0 60.440601
-5.9267545 15.585683 -0.79177362 0 0 0 0 60.445545
-6.3963604 15.343845 -0.72437429 0 0 0 0 60.450497
-6.8799782 15.194 -0.64793688 0 0 0 0 60.455441
-7.3685908 15.015164 -0.57457888 0 0 0 0 60.460384
-6.2717195 15.392907 -0.80943555 0 0 0 0 60.465336
-6.7693586 15.21507 -0.73213911 0 0 0 0 60.47028
-7.2480583 15.068206 -0.6436671 0 0 0 0 60.475231
-7.7547283 14.923363 -0.55938751 0 0 0 0 60.480175
-6.6456304 15.257152 -0.83021849 0 0 0 0 60.485126
-7.1463337 15.1023 -0.74191308 0 0 0 0 60.49007
-7.6091537 14.915405 -0.63939434 0 0 0 0 60.495014
-7.0355048 15.16241 -0.85305655 0 0 0 0 60.50491
-6.6598959 13.256913 -0.66128385 0 0 0 0 60.509861
-6.5580807 13.304027 -0.77150816 0 0 0 0 60.5247
-7.9851642 15.001821 -0.76888025 0 0 0 0 60.529644
-7.8561788 15.014958 -0.90597093 0 0 0 0 60.544483
-10.698155 14.536195 -0.65151632 0 0 0 0 60.633533
-11.703743 14.29745 -0.4419196 0 0 0 0 60.658268
-12.073977 14.074638 -0.42387146 0 0 0 0 60.678059
-12.488162 13.902855 -0.40905976 0 0 0 0 60.697842
-12.896827 13.822357 -0.65163797 0 0 0 0 60.487141
-13.30195 13.604587 -0.64880866 0 0 0 0 60.506931
-13.235468 12.845098 -0.34648132 0 0 0 0 60.511875
-13.177528 12.867483 -0.62108451 0 0 0 0 60.526722
-13.675657 12.674329 -0.33083275 0 0 0 0 60.531666
-13.124446 12.856906 -0.91877061 0 0 0 0 60.541561
-13.606614 12.680731 -0.6213851 0 0 0 0 60.546505
-14.119834 12.502563 -0.31721988 0 0 0 0 60.551456
-13.065178 12.860362 -1.2413929 0 0 0 0 60.5564
-13.565422 12.676183 -0.93414724 0 0 0 0 60.561352
-14.054688 12.502992 -0.6228106 0 0 0 0 60.566296
-14.551043 12.299788 -0.30156961 0 0 0 0 60.571239
-13.540006 12.704688 -1.2759701 0 0 0 0 60.576191
-14.025392 12.493473 -0.95066553 0 0 0 0 60.581135
-14.532755 12.337269 -0.62443346 0 0 0 0 60.586086
-15.044218 12.14105 -0.28729126 0 0 0 0 60.59103
-13.95891 12.473975 -1.3052769 0 0 0 0 60.595974
-14.475369 12.296759 -0.96714193 0 0 0 0 60.600925
-15.003837 12.144543 -0.62605494 0 0 0 0 60.605869
-15.934189 12.271544 -0.28035173 0 0 0 0 60.610821
-14.467715 12.316326 -1.3431073 0 0 0 0 60.615765
-14.974322 12.118073 -0.98593944 0 0 0 0 60.620716
-16.431396 12.066809 -0.26518682 0 0 0 0 60.630604
-14.975531 12.141676 -1.3809638 0 0 0 0 60.635555
-16.904631 11.834057 -0.24890396 0 0 0 0 60.650394
-17.297554 12.11091 -0.66529495 0 0 0 0 60.665234
-17.625771 11.744097 -0.66121191 0 0 0 0 60.685024
-17.47205 12.17641 -1.5845466 0 0 0 0 60.69492
-18.097919 11.457371 -0.66102141 0 0 0 0 60.704815
-18.005899 11.90878 -1.6247605 0 0 0 0 60.714703
-18.589703 11.660188 -1.6703041 0 0 0 0 60.734493
-0.33555576 0.059432957 0.0072704116 0 0 0 0 60.800098
-0.31858605 0.029417267 0.01842008 0 0 0 0 60.864407
-0.29937443 -0.0035483669 -0.0013901602 0 0 0 0 60.953449
-0.32844183 -0.0075461459 0.0084038908 0 0 0 0 60.958401
-0.31750041 -0.01656515 0.019496879 0 0 0 0 60.983135
-0.29834369 -0.019542323 -0.0013607015 0 0 0 0 60.993031
-0.29428169 -0.050531399 -0.0012862538 0 0 0 0 61.072178
-0.32835105 -0.057526328 0.0084663387 0 0 0 0 61.077129
-0.31649828 -0.05756541 0.030562855 0 0 0 0 61.087017
-0.3174161 -0.06454701 0.02056263 0 0 0 0 61.101864
-0.32732105 -0.074520297 0.0084935548 0 0 0 0 61.116703
-0.33562395 -0.09440586 0.032419704 0 0 0 0 61.994175
-0.33953306 -0.10438328 0.021391379 0 0 0 0 62.009022
-0.33459508 -0.11239989 0.032444093 0 0 0 0 62.033756
-0.27733228 -0.11037791 0.00090203941 0 0 0 0 62.058491
-0.31740203 -0.12536786 0.0095849829 0 0 0 0 62.063435
-0.32447308 -0.136379 0.021543397 0 0 0 0 62.088169
-0.32527596 -0.14833461 -0.0044712876 0 0 0 0 62.098064
-0.38436607 -0.17331649 0.0060527087 0 0 0 0 62.103008
-0.39254624 -0.19535051 0.03501258 0 0 0 0 62.152485
-0.311288 -0.20134495 0.0096906805 0 0 0 0 62.221737
-12.513813 -8.417841 -0.21454857 0 0 0 0 62.266262
-10.642026 -7.7985477 -1.0585011 0 0 0 0 62.276157
-12.235469 -8.8002253 -0.68614578 0 0 0 0 62.281101
-12.365008 -8.736927 -0.21102189 0 0 0 0 62.286053
-12.513592 -8.6956244 0.26792231 0 0 0 0 62.290997
-7.6750183 -5.9177594 -0.76310855 0 0 0 0 62.295948
-7.8725157 -5.9531813 -0.43465468 0 0 0 0 62.300892
-8.1158667 -6.0235395 -0.12860517 0 0 0 0 62.305836
-10.80782 -7.8765678 0.23905623 0 0 0 0 62.310787
-6.8743286 -5.5733433 -0.6885373 0 0 0 0 62.315731
-7.1146097 -5.6496878 -0.39247423 0 0 0 0 62.320683
-7.2997417 -5.6870375 -0.11293229 0 0 0 0 62.325626
-7.6020274 -5.8103395 0.179584 0 0 0 0 62.33057
-6.2405806 -5.3148055 -0.62935609 0 0 0 0 62.335522
-6.3806734 -5.3201776 -0.35242099 0 0 0 0 62.340466
-6.6816597 -5.4584136 -0.10092059 0 0 0 0 62.345417
-6.947773 -5.565702 0.16989358 0 0 0 0 62.350361
-6.0177169 -5.3819571 -0.61280686 0 0 0 0 62.355312
-6.103754 -5.3373551 -0.33938172 0 0 0 0 62.360256
-6.2556314 -5.3576713 -0.092562132 0 0 0 0 62.3652
-6.3705363 -5.3440194 0.16059256 0 0 0 0 62.370152
-5.8948264 -5.5350327 -0.60715264 0 0 0 0 62.375095
-5.9658537 -5.4704404 -0.33358145 0 0 0 0 62.380047
-6.0816908 -5.4567738 -0.089434154 0 0 0 0 62.384991
-6.1575332 -5.4091358 0.15807147 0 0 0 0 62.389935
-6.4507923 -6.3535881 -0.67573398 0 0 0 0 62.394886
-6.5400472 -6.2880344 -0.37229997 0 0 0 0 62.39983
-6.6240697 -6.2234335 -0.099829078 0 0 0 0 62.404781
-6.0325923 -5.5452037 0.15776911 0 0 0 0 62.409725
-6.4039044 -6.6186042 -0.67884368 0 0 0 0 62.414669
-6.4981728 -6.5470514 -0.37343824 0 0 0 0 62.419621
-6.5781989 -6.472455 -0.099920996 0 0 0 0 62.424564
-6.6262016 -6.368876 0.17288661 0 0 0 0 62.429516
-6.3060236 -6.8416576 -0.67749757 0 0 0 0 62.43446
-6.393291 -6.7511115 -0.37100807 0 0 0 0 62.439411
-6.4953208 -6.6945004 -0.098687798 0 0 0 0 62.444355
-6.5773454 -6.613903 0.17482363 0 0 0 0 62.449299
-6.0256033 -6.6704264 -0.35277885 0 0 0 0 62.206661
-6.3026195 -6.8016844 -0.095071815 0 0 0 0 62.211605
-6.464654 -6.8040309 0.17570837 0 0 0 0 62.216557
-4.8604684 -5.6472149 -0.28237888 0 0 0 0 62.226444
-4.9570451 -5.6065063 -0.069036119 0 0 0 0 62.231396
-4.9316797 -5.6868658 0.14500837 0 0 0 0 62.25613
-3.1142738 -5.06006 -0.37232545 0 0 0 0 62.340229
-3.1825633 -4.9783111 -0.19470282 0 0 0 0 62.345173
-3.1727581 -5.045568 -0.038739797 0 0 0 0 62.369907
-3.24788 -4.9837756 0.11479709 0 0 0 0 62.374859
-1.5116963 -4.3231993 -0.22793642 0 0 0 0 62.518322
-1.4217472 -4.4002542 -0.22437063 0 0 0 0 62.538105
-1.4995681 -4.3313956 -0.11084396 0 0 0 0 62.543056
-1.414618 -4.4184461 -0.10833225 0 0 0 0 62.56284
-1.4853088 -4.3465638 -0.011747177 0 0 0 0 62.567791
-1.5760123 -4.3356652 0.081583649 0 0 0 0 62.572735
-1.4790062 -4.3767166 0.080263905 0 0 0 0 62.592525
-0.87368387 -3.5656769 -0.15676883 0 0 0 0 62.597469
-0.96231467 -3.5857592 -0.075473577 0 0 0 0 62.602421
-0.72865701 -3.313791 -0.13722667 0 0 0 0 62.61726
-0.83426237 -3.4328446 -0.067226574 0 0 0 0 62.622204
-0.94885594 -3.5838864 -0.0013490627 0 0 0 0 62.627155
-0.65168434 -3.3378406 -0.13266256 0 0 0 0 62.637051
-0.72822714 -3.3359137 -0.061239216 0 0 0 0 62.641994
-0.79669672 -3.3259766 0.0012587795 0 0 0 0 62.646938
-0.94135237 -3.5949984 0.065708235 0 0 0 0 62.65189
-0.57270825 -3.3558912 -0.12807219 0 0 0 0 62.656834
-0.64522916 -3.3289652 -0.057576727 0 0 0 0 62.661785
-0.71768671 -3.3370211 0.001860301 0 0 0 0 62.666729
-0.7841258 -3.3130803 0.061396606 0 0 0 0 62.67168
-0.46693602 -3.1870177 -0.11518057 0 0 0 0 62.422298
-0.56247425 -3.3160617 -0.054111537 0 0 0 0 62.427242
-0.63691658 -3.3321121 0.003303217 0 0 0 0 62.432186
-0.70934093 -3.330162 0.059762675 0 0 0 0 62.437138
-0.38494539 -3.1420751 -0.10746726 0 0 0 0 62.442081
-0.46441999 -3.1871257 -0.048138492 0 0 0 0 62.447033
-0.54285347 -3.2521653 0.0041646706 0 0 0 0 62.451977
-0.6323173 -3.3432014 0.058340922 0 0 0 0 62.456921
-0.30695191 -3.1181269 -0.10181776 0 0 0 0 62.461872
-0.38039711 -3.1251793 -0.04338095 0 0 0 0 62.466816
-0.44978252 -3.1462197 0.0060630855 0 0 0 0 62.471767
-0.52918905 -3.203254 0.055371244 0 0 0 0 62.476711
-0.22794956 -3.0531824 -0.094091661 0 0 0 0 62.481655
-0.3094123 -3.154222 -0.040871657 0 0 0 0 62.486607
-0.37375236 -3.1232622 0.0066962633 0 0 0 0 62.49155
-0.44210842 -3.132298 0.05316728 0 0 0 0 62.496502
-0.15596308 -3.0412307 -0.088505395 0 0 0 0 62.501446
-0.2283735 -3.0652742 -0.036089711 0 0 0 0 62.506397
-0.30376092 -3.166301 0.0071753496 0 0 0 0 62.511341
-0.36605981 -3.1033373 0.051811237 0 0 0 0 62.516285
-0.083979614 -3.0342791 -0.082926415 0 0 0 0 62.521236
-0.15535167 -3.0313182 -0.033458598 0 0 0 0 62.52618
-0.22369897 -3.0763474 0.0089523122 0 0 0 0 62.531132
-0.2980569 -3.1523714 0.050265759 0 0 0 0 62.536076
-0.012977323 -2.9953268 -0.077300899 0 0 0 0 62.541019
-0.083351016 -3.0203631 -0.029872272 0 0 0 0 62.545971
-0.1496581 -3.0353889 0.0096034463 0 0 0 0 62.550915
-0.21898292 -3.0804129 0.049006164 0 0 0 0 62.555866
0.055016171 -2.9713726 -0.07172212 0 0 0 0 62.56081
-0.013336211 -2.9984055 -0.027281867 0 0 0 0 62.565762
-0.078630105 -3.0164285 0.010196205 0 0 0 0 62.570705
-0.14693117 -3.059448 0.046609558 0 0 0 0 62.575649
0.12401135 -2.9444191 -0.066129722 0 0 0 0 62.580601
0.05467749 -2.9654484 -0.023687437 0 0 0 0 62.585545
-0.0086020809 -2.9974675 0.010782341 0 0 0 0 62.590496
-0.074869879 -3.009485 0.045262292 0 0 0 0 62.59544
0.19100474 -2.9204648 -0.060556609 0 0 0 0 62.600384
0.12369051 -2.94649 -0.021107651 0 0 0 0 62.605335
0.059433095 -2.9665055 0.011374198 0 0 0 0 62.610279
-0.004825606 -2.9885209 0.043852486 0 0 0 0 62.615231
0.25700107 -2.8915098 -0.054981805 0 0 0 0 62.620174
0.18971127 -2.91453 -0.018528132 0 0 0 0 62.625118
0.12746416 -2.9425435 0.01195539 0 0 0 0 62.63007
0.062228799 -2.9635532 0.041427441 0 0 0 0 62.635014
0.32299906 -2.8725531 -0.050422702 0 0 0 0 62.639965
0.25472027 -2.8895712 -0.014966997 0 0 0 0 62.644909
0.19349705 -2.91558 0.012527272 0 0 0 0 62.64986
0.13027558 -2.9385879 0.040011007 0 0 0 0 62.654804
0.38599658 -2.8415964 -0.044865601 0 0 0 0 62.659748
0.32073036 -2.8756113 -0.012415613 0 0 0 0 62.6647
0.25952521 -2.8966172 0.013086736 0 0 0 0 62.669643
0.19632541 -2.9086213 0.038588602 0 0 0 0 62.674595
0.45099336 -2.8246393 -0.040315624 0 0 0 0 62.679539
0.38474992 -2.8456502 -0.009851859 0 0 0 0 62.684483
0.32455638 -2.8726532 0.013647859 0 0 0 0 62.689434
0.26236698 -2.8926549 0.037143726 0 0 0 0 62.694378
0.51398599 -2.8016827 -0.034770034 0 0 0 0 62.699329
0.4487648 -2.8236892 -0.007300545 0 0 0 0 62.704273
0.38958165 -2.8456912 0.01521492 0 0 0 0 62.709217
0.32741219 -2.8706882 0.035702176 0 0 0 0 62.714169
0.57498991 -2.7727232 -0.030228807 0 0 0 0 62.719112
0.51177549 -2.7957294 -0.0037459519 0 0 0 0 62.724064
0.4516159 -2.8167257 0.015763287 0 0 0 0 62.729008
0.39146215 -2.8407207 0.03426731 0 0 0 0 62.733959
0.63698244 -2.7497661 -0.024689075 0 0 0 0 62.738903
0.57279098 -2.7727668 -0.0012141686 0 0 0 0 62.743847
0.51364779 -2.7917604 0.016305862 0 0 0 0 62.748798
0.45551336 -2.8217514 0.031814944 0 0 0 0 62.753742
0.69998032 -2.730808 -0.020147432 0 0 0 0 62.758694
0.63480645 -2.7498047 0.0013262078 0 0 0 0 62.763638
0.57767665 -2.7717962 0.016856326 0 0 0 0 62.768581
0.51756173 -2.7947826 0.030361533 0 0 0 0 62.773533
0.75299025 -2.6788456 -0.014626418 0 0 0 0 62.778477
0.69781762 -2.7338433 0.0038634166 0 0 0 0 62.783428
0.6397056 -2.7518311 0.017392319 0 0 0 0 62.788372
0.5806101 -2.7678144 0.028916745 0 0 0 0 62.793324
0.81998253 -2.6818883 -0.011089156 0 0 0 0 62.798267
0.74785775 -2.6698744 0.0063821389 0 0 0 0 62.803211
0.70373034 -2.738867 0.017932836 0 0 0 0 62.808163
0.64164907 -2.7438469 0.028452372 0 0 0 0 62.813107
0.8819719 -2.6639316 -0.005554249 0 0 0 0 62.818058
0.8098678 -2.6559122 0.0089100469 0 0 0 0 62.823002
0.75378811 -2.6708944 0.018458946 0 0 0 0 62.827946
0.71067774 -2.7498825 0.027000088 0 0 0 0 62.832897
0.91501141 -2.5629573 -0.00010232456 0 0 0 0 62.837841
0.88186091 -2.6699567 0.011468801 0 0 0 0 62.842793
0.81381774 -2.6499281 0.018983869 0 0 0 0 62.847736
0.75576246 -2.6629035 0.025520299 0 0 0 0 62.85268
0.97301042 -2.5419965 0.0044084969 0 0 0 0 62.857632
0.91692168 -2.5719786 0.013931683 0 0 0 0 62.862576
0.8788383 -2.6439648 0.019522974 0 0 0 0 62.867527
0.81680745 -2.6419346 0.024053587 0 0 0 0 62.872471
1.0729544 -2.6240594 0.0080708982 0 0 0 0 62.877422
0.97194201 -2.5410123 0.016436793 0 0 0 0 62.882366
0.92190063 -2.5689881 0.020009436 0 0 0 0 62.88731
0.88184345 -2.635968 0.022593344 0 0 0 0 62.892262
1.123732 -2.5781295 0.012214118 0 0 0 0 62.650921
1.0766578 -2.6361101 0.017764218 0 0 0 0 62.655865
0.9826926 -2.5510576 0.020193316 0 0 0 0 62.660816
0.92867762 -2.5740259 0.020748047 0 0 0 0 62.66576
1.1647569 -2.514158 0.01666398 0 0 0 0 62.670712
1.1256913 -2.5831404 0.020256739 0 0 0 0 62.675655
1.08067 -2.6291122 0.01984193 0 0 0 0 62.680599
0.99171835 -2.5600579 0.019282073 0 0 0 0 62.685551
1.2477262 -2.5422122 0.021282665 0 0 0 0 62.690495
1.1667252 -2.5171676 0.023710463 0 0 0 0 62.695446
1.1337148 -2.5831418 0.020354034 0 0 0 0 62.70039
1.0847232 -2.6181064 0.016926594 0 0 0 0 62.705334
1.3167171 -2.5342579 0.025855253 0 0 0 0 62.710285
1.251716 -2.5472178 0.025341887 0 0 0 0 62.715229
1.1747717 -2.5171638 0.020808384 0 0 0 0 62.720181
1.1387802 -2.5771329 0.015438641 0 0 0 0 62.725124
1.3637323 -2.4862905 0.030326862 0 0 0 0 62.730068
1.3187248 -2.5352592 0.02790649 0 0 0 0 62.73502
1.2607702 -2.5472131 0.02144823 0 0 0 0 62.739964
1.1808518 -2.5121524 0.013899583 0 0 0 0 62.744915
1.4606874 -2.5243547 0.036039297 0 0 0 0 62.749859
1.3657565 -2.4852881 0.030382039 0 0 0 0 62.75481
1.3257972 -2.5302498 0.022006556 0 0 0 0 62.759754
1.2658689 -2.5371976 0.012540907 0 0 0 0 62.764698
1.544673 -2.5374081 0.039694939 0 0 0 0 62.76965
1.4737229 -2.5423543 0.033148032 0 0 0 0 62.774593
1.3808372 -2.4922805 0.022524133 0 0 0 0 62.779545
1.3279228 -2.5142276 0.010086946 0 0 0 0 62.784489
1.5846965 -2.4754364 0.044138886 0 0 0 0 62.789433
1.5517241 -2.5424025 0.035780095 0 0 0 0 62.794384
1.4898255 -2.5513422 0.022295436 0 0 0 0 62.799328
1.3879727 -2.4852579 0.0086285481 0 0 0 0 62.804279
1.5588536 -2.5323815 0.022890905 0 0 0 0 62.819118
1.5129607 -2.5703259 0.0064803776 0 0 0 0 62.824062
1.5630252 -2.5173504 0.0049873041 0 0 0 0 62.843853
2.2949362 -3.0307496 -0.011082049 0 0 0 0 62.923008
2.4417217 -2.9648948 0.024195399 0 0 0 0 62.937847
2.3040409 -2.8997509 -0.011754284 0 0 0 0 62.942791
2.6422362 -2.8481381 0.097969159 0 0 0 0 62.947742
2.5954788 -2.9070497 0.062515125 0 0 0 0 62.952686
2.4927847 -2.8879237 0.024758732 0 0 0 0 62.95763
2.3851042 -2.8607929 -0.014023175 0 0 0 0 62.962582
2.6692741 -2.749161 0.10338513 0 0 0 0 62.967525
2.6335342 -2.8170741 0.065001011 0 0 0 0 62.972477
2.5388513 -2.8059497 0.025292674 0 0 0 0 62.977421
2.4791675 -2.8338411 -0.017210221 0 0 0 0 62.982372
2.8561852 -2.8152866 0.11276456 0 0 0 0 62.987316
2.7315421 -2.791137 0.068845198 0 0 0 0 62.99226
2.6288867 -2.7740023 0.026084539 0 0 0 0 62.997211
2.5492318 -2.7808783 -0.018538386 0 0 0 0 63.002155
2.9431794 -2.7733481 0.11955234 0 0 0 0 63.007107
2.7855783 -2.7201729 0.072425097 0 0 0 0 63.012051
2.7179315 -2.7390528 0.025875052 0 0 0 0 63.016994
2.5503352 -2.6528749 -0.019274749 0 0 0 0 63.021946
3.0301738 -2.7304094 0.12634313 0 0 0 0 63.02689
2.8776 -2.6842306 0.075242214 0 0 0 0 63.031841
2.7889814 -2.683094 0.026562462 0 0 0 0 63.036785
2.653393 -2.6349289 -0.022403575 0 0 0 0 63.041729
3.0582175 -2.6344314 0.13076599 0 0 0 0 63.04668
2.9716117 -2.6512911 0.079071105 0 0 0 0 63.051624
2.7960691 -2.5680962 0.026852814 0 0 0 0 63.056576
2.7504592 -2.6039791 -0.025555538 0 0 0 0 63.06152
3.1332188 -2.5804858 0.13748428 0 0 0 0 63.066471
3.0656281 -2.6113515 0.082913332 0 0 0 0 63.071415
2.8871067 -2.5321498 0.027664023 0 0 0 0 63.076359
2.8455191 -2.57003 -0.027716627 0 0 0 0 63.08131
3.2361996 -2.5465589 0.14538807 0 0 0 0 63.086254
3.10868 -2.5273795 0.085434049 0 0 0 0 63.091206
2.9971368 -2.508215 0.02860442 0 0 0 0 63.096149
2.9475853 -2.5390832 -0.030826773 0 0 0 0 63.101093
3.3381834 -2.5076315 0.1532941 0 0 0 0 63.106045
3.1417353 -2.4384012 0.087886028 0 0 0 0 63.110989
3.1051781 -2.4782774 0.028541032 0 0 0 0 63.11594
3.0476465 -2.5031374 -0.032942548 0 0 0 0 63.120884
3.4389167 -2.4656284 0.16201063 0 0 0 0 63.936626
3.2515049 -2.4083912 0.093603924 0 0 0 0 63.941578
3.2079933 -2.4402528 0.031203745 0 0 0 0 63.946522
3.1495123 -2.4631 -0.034301918 0 0 0 0 63.951473
3.533905 -2.4166987 0.16991135 0 0 0 0 63.956417
3.3625088 -2.373466 0.098608427 0 0 0 0 63.961361
3.3130393 -2.4033151 0.03116324 0 0 0 0 63.966312
3.2555838 -2.4251573 -0.037332688 0 0 0 0 63.971256
3.5569508 -2.3177187 0.17431915 0 0 0 0 63.976208
3.4685247 -2.3325362 0.10258473 0 0 0 0 63.981152
3.4200802 -2.3623805 0.032147564 0 0 0 0 63.986095
3.3656552 -2.3872173 -0.040329449 0 0 0 0 63.991047
3.6219597 -2.2497685 0.1810129 0 0 0 0 63.995991
3.5815389 -2.2936108 0.10661583 0 0 0 0 64.000946
3.5321212 -2.3204489 0.033175837 0 0 0 0 64.00589
3.4727314 -2.3422754 -0.043336485 0 0 0 0 64.010834
3.7449319 -2.2118587 0.19012499 0 0 0 0 64.015778
3.6955557 -2.2506862 0.1106638 0 0 0 0 64.020721
3.6451721 -2.2755163 0.033219256 0 0 0 0 64.025681
3.5918133 -2.3003392 -0.047249775 0 0 0 0 64.030624
3.8729048 -2.1729519 0.19928128 0 0 0 0 64.035568
3.8135662 -2.2047658 0.1157513 0 0 0 0 64.040512
3.7682135 -2.2325919 0.034341976 0 0 0 0 64.045456
3.7108896 -2.254405 -0.050154213 0 0 0 0 64.050415
3.9888837 -2.1240377 0.2083597 0 0 0 0 64.055359
3.9355769 -2.1578479 0.12087484 0 0 0 0 64.060303
3.8892658 -2.1856644 0.034457438 0 0 0 0 64.065247
3.8349748 -2.2074723 -0.054014437 0 0 0 0 64.07019
4.1238594 -2.0801356 0.21758552 0 0 0 0 64.07515
4.068594 -2.1129355 0.12508617 0 0 0 0 64.080093
4.0123124 -2.1337402 0.035599884 0 0 0 0 64.085037
3.9640522 -2.1595445 -0.056830324 0 0 0 0 64.089981
4.2608285 -2.0322366 0.2278367 0 0 0 0 64.09494
4.1936083 -2.0600202 0.13024858 0 0 0 0 64.099884
4.1513648 -2.0858243 0.035867386 0 0 0 0 64.104828
4.1001472 -2.1096177 -0.061583631 0 0 0 0 64.109772
4.4007993 -1.9823397 0.23811789 0 0 0 0 64.114716
4.3506074 -2.0171263 0.13665575 0 0 0 0 64.119675
4.2974091 -2.0369151 0.03719575 0 0 0 0 64.124619
4.2442341 -2.0586977 -0.065267935 0 0 0 0 64.129562
4.5487623 -1.9304497 0.24946998 0 0 0 0 64.134506
4.4906235 -1.9602206 0.14195158 0 0 0 0 64.13945
4.4374666 -1.9799998 0.037491661 0 0 0 0 64.144409
4.3993301 -2.0057831 -0.069856718 0 0 0 0 64.149353
4.6877398 -1.8685524 0.25976875 0 0 0 0 64.154297
4.6336422 -1.8993167 0.1472812 0 0 0 0 64.159241
4.5935163 -1.9220968 0.038922057 0 0 0 0 64.164185
4.5554214 -1.947871 -0.073426113 0 0 0 0 64.169144
4.8417091 -1.8066666 0.2711921 0 0 0 0 64.174088
4.7976508 -1.840428 0.15378095 0 0 0 0 64.179031
4.7505765 -1.8601927 0.039370175 0 0 0 0 64.183975
4.7045264 -1.8819526 -0.078036077 0 0 0 0 64.188919
5.0146604 -1.7457966 0.28477126 0 0 0 0 64.193878
4.9626622 -1.77654 0.16030027 0 0 0 0 64.198822
4.921629 -1.7972994 0.040936917 0 0 0 0 64.203766
4.8766298 -1.817049 -0.082457386 0 0 0 0 64.20871
5.1976209 -1.6829311 0.29743835 0 0 0 0 64.213654
5.1356759 -1.7076573 0.16689652 0 0 0 0 64.218613
5.1046906 -1.7314121 0.041609857 0 0 0 0 64.223557
5.0757465 -1.755159 -0.088660367 0 0 0 0 64.2285
5.3775783 -1.6110656 0.3110998 0 0 0 0 64.233444
5.336679 -1.6427943 0.17471747 0 0 0 0 64.238403
5.294755 -1.6615292 0.042350054 0 0 0 0 64.243347
5.2758598 -1.6862715 -0.093839683 0 0 0 0 64.248291
5.5745282 -1.5372131 0.32590684 0 0 0 0 64.253235
5.5306883 -1.566927 0.18250374 0 0 0 0 64.258179
5.4918156 -1.5836529 0.044164851 0 0 0 0 64.263138
5.4799862 -1.6093849 -0.099968776 0 0 0 0 64.268082
5.7814722 -1.4593688 0.34180599 0 0 0 0 64.273026
5.7396989 -1.4880693 0.19042145 0 0 0 0 64.277969
5.7138839 -1.5057906 0.045187745 0 0 0 0 64.282913
5.6771116 -1.5214957 -0.10513254 0 0 0 0 64.287872
6.0024185 -1.3755337 0.35783398 0 0 0 0 64.292816
5.9667063 -1.4012251 0.19950448 0 0 0 0 64.29776
5.9539552 -1.42194 0.046372648 0 0 0 0 64.302704
5.6912355 -1.3794998 -0.10669956 0 0 0 0 64.307648
6.2383595 -1.28671 0.3749975 0 0 0 0 64.312607
6.2067142 -1.3113892 0.20870313 0 0 0 0 64.317551
6.1910253 -1.3270893 0.048556261 0 0 0 0 64.322495
5.6663489 -1.2314827 -0.10657582 0 0 0 0 64.327438
6.4952879 -1.1899035 0.3943516 0 0 0 0 64.332382
6.4667172 -1.2155682 0.21908067 0 0 0 0 64.337341
6.4581041 -1.2292562 0.049995687 0 0 0 0 64.342285
5.6254625 -1.0824555 -0.10658181 0 0 0 0 64.347229
6.7622118 -1.0871054 0.41480267 0 0 0 0 64.352173
6.7627153 -1.1127719 0.23077103 0 0 0 0 64.357117
6.5502067 -1.0903139 0.051072158 0 0 0 0 64.362076
5.6255841 -0.94545066 -0.10827183 0 0 0 0 64.36702
7.0591302 -0.97732842 0.43651748 0 0 0 0 64.371964
7.0547194 -0.99897343 0.24245276 0 0 0 0 64.376907
6.4753232 -0.92426747 0.05182283 0 0 0 0 64.381851
5.6296983 -0.80845022 -0.10892846 0 0 0 0 64.38681
7.3830361 -0.85857254 0.46047553 0 0 0 0 64.391754
7.3837204 -0.8762005 0.25546023 0 0 0 0 64.396698
6.4574399 -0.76825535 0.052025136 0 0 0 0 64.401642
5.6528168 -0.67545998 -0.11043506 0 0 0 0 64.406601
7.660769 -0.71978182 0.48116371 0 0 0 0 64.167587
7.6925182 -0.73741531 0.26640287 0 0 0 0 64.172531
6.4603057 -0.61626989 0.05255935 0 0 0 0 64.177475
5.6656766 -0.53848338 -0.11178663 0 0 0 0 64.182434
7.5858803 -0.54373854 0.48294267 0 0 0 0 64.187378
7.6076431 -0.55536354 0.26711103 0 0 0 0 64.192322
6.5044069 -0.46829885 0.054253355 0 0 0 0 64.197266
5.6757889 -0.40248668 -0.11239744 0 0 0 0 64.202209
7.5189962 -0.37369844 0.48377591 0 0 0 0 64.207169
7.5347648 -0.37831929 0.26790786 0 0 0 0 64.212112
6.5195184 -0.3183077 0.054714665 0 0 0 0 64.217056
5.6509027 -0.26646784 -0.1132942 0 0 0 0 64.222
7.4511027 -0.20565943 0.48559693 0 0 0 0 64.226944
7.4908743 -0.20629513 0.26993281 0 0 0 0 64.231903
6.5286236 -0.16631457 0.056131091 0 0 0 0 64.236847
5.6370072 -0.13145775 -0.11310254 0 0 0 0 64.241791
7.8040104 -0.043926511 0.51285672 0 0 0 0 64.246735
7.7699046 -0.039489869 0.28259632 0 0 0 0 64.251678
6.536736 -0.01531901 0.056538165 0 0 0 0 64.256638
5.6451263 0.0015420311 -0.11473374 0 0 0 0 64.261581
8.8765898 0.14227974 0.5850718 0 0 0 0 64.266525
6.5368409 0.13567983 0.057880163 0 0 0 0 64.276428
5.6512394 0.13754126 -0.11537541 0 0 0 0 64.281372
9.3444586 0.3539243 0.62138116 0 0 0 0 64.286316
6.5249538 0.28568804 0.05812227 0 0 0 0 64.296204
5.6073356 0.27056861 -0.1144328 0 0 0 0 64.301163
9.2975693 0.55794549 0.62545258 0 0 0 0 64.306107
6.4860525 0.43770978 0.060146384 0 0 0 0 64.315994
5.6414652 0.4075537 -0.11684171 0 0 0 0 64.320938
9.3466396 0.76789683 0.63532412 0 0 0 0 64.325897
6.5341678 0.59367996 0.060893502 0 0 0 0 64.335785
5.6085691 0.53957587 -0.11681013 0 0 0 0 64.340729
9.2547731 0.96495205 0.63601327 0 0 0 0 64.345673
6.5252738 0.74568444 0.062165193 0 0 0 0 64.355576
5.5806737 0.67359489 -0.11673376 0 0 0 0 64.360519
9.1738968 1.1599985 0.63778883 0 0 0 0 64.365463
5.5987878 0.81058657 -0.11727272 0 0 0 0 64.38031
9.1060114 1.3550351 0.64067107 0 0 0 0 64.385254
6.5084882 1.0526929 0.064723365 0 0 0 0 64.395142
5.6189113 0.95057869 -0.11878901 0 0 0 0 64.400101
9.0301418 1.5480802 0.64148349 0 0 0 0 64.405045
5.5930161 1.0835965 -0.1186971 0 0 0 0 64.419891
9.125185 1.7699949 0.65575975 0 0 0 0 64.424835
5.5591216 1.2176194 -0.11866942 0 0 0 0 64.439667
9.0613031 1.9690288 0.65868264 0 0 0 0 64.444626
6.5418205 1.5326682 0.069082774 0 0 0 0 64.454514
5.552238 1.3566269 -0.11940931 0 0 0 0 64.459457
8.9844303 2.1580749 0.65947956 0 0 0 0 64.464401
6.5139289 1.6866848 0.070203654 0 0 0 0 64.474304
5.5213346 1.4896462 -0.11835845 0 0 0 0 64.479248
8.9235449 2.3521068 0.66241759 0 0 0 0 64.484192
6.5140429 1.8506836 0.07157477 0 0 0 0 64.494095
5.5304627 1.6346453 -0.11995428 0 0 0 0 64.499039
8.8486576 2.5421481 0.66523224 0 0 0 0 64.503983
8.926156 2.6546333 0.37309095 0 0 0 0 64.508926
5.4935675 1.7666703 -0.11995461 0 0 0 0 64.518829
8.5968485 2.6753259 0.65347546 0 0 0 0 64.523773
8.6302967 2.7798288 0.3669548 0 0 0 0 64.528717
5.4486632 1.8966985 -0.1190251 0 0 0 0 64.538605
8.5269651 2.8593657 0.65531856 0 0 0 0 64.543564
8.5574207 2.9718711 0.36878803 0 0 0 0 64.548508
5.4848013 2.0586805 -0.12036458 0 0 0 0 64.558395
8.4470806 3.0404122 0.65707278 0 0 0 0 64.563339
8.4485474 3.1529381 0.3693018 0 0 0 0 64.568298
5.4549103 2.197701 -0.12029362 0 0 0 0 64.578186
8.3781996 3.2264516 0.65892714 0 0 0 0 64.58313
8.3466721 3.331001 0.36986744 0 0 0 0 64.588089
6.5546336 2.7176497 0.079857059 0 0 0 0 64.593033
8.3053093 3.4114916 0.66174614 0 0 0 0 64.602921
8.296792 3.5310268 0.37290505 0 0 0 0 64.607864
6.5237508 2.8836684 0.080977514 0 0 0 0 64.612823
8.2314339 3.5935361 0.66255093 0 0 0 0 64.622711
8.1859159 3.7060955 0.37338904 0 0 0 0 64.627655
6.5388722 3.0736556 0.083525114 0 0 0 0 64.632599
5.3872499 2.6337481 -0.11986227 0 0 0 0 64.637558
8.1573257 3.7765853 0.66424727 0 0 0 0 64.387955
8.1087961 3.8941426 0.37407121 0 0 0 0 64.392914
6.2766643 3.1298103 0.081584796 0 0 0 0 64.397858
5.3760972 2.788738 -0.12145244 0 0 0 0 64.402802
8.0944386 3.9676189 0.66716081 0 0 0 0 64.407745
6.2139168 3.1574581 0.29717901 0 0 0 0 64.412689
6.2047625 3.2768528 0.083330393 0 0 0 0 64.417648
5.3702273 2.9497447 -0.12214302 0 0 0 0 64.422592
6.154108 3.1840906 0.51979548 0 0 0 0 64.427536
6.1530128 3.3044937 0.29901493 0 0 0 0 64.43248
6.1598682 3.4388785 0.085325859 0 0 0 0 64.437439
5.3493485 3.1087596 -0.12196077 0 0 0 0 64.442383
6.0972004 3.3281233 0.52165842 0 0 0 0 64.447327
6.1071134 3.4595196 0.30098903 0 0 0 0 64.452271
6.0919695 3.590919 0.087112829 0 0 0 0 64.457214
6.0362916 3.4691586 0.52348262 0 0 0 0 64.467117
6.0462112 3.609555 0.30282986 0 0 0 0 64.472061
7.799901 4.7187853 0.67643344 0 0 0 0 64.486908
7.6134043 4.7854438 0.37902108 0 0 0 0 64.491852
4.0418382 2.7505112 -0.085244261 0 0 0 0 64.50174
7.7220211 4.9068298 0.67821586 0 0 0 0 64.506683
7.5005174 4.9575119 0.38048315 0 0 0 0 64.511642
6.1813984 4.250855 0.094272472 0 0 0 0 64.516586
4.2100773 3.0154181 -0.090310119 0 0 0 0 64.52153
7.6561389 5.1048656 0.68111569 0 0 0 0 64.526474
7.0226073 4.871841 0.36344624 0 0 0 0 64.531418
5.7373605 4.1461377 0.091471568 0 0 0 0 64.536377
4.1671681 3.1374454 -0.089385152 0 0 0 0 64.541321
7.5732541 5.2969122 0.68386322 0 0 0 0 64.546265
6.380672 4.6432877 0.33778024 0 0 0 0 64.551208
5.7474976 4.3591285 0.09401498 0 0 0 0 64.556152
4.1803041 3.3084404 -0.089905627 0 0 0 0 64.561111
7.312418 5.3581004 0.66989279 0 0 0 0 64.566055
5.3054314 4.2224088 0.092163019 0 0 0 0 64.575943
4.1283946 3.4294736 -0.089057162 0 0 0 0 64.580902
7.3545122 5.6440506 0.68284881 0 0 0 0 64.585846
4.8983736 4.0866685 0.08959756 0 0 0 0 64.595734
4.4908338 3.9182708 -0.1000907 0 0 0 0 64.600677
6.6787519 5.3625655 0.63179433 0 0 0 0 64.605637
5.5259004 4.6288695 0.31286764 0 0 0 0 64.61058
5.0305614 4.4015794 0.094338901 0 0 0 0 64.615524
4.4369383 4.0603051 -0.099217542 0 0 0 0 64.620468
6.1619468 5.1779571 0.59423101 0 0 0 0 64.625412
5.1119504 4.4821587 0.2962212 0 0 0 0 64.630371
4.6835179 4.2928009 0.092315257 0 0 0 0 64.635315
4.3850393 4.2103362 -0.097313322 0 0 0 0 64.640259
5.7021241 5.008307 0.5601626 0 0 0 0 64.645203
5.202076 4.7760854 0.30657825 0 0 0 0 64.650146
4.605598 4.4238467 0.094969772 0 0 0 0 64.655106
4.3391547 4.3703656 -0.09634088 0 0 0 0 64.660049
7.1229811 6.5491576 0.70391411 0 0 0 0 64.664993
4.851119 4.6603293 0.29350615 0 0 0 0 64.669937
4.552702 4.5798783 0.096878186 0 0 0 0 64.674881
4.2812567 4.5214005 -0.094485223 0 0 0 0 64.67984
7.017108 6.7452211 0.70547426 0 0 0 0 64.684784
4.7492061 4.7763939 0.29393399 0 0 0 0 64.689728
4.4797974 4.7219229 0.098593719 0 0 0 0 64.694672
4.2193604 4.674438 -0.0926596 0 0 0 0 64.699615
6.93823 6.9742618 0.71031982 0 0 0 0 64.704575
4.6822996 4.9304323 0.29672316 0 0 0 0 64.709518
4.4269004 4.8899522 0.10152373 0 0 0 0 64.714462
4.1644821 4.8434734 -0.091746226 0 0 0 0 64.719406
6.8413682 7.1883197 0.71198708 0 0 0 0 64.724365
4.6354074 5.1084576 0.29972342 0 0 0 0 64.729309
4.3600073 5.0499926 0.10332179 0 0 0 0 64.734253
4.1005898 5.0035124 -0.089924961 0 0 0 0 64.739197
6.7494998 7.4183707 0.715725 0 0 0 0 64.744141
4.5735092 5.2764931 0.30257967 0 0 0 0 64.7491
4.3041153 5.2260246 0.10624105 0 0 0 0 64.754044
4.0487127 5.1875439 -0.087959245 0 0 0 0 64.758987
6.645627 7.6394291 0.71934533 0 0 0 0 64.763931
4.5116162 5.4515285 0.30544853 0 0 0 0 64.768875
4.2482281 5.4080563 0.10917123 0 0 0 0 64.773834
3.9908361 5.3725786 -0.086042024 0 0 0 0 64.778778
6.5427737 7.8664913 0.72098464 0 0 0 0 64.783722
4.4327145 5.6125741 0.30814883 0 0 0 0 64.788666
4.2133651 5.6320744 0.11235492 0 0 0 0 64.79361
3.9650097 5.6115975 -0.085756712 0 0 0 0 64.798569
6.4569006 8.1285334 0.72783041 0 0 0 0 64.803513
4.3808289 5.8136015 0.31214908 0 0 0 0 64.808456
4.1995177 5.8940773 0.11678541 0 0 0 0 64.8134
3.9461935 5.8806095 -0.084356755 0 0 0 0 64.818344
6.3600407 8.3845854 0.73257262 0 0 0 0 64.823303
4.3309455 6.0316248 0.31719753 0 0 0 0 64.828247
4.1686687 6.152091 0.12106645 0 0 0 0 64.833191
3.9053667 6.1316352 -0.083174206 0 0 0 0 64.838135
6.2681851 8.6616335 0.73839509 0 0 0 0 64.843079
4.1418314 6.4291019 0.12541677 0 0 0 0 64.852982
3.8475237 6.3686705 -0.081160262 0 0 0 0 64.857925
6.1550994 8.9226971 0.74197638 0 0 0 0 64.61113
4.062685 6.6451259 0.12840824 0 0 0 0 64.621017
3.778389 6.6026864 -0.080028147 0 0 0 0 64.625977
6.0592456 9.2167454 0.74879801 0 0 0 0 64.63092
3.9858172 6.8711691 0.13224553 0 0 0 0 64.640808
3.7245736 6.8857188 -0.077896476 0 0 0 0 64.645752
5.9403992 9.4928122 0.75339472 0 0 0 0 64.650711
5.8560753 9.9883852 0.4706102 0 0 0 0 64.655655
3.9029462 7.1052141 0.13704719 0 0 0 0 64.660599
3.6086798 7.0657878 -0.074471042 0 0 0 0 64.665543
5.8305569 9.8028679 0.76012826 0 0 0 0 64.670486
5.7252355 10.298456 0.4771688 0 0 0 0 64.675446
3.7980695 7.3152757 0.14062081 0 0 0 0 64.680389
3.5118175 7.296844 -0.070794106 0 0 0 0 64.685333
5.7047157 10.100938 0.7657057 0 0 0 0 64.690277
5.5904059 10.623529 0.48372081 0 0 0 0 64.695221
3.701201 7.55233 0.14531022 0 0 0 0 64.70018
3.4179747 7.5598989 -0.067033708 0 0 0 0 64.705124
5.5848799 10.434 0.77339709 0 0 0 0 64.710068
5.417563 10.899631 0.4878644 0 0 0 0 64.715012
3.6173575 7.8433738 0.15120725 0 0 0 0 64.719955
