# .PCD v0.7 - Point Cloud Data file format
VERSION 0.7
FIELDS x y z normal_x normal_y normal_z intensity curvature
SIZE 4 4 4 4 4 4 4 4
TYPE F F F F F F F F
COUNT 1 1 1 1 1 1 1 1
WIDTH 977
HEIGHT 1
VIEWPOINT 0 0 0 1 0 0 0
POINTS 977
DATA ascii
-3.9330366 -2.8306293 4.6877804 0 0 0 0 26.635813
-3.7058442 -2.6059124 4.7492785 0 0 0 0 26.640759
-3.4835613 -2.3852458 4.788765 0 0 0 0 26.645706
-3.3862302 -2.2463803 5.031961 0 0 0 0 26.650654
-3.865406 -2.9210873 4.6970515 0 0 0 0 26.6556
-3.6402686 -2.6843951 4.7475367 0 0 0 0 26.660547
-3.4559746 -2.4789879 4.8249292 0 0 0 0 26.665495
-3.3456895 -2.3220468 5.0371494 0 0 0 0 26.670441
-3.7977862 -3.0115457 4.709322 0 0 0 0 26.675388
-3.5846846 -2.7699437 4.7607718 0 0 0 0 26.680336
-3.4483564 -2.5888591 4.8920479 0 0 0 0 26.685282
-3.3041556 -2.3967075 5.0413394 0 0 0 0 26.690229
-3.7261825 -3.0989785 4.7186012 0 0 0 0 26.695177
-3.5251093 -2.8534667 4.7710156 0 0 0 0 26.700123
-3.3329253 -2.6170304 4.8074107 0 0 0 0 26.70507
-3.260622 -2.4723537 5.0475349 0 0 0 0 26.710018
-3.6456208 -3.1783519 4.7208996 0 0 0 0 26.714964
-3.4595618 -2.9319501 4.7772722 0 0 0 0 26.719912
-3.2754047 -2.6895776 4.8086424 0 0 0 0 26.724859
-3.2131014 -2.5449746 5.0497398 0 0 0 0 26.729805
-3.595325 -3.2830122 4.7649879 0 0 0 0 27.190466
-3.4052472 -3.0196557 4.801352 0 0 0 0 27.195412
-3.2270463 -2.7693899 4.8256917 0 0 0 0 27.200359
-3.0948179 -2.5563953 4.9389315 0 0 0 0 27.205307
-3.5048273 -3.3543499 4.7593007 0 0 0 0 27.210253
-3.3297651 -3.0890992 4.7976232 0 0 0 0 27.2152
-3.1715524 -2.8449676 4.8349142 0 0 0 0 27.220148
-3.0103986 -2.5958109 4.8822093 0 0 0 0 27.225094
-3.4303041 -3.4387877 4.7775774 0 0 0 0 27.230042
-3.2592759 -3.1635742 4.803884 0 0 0 0 27.234989
-3.1190581 -2.9235637 4.8511295 0 0 0 0 27.239935
-2.9599407 -2.6634312 4.8844132 0 0 0 0 27.244883
-3.3209074 -3.4870126 4.7479253 0 0 0 0 27.24983
-3.2027588 -3.2511346 4.8331156 0 0 0 0 27.254776
-3.0595865 -2.9961176 4.8593602 0 0 0 0 27.259724
-2.9074833 -2.7300408 4.8836212 0 0 0 0 27.264671
-3.1258481 -3.4387176 4.592443 0 0 0 0 27.269617
-3.1292927 -3.3235915 4.841382 0 0 0 0 27.274565
-2.9951403 -3.0626426 4.8605995 0 0 0 0 27.27951
-2.8690019 -2.8107328 4.9098005 0 0 0 0 27.284458
-2.9846518 -3.4387579 4.5118461 0 0 0 0 27.289406
-3.0548427 -3.3940434 4.849649 0 0 0 0 27.294352
-2.9346831 -3.1351905 4.8728313 0 0 0 0 27.299299
-2.8175569 -2.8783488 4.9150062 0 0 0 0 27.304247
-2.8584192 -3.4528921 4.4542165 0 0 0 0 27.309193
-2.9624622 -3.4443889 4.8309517 0 0 0 0 27.31414
-2.8812089 -3.2157805 4.8990488 0 0 0 0 27.319088
-2.7631142 -2.9459455 4.9202189 0 0 0 0 27.324034
-3.0069921 -3.8086765 4.8360586 0 0 0 0 27.328981
-2.8342414 -3.4495225 4.7543221 0 0 0 0 27.333929
-2.8087993 -3.276258 4.8963041 0 0 0 0 27.338875
-2.7086785 -3.0135422 4.9274316 0 0 0 0 27.343822
-2.9215662 -3.881052 4.8553543 0 0 0 0 27.34877
-2.6960974 -3.4356029 4.6567078 0 0 0 0 27.353716
-2.7433629 -3.3457782 4.9065461 0 0 0 0 27.358664
-2.6482596 -3.0751054 4.9246554 0 0 0 0 27.363611
-2.8281782 -3.9443803 4.864665 0 0 0 0 27.368557
-2.5370879 -3.3855677 4.5161262 0 0 0 0 27.373505
-2.6739576 -3.410274 4.9147954 0 0 0 0 27.378452
-2.6047921 -3.1577661 4.9578471 0 0 0 0 27.383398
-2.7467415 -4.0237808 4.8969531 0 0 0 0 27.388346
-2.3980379 -3.3536549 4.4075027 0 0 0 0 27.393291
-2.5587437 -3.4145057 4.8381295 0 0 0 0 27.398239
-2.5443797 -3.2223272 4.9640722 0 0 0 0 27.403187
-2.6384678 -4.0620251 4.8832879 0 0 0 0 27.408133
-2.2669859 -3.3257949 4.3088593 0 0 0 0 27.41308
-2.4126961 -3.3695657 4.696516 0 0 0 0 27.418028
-2.4819818 -3.2838783 4.9673009 0 0 0 0 27.422974
-2.5510833 -4.1323919 4.9105849 0 0 0 0 27.427921
-2.1707904 -3.3431413 4.2731495 0 0 0 0 27.432869
-2.2895892 -3.3497617 4.597856 0 0 0 0 27.437815
-2.4185812 -3.3464236 4.9715314 0 0 0 0 27.442762
-2.0865514 -3.3765574 4.2624173 0 0 0 0 27.452656
-2.1854162 -3.3530707 4.5341597 0 0 0 0 27.457603
-2.3322835 -3.3768401 4.9308038 0 0 0 0 27.462551
-2.3392961 -3.9828689 4.9691262 0 0 0 0 27.472445
-2.0633724 -3.3212838 4.4284897 0 0 0 0 27.477392
-2.2041965 -3.3410258 4.7981472 0 0 0 0 27.482338
-2.2519691 -4.0392528 4.9814143 0 0 0 0 27.492233
-1.9592589 -3.313602 4.3587852 0 0 0 0 27.497179
-2.0970442 -3.3313329 4.7084498 0 0 0 0 27.502127
-2.1487632 -4.0655489 4.9617262 0 0 0 0 27.51202
-2.0688844 -3.682097 4.781734 0 0 0 0 27.516968
-1.9968851 -3.3276827 4.6317372 0 0 0 0 27.521914
-2.0892642 -4.175086 5.0449696 0 0 0 0 27.531809
-2.083987 -3.9070573 5.0128484 0 0 0 0 27.536755
-1.8838137 -3.297967 4.5210438 0 0 0 0 27.541702
-2.0026801 -3.9594901 5.0221171 0 0 0 0 27.556543
-1.8115522 -3.3334758 4.5062795 0 0 0 0 27.561491
-1.9173883 -4.0079012 5.0263934 0 0 0 0 27.576332
-1.9509364 -3.7851048 5.0471973 0 0 0 0 27.581278
-1.8785858 -3.8455994 5.0604467 0 0 0 0 27.601067
-1.80326 -3.9010785 5.0696998 0 0 0 0 27.620853
-1.7259365 -3.9575448 5.0819588 0 0 0 0 27.640642
-1.644648 -4.003994 5.0812216 0 0 0 0 27.660431
-0.97988731 -3.4123685 3.7312477 0 0 0 0 27.426506
-0.86929452 -3.3076811 3.6075058 0 0 0 0 27.446295
-0.77946198 -3.2641008 3.5517428 0 0 0 0 27.466082
-0.89371037 -3.3017666 3.7444766 0 0 0 0 27.471029
-1.0356323 -3.4255657 4.0361862 0 0 0 0 27.475977
-0.70442331 -3.2745898 3.5579705 0 0 0 0 27.48587
-0.8078019 -3.2712111 3.6937103 0 0 0 0 27.490818
-0.9229933 -3.3138866 3.877445 0 0 0 0 27.495764
-0.62547827 -3.2620668 3.5401952 0 0 0 0 27.505659
-0.73079252 -3.2696986 3.6799364 0 0 0 0 27.510605
-0.83509761 -3.2733305 3.8056781 0 0 0 0 27.515553
-0.96524888 -3.3330889 4.018384 0 0 0 0 27.5205
-0.54852396 -3.253556 3.5294166 0 0 0 0 27.525446
-0.65479726 -3.2641976 3.6611571 0 0 0 0 27.530394
-0.76201355 -3.2848427 3.7969007 0 0 0 0 27.535341
-0.87138885 -3.2745113 3.9136226 0 0 0 0 27.540287
-0.46770367 -3.212039 3.4846296 0 0 0 0 27.545235
-0.57882458 -3.255698 3.6433756 0 0 0 0 27.550182
-0.68304056 -3.2683334 3.7581229 0 0 0 0 27.555128
-0.79828733 -3.2840307 3.8928437 0 0 0 0 27.560076
-0.39374492 -3.2075477 3.4828446 0 0 0 0 27.565022
-0.49699593 -3.2091839 3.5825887 0 0 0 0 27.569969
-0.6070559 -3.2558427 3.7253392 0 0 0 0 27.574917
-0.72026616 -3.2735305 3.8510668 0 0 0 0 27.579863
-0.32271129 -3.2230654 3.5040624 0 0 0 0 27.58481
-0.42500806 -3.2067099 3.5747993 0 0 0 0 27.589758
-0.52912974 -3.2303472 3.6815531 0 0 0 0 27.594704
-0.64325571 -3.2610395 3.8082855 0 0 0 0 27.599651
-0.25069693 -3.23458 3.52228 0 0 0 0 27.604599
-0.35398671 -3.2142372 3.5800126 0 0 0 0 27.609545
-0.45416877 -3.2138679 3.647764 0 0 0 0 27.614492
-0.56725848 -3.246557 3.7655001 0 0 0 0 27.61944
-0.17777704 -3.223103 3.5174875 0 0 0 0 27.624386
-0.28296962 -3.220767 3.5842249 0 0 0 0 27.629333
-0.38021511 -3.1973958 3.6169715 0 0 0 0 27.634281
-0.4893429 -3.2120745 3.7027085 0 0 0 0 27.639227
-0.10406996 -3.1576524 3.4556675 0 0 0 0 27.644175
-0.2119619 -3.2262983 3.5894363 0 0 0 0 27.649122
-0.31212938 -3.2169423 3.6281834 0 0 0 0 27.654068
-0.41536343 -3.1956084 3.661916 0 0 0 0 27.659016
-0.034215119 -3.1312063 3.4378581 0 0 0 0 27.663963
-0.13907398 -3.2018354 3.5636361 0 0 0 0 27.668909
-0.24204518 -3.2374759 3.6424 0 0 0 0 27.673857
-0.34723157 -3.2221556 3.6731312 0 0 0 0 27.678802
0.03471965 -3.1267545 3.446058 0 0 0 0 27.68375
-0.067360759 -3.1324074 3.4898083 0 0 0 0 27.688698
-0.17012848 -3.2150235 3.6105981 0 0 0 0 27.693644
-0.2771506 -3.2356992 3.6703441 0 0 0 0 27.698591
0.10362366 -3.1153078 3.4482536 0 0 0 0 27.703539
0.0015753172 -3.1219647 3.4820049 0 0 0 0 27.708485
-0.096428528 -3.1345954 3.5137696 0 0 0 0 27.713432
-0.20416874 -3.2242389 3.6415508 0 0 0 0 27.71838
0.17152698 -3.1048682 3.4534466 0 0 0 0 27.723326
0.068521753 -3.1165323 3.4831984 0 0 0 0 27.728273
-0.027490664 -3.1201596 3.4949636 0 0 0 0 27.733221
-0.13137992 -3.1618116 3.5567293 0 0 0 0 27.738167
0.24046186 -3.1034174 3.4696469 0 0 0 0 27.743114
0.1374698 -3.1120877 3.486397 0 0 0 0 27.748062
0.039470665 -3.1127338 3.4851561 0 0 0 0 27.753008
-0.06048575 -3.1283805 3.5059178 0 0 0 0 27.757956
0.30837423 -3.0969777 3.4818416 0 0 0 0 27.762903
0.20438184 -3.0986629 3.4805856 0 0 0 0 27.767849
0.10745116 -3.111299 3.4833536 0 0 0 0 27.772797
0.0074957842 -3.1209531 3.4881127 0 0 0 0 27.777744
0.37625772 -3.0845418 3.4900322 0 0 0 0 27.78269
0.2723282 -3.096225 3.4897821 0 0 0 0 27.787638
0.17540364 -3.1028697 3.4745471 0 0 0 0 27.792583
0.076466858 -3.1115217 3.4693084 0 0 0 0 27.797531
0.44517255 -3.0810955 3.5092301 0 0 0 0 27.802479
0.34025466 -3.0887918 3.4939756 0 0 0 0 27.807425
0.24334723 -3.093442 3.4667399 0 0 0 0 27.812372
0.14445555 -3.1070952 3.4565041 0 0 0 0 27.81732
0.51205862 -3.0716662 3.5244191 0 0 0 0 27.822266
0.40715745 -3.0753706 3.4921629 0 0 0 0 27.827213
0.31129944 -3.0880122 3.4659343 0 0 0 0 27.832161
0.21342079 -3.0986648 3.4426997 0 0 0 0 27.837107
0.57995194 -3.0652294 3.5446119 0 0 0 0 27.842054
0.47508776 -3.0719364 3.5053577 0 0 0 0 27.847002
0.38026115 -3.0855756 3.4691324 0 0 0 0 27.851948
0.2813862 -3.0902424 3.4288921 0 0 0 0 27.856895
0.64783508 -3.0567954 3.5638034 0 0 0 0 27.861843
0.54301178 -3.0675039 3.5185516 0 0 0 0 27.866789
0.4482061 -3.0801482 3.4713259 0 0 0 0 27.871737
0.35037187 -3.0888104 3.4250908 0 0 0 0 27.876684
0.7197758 -3.065326 3.6040137 0 0 0 0 27.88163
0.60888714 -3.0500941 3.5177331 0 0 0 0 27.886578
0.51614225 -3.0737219 3.4745185 0 0 0 0 27.891525
0.419321 -3.0793834 3.4152846 0 0 0 0 27.896471
0.80403006 -3.1125169 3.6939847 0 0 0 0 27.665382
0.67799461 -3.0474408 3.535635 0 0 0 0 27.670328
0.58424592 -3.0621004 3.4724104 0 0 0 0 27.675276
0.48745042 -3.0677817 3.4041731 0 0 0 0 27.680222
0.86984038 -3.0890968 3.7021639 0 0 0 0 27.685169
0.76212484 -3.1038554 3.6259036 0 0 0 0 27.690117
0.65115446 -3.0496759 3.4705987 0 0 0 0 27.695063
0.55639517 -3.0593452 3.3983691 0 0 0 0 27.70001
0.93363929 -3.0626934 3.7073362 0 0 0 0 27.704958
0.82999474 -3.0894222 3.6340928 0 0 0 0 27.709904
0.72108698 -3.0462263 3.4827993 0 0 0 0 27.714851
0.62433362 -3.0499172 3.3925614 0 0 0 0 27.719799
1.000465 -3.045265 3.7255204 0 0 0 0 27.724745
0.89583033 -3.0670085 3.6352723 0 0 0 0 27.729692
0.80926847 -3.1106174 3.5730817 0 0 0 0 27.73464
0.69426459 -3.0404761 3.3897586 0 0 0 0 27.739586
1.0793974 -3.0597374 3.7847519 0 0 0 0 27.744534
0.9616574 -3.0435958 3.6374505 0 0 0 0 27.749481
0.87308902 -3.0782282 3.5542502 0 0 0 0 27.754427
0.77536148 -3.075937 3.4380076 0 0 0 0 27.759375
1.1522505 -3.0532637 3.8209565 0 0 0 0 27.764322
1.0386063 -3.054091 3.6796749 0 0 0 0 27.769268
0.94195789 -3.060797 3.5554395 0 0 0 0 27.774216
0.85338145 -3.0924304 3.4672379 0 0 0 0 27.779163
1.2230895 -3.0438063 3.855154 0 0 0 0 27.784109
1.1135103 -3.0546057 3.7138882 0 0 0 0 27.789057
1.0077951 -3.0353916 3.5486162 0 0 0 0 27.794003
0.9182089 -3.0590396 3.443408 0 0 0 0 27.79895
1.301967 -3.0482874 3.9103787 0 0 0 0 27.803898
1.1863862 -3.0481398 3.7410922 0 0 0 0 27.808844
1.0877739 -3.0508697 3.59185 0 0 0 0 27.813791
0.98607993 -3.0376236 3.4335921 0 0 0 0 27.818739
1.3818396 -3.052763 3.9676056 0 0 0 0 27.823685
1.2592472 -3.039675 3.7692947 0 0 0 0 27.828632
1.1636939 -3.0503857 3.617065 0 0 0 0 27.83358
1.0579797 -3.0251768 3.4357905 0 0 0 0 27.838526
1.3371325 -3.0391738 3.8085136 0 0 0 0 27.848421
1.2355545 -3.0349381 3.6272609 0 0 0 0 27.853367
1.1389637 -3.0376568 3.4690247 0 0 0 0 27.858315
1.4250692 -3.0565963 3.8737671 0 0 0 0 27.868208
1.3134558 -3.0334427 3.657479 0 0 0 0 27.873156
1.2148684 -3.0301824 3.482235 0 0 0 0 27.878103
1.3923496 -3.0299439 3.6856985 0 0 0 0 27.892944
1.2927829 -3.0256948 3.4994512 0 0 0 0 27.89789
1.4863337 -3.056329 3.7549708 0 0 0 0 27.912731
1.3747007 -3.0251789 3.5256793 0 0 0 0 27.917679
1.4676961 -3.0475793 3.5799468 0 0 0 0 27.937466
2.3251791 -3.5962546 5.1974111 0 0 0 0 27.962202
2.2815452 -3.769604 5.0933971 0 0 0 0 27.967148
2.3079371 -3.6345327 4.9824119 0 0 0 0 27.986937
2.3367469 -3.7014887 4.8195424 0 0 0 0 28.011671
2.3782189 -3.589308 4.7366066 0 0 0 0 28.03146
2.3725462 -3.7654037 4.6516886 0 0 0 0 28.036406
2.4069653 -3.6362803 4.5467262 0 0 0 0 28.056194
3.3503697 -3.508693 6.057075 0 0 0 0 28.132965
3.4208744 -3.4382958 6.0732293 0 0 0 0 28.152754
3.5003891 -3.3758349 6.10641 0 0 0 0 28.172541
3.5658789 -3.3004754 6.1175489 0 0 0 0 28.192329
3.6483879 -3.2399955 6.1597371 0 0 0 0 28.212118
3.2973433 -2.8075943 5.4806643 0 0 0 0 28.231905
3.9019086 -3.4675198 6.1144972 0 0 0 0 28.236853
3.3718977 -2.7541609 5.524837 0 0 0 0 28.251694
3.9983959 -3.4019623 6.1527157 0 0 0 0 28.256641
3.4904895 -2.7344198 5.6401358 0 0 0 0 28.271481
4.1028891 -3.343349 6.2069569 0 0 0 0 28.276428
3.6170616 -2.7156267 5.7664533 0 0 0 0 28.291269
4.1963491 -3.2728155 6.2451644 0 0 0 0 28.296217
3.8226566 -2.7492845 6.0169907 0 0 0 0 28.311058
3.7952852 -2.8327115 5.5609689 0 0 0 0 28.316004
3.9751782 -2.737319 6.182374 0 0 0 0 28.330845
4.3542132 -3.1069541 6.2844939 0 0 0 0 28.335793
4.0476513 -2.6679153 6.2225304 0 0 0 0 28.350634
4.4196286 -3.0146177 6.2886205 0 0 0 0 28.355579
4.7555056 -3.3255696 6.3046031 0 0 0 0 28.360527
4.1051106 -2.5876167 6.2416449 0 0 0 0 28.370422
4.1868539 -2.7263272 5.8759174 0 0 0 0 28.375368
4.874908 -3.2518821 6.3608694 0 0 0 0 28.380316
4.1615639 -2.5063255 6.2617555 0 0 0 0 28.390209
4.2973232 -2.6706769 5.9531727 0 0 0 0 28.395157
4.979269 -3.1642981 6.4000907 0 0 0 0 28.400103
4.2090206 -2.4200969 6.2688417 0 0 0 0 28.409998
4.5108056 -2.672328 6.1707082 0 0 0 0 28.414944
4.4772391 -2.7088137 5.6716466 0 0 0 0 28.419891
4.2574697 -2.3338618 6.2799301 0 0 0 0 28.429785
4.6702271 -2.6343524 6.3140903 0 0 0 0 28.434732
4.5856633 -2.6381919 5.7308879 0 0 0 0 28.43968
4.3069134 -2.2486191 6.2970209 0 0 0 0 28.449574
4.7626195 -2.5548368 6.3652868 0 0 0 0 28.454521
4.7860985 -2.613956 5.9033761 0 0 0 0 28.459467
5.7190199 -3.1779926 6.5319314 0 0 0 0 28.464415
4.3503652 -2.1604192 6.3040957 0 0 0 0 28.46936
4.8249955 -2.4575245 6.3794012 0 0 0 0 28.474308
5.1375279 -2.6607165 6.2582655 0 0 0 0 28.479256
5.8382654 -3.0713344 6.5741763 0 0 0 0 28.484203
4.3908134 -2.0712388 6.3111629 0 0 0 0 28.489149
4.8863664 -2.3592196 6.3945131 0 0 0 0 28.494097
5.2948532 -2.5947845 6.3726244 0 0 0 0 28.499043
5.965488 -2.9656246 6.6294398 0 0 0 0 28.50399
4.4352593 -1.9840313 6.3252401 0 0 0 0 28.508938
4.946734 -2.2599225 6.4096212 0 0 0 0 28.513884
5.4561462 -2.5258293 6.4939914 0 0 0 0 28.518831
5.4615645 -2.5600805 5.992023 0 0 0 0 28.523779
4.4737067 -1.8938651 6.3323011 0 0 0 0 28.528725
4.994103 -2.1557114 6.4126949 0 0 0 0 28.533672
5.5374265 -2.4164093 6.520143 0 0 0 0 28.53862
5.682838 -2.5067444 6.1615415 0 0 0 0 28.543566
4.5081515 -1.8017256 6.3363519 0 0 0 0 28.548513
5.0544558 -2.0554144 6.4338026 0 0 0 0 28.553461
5.609694 -2.3020484 6.5402703 0 0 0 0 28.558407
6.0990458 -2.5251372 6.5395656 0 0 0 0 28.563354
4.5485907 -1.7125454 6.351418 0 0 0 0 28.568302
5.1108084 -1.953145 6.4508986 0 0 0 0 28.573248
5.6709552 -2.1817613 6.549367 0 0 0 0 28.578196
6.2782001 -2.4320929 6.6609592 0 0 0 0 28.583141
4.5840325 -1.6213987 6.3614717 0 0 0 0 28.588089
5.1531625 -1.8449681 6.453958 0 0 0 0 28.593037
5.7442036 -2.0653954 6.5754948 0 0 0 0 28.597984
6.374342 -2.3015943 6.6951327 0 0 0 0 28.60293
4.6099029 -1.528538 6.3579197 0 0 0 0 29.207882
5.2058396 -1.7421913 6.4724069 0 0 0 0 29.212828
5.800715 -1.943856 6.5838857 0 0 0 0 29.217775
6.437674 -2.1622894 6.6994681 0 0 0 0 29.222723
4.6553631 -1.4403437 6.3859959 0 0 0 0 29.227669
5.2452312 -1.6320508 6.4764562 0 0 0 0 29.232616
5.8300338 -1.8117902 6.5658984 0 0 0 0 29.237564
6.5238543 -2.025893 6.7306089 0 0 0 0 29.24251
4.6858497 -1.3482435 6.3940349 0 0 0 0 29.247458
5.2846241 -1.5229096 6.4835057 0 0 0 0 29.252405
5.8533521 -1.6777598 6.5448971 0 0 0 0 29.257351
5.1331458 -1.4654038 5.2531304 0 0 0 0 29.262299
4.7113347 -1.2531742 6.3970604 0 0 0 0 29.267246
5.3349967 -1.4157016 6.5055809 0 0 0 0 29.272192
5.8986497 -1.5505954 6.5509491 0 0 0 0 29.27714
5.1814995 -1.3502104 5.2631984 0 0 0 0 29.282085
4.7418122 -1.1600738 6.4090991 0 0 0 0 29.287033
5.3733759 -1.3045666 6.5166273 0 0 0 0 29.291981
5.9289589 -1.4195211 6.5439649 0 0 0 0 29.296928
4.7702866 -1.0659851 6.4211321 0 0 0 0 29.306822
5.3987741 -1.1905106 6.5136418 0 0 0 0 29.311768
6.0541391 -1.3088742 6.6442089 0 0 0 0 29.316715
4.7887831 -0.96995819 6.4201417 0 0 0 0 29.326609
5.4281564 -1.0764297 6.5186648 0 0 0 0 29.331556
6.0974097 -1.1777221 6.6572542 0 0 0 0 29.336504
6.7947187 -1.2808756 6.7759075 0 0 0 0 29.34145
4.8112659 -0.87390673 6.4261599 0 0 0 0 29.346397
5.4575381 -0.96234864 6.5256882 0 0 0 0 29.351345
6.1306858 -1.0436296 6.6622748 0 0 0 0 29.356291
6.8468661 -1.1286832 6.7939606 0 0 0 0 29.361238
4.8257623 -0.77690285 6.425159 0 0 0 0 29.366186
5.4869151 -0.84826684 6.5357122 0 0 0 0 29.371132
6.1709456 -0.91049469 6.6783118 0 0 0 0 29.37608
6.8930058 -0.97352588 6.809998 0 0 0 0 29.381027
4.8442507 -0.68087417 6.4311686 0 0 0 0 29.385973
5.5122929 -0.73320806 6.5447254 0 0 0 0 29.390921
6.199214 -0.77443045 6.6853204 0 0 0 0 29.395866
6.922164 -0.81546849 6.8129954 0 0 0 0 29.400814
4.8637314 -0.58383965 6.4391799 0 0 0 0 29.405762
5.5386643 -0.61714369 6.5557413 0 0 0 0 29.410709
6.2214952 -0.63840139 6.6883144 0 0 0 0 29.415655
6.9603043 -0.65835732 6.8280134 0 0 0 0 29.420603
4.8812151 -0.48681647 6.447186 0 0 0 0 29.425549
5.551065 -0.50016248 6.5527244 0 0 0 0 29.430496
6.2447634 -0.50136518 6.6963105 0 0 0 0 29.435444
6.9794703 -0.49935657 6.8289876 0 0 0 0 29.44039
4.8907142 -0.38884088 6.4471736 0 0 0 0 29.445337
5.5794163 -0.38308421 6.5727439 0 0 0 0 29.450285
6.2680254 -0.36332861 6.7063065 0 0 0 0 29.455231
7.0076075 -0.33930212 6.8419814 0 0 0 0 29.460178
4.9081941 -0.29181662 6.4591804 0 0 0 0 29.465126
5.5848231 -0.26514256 6.5677109 0 0 0 0 29.470072
6.2773137 -0.22537279 6.7062702 0 0 0 0 29.475019
7.0287461 -0.17828657 6.8539591 0 0 0 0 29.479967
4.91469 -0.19185826 6.4581599 0 0 0 0 29.484913
5.592216 -0.14618793 6.5676813 0 0 0 0 29.489861
6.2915845 -0.086387083 6.7132449 0 0 0 0 29.494808
7.0389047 -0.016334893 6.8569112 0 0 0 0 29.499754
4.9251862 -0.093875729 6.46315 0 0 0 0 29.504702
5.6055918 -0.027197029 6.5766659 0 0 0 0 29.509647
6.3028555 0.052583184 6.7222128 0 0 0 0 29.514595
7.0430808 0.14358397 6.858851 0 0 0 0 29.519543
4.9336748 0.0050967811 6.4701352 0 0 0 0 29.52449
5.6149783 0.090771668 6.5846419 0 0 0 0 29.529436
6.3001542 0.19247214 6.7181492 0 0 0 0 29.534384
7.0612044 0.306586 6.8788209 0 0 0 0 29.53933
4.9321961 0.10400951 6.4640975 0 0 0 0 29.544277
5.6163735 0.21069409 6.5855994 0 0 0 0 29.549225
6.3134089 0.33245647 6.7351213 0 0 0 0 29.554171
7.0454087 0.46739274 6.8697152 0 0 0 0 29.559118
4.9426789 0.20299472 6.4760876 0 0 0 0 29.564066
5.6117864 0.32958272 6.5825429 0 0 0 0 29.569012
6.3007269 0.47129086 6.7280354 0 0 0 0 29.573959
7.0465569 0.63129967 6.8806467 0 0 0 0 29.578907
4.9411888 0.30290976 6.47505 0 0 0 0 29.583853
5.6141725 0.44951382 6.5905023 0 0 0 0 29.5888
6.2950211 0.61116743 6.7309656 0 0 0 0 29.593748
7.0277538 0.79309362 6.876534 0 0 0 0 29.598694
4.9406915 0.40383106 6.4760137 0 0 0 0 29.603642
5.6055923 0.56838143 6.5874381 0 0 0 0 29.608589
6.2883129 0.75104034 6.7368927 0 0 0 0 29.613535
7.0199184 0.95595276 6.886446 0 0 0 0 29.618483
4.942184 0.50476581 6.4829826 0 0 0 0 29.623428
5.6029816 0.6892857 6.5943861 0 0 0 0 29.628376
6.2785974 0.89289755 6.7428126 0 0 0 0 29.633324
6.9841585 1.1146543 6.8742971 0 0 0 0 29.638271
4.9357066 0.60465366 6.4799342 0 0 0 0 29.643217
5.5963793 0.81016803 6.5993257 0 0 0 0 29.648165
6.2519464 1.0296587 6.7336974 0 0 0 0 29.653111
7.0171733 1.2867528 6.9332972 0 0 0 0 29.658058
4.9351964 0.70657843 6.4878979 0 0 0 0 29.663006
5.5788112 0.92898864 6.5952411 0 0 0 0 29.667952
6.2322564 1.1694629 6.7365966 0 0 0 0 29.672899
7.054163 1.4608757 7.0013051 0 0 0 0 29.677847
4.9250317 0.80860817 6.485631 0 0 0 0 29.387548
5.5644913 1.0491216 6.5979805 0 0 0 0 29.392496
6.2087846 1.3086714 6.7383313 0 0 0 0 29.397442
7.0035567 1.620087 6.9859996 0 0 0 0 29.40239
4.920507 0.91051131 6.4935851 0 0 0 0 29.407337
5.5429001 1.1689179 6.5938854 0 0 0 0 29.412283
6.1681399 1.4433508 6.7241836 0 0 0 0 29.417231
6.9707227 1.7818087 6.9928546 0 0 0 0 29.422176
4.9020362 1.0103301 6.4835086 0 0 0 0 29.427124
5.5173278 1.2866921 6.5877824 0 0 0 0 29.432072
6.1414313 1.5821165 6.7300663 0 0 0 0 29.437019
6.916965 1.9374098 6.9826655 0 0 0 0 29.441965
4.8845515 1.1111573 6.4784341 0 0 0 0 29.446913
5.4977245 1.4065042 6.591692 0 0 0 0 29.451859
6.1047711 1.7168244 6.7259278 0 0 0 0 29.456806
6.8582191 2.091985 6.9714656 0 0 0 0 29.461754
4.8780198 1.2150513 6.4883833 0 0 0 0 29.4667
5.4671583 1.5242528 6.5855784 0 0 0 0 29.471647
6.0601211 1.8514887 6.7187724 0 0 0 0 29.476595
6.7785645 2.2384398 6.9412222 0 0 0 0 29.481541
4.8555532 1.314851 6.4802985 0 0 0 0 29.486488
5.4306159 1.6399682 6.5754519 0 0 0 0 29.491436
6.0174761 1.9841671 6.7156224 0 0 0 0 29.496382
6.673017 2.374747 6.888926 0 0 0 0 29.501329
4.8360624 1.4166707 6.4792194 0 0 0 0 29.506277
5.4149823 1.7618098 6.592371 0 0 0 0 29.511223
5.9738255 2.1178422 6.7144704 0 0 0 0 29.516171
6.5844092 2.5141582 6.8576674 0 0 0 0 29.521118
4.8215532 1.5195211 6.4851518 0 0 0 0 29.526064
5.3734584 1.8754997 6.5812349 0 0 0 0 29.531012
5.9082723 2.2423916 6.6932735 0 0 0 0 29.535957
6.4948039 2.6525679 6.8294077 0 0 0 0 29.540905
4.793097 1.6192901 6.4760537 0 0 0 0 29.545853
5.3269501 1.9881629 6.5670886 0 0 0 0 29.5508
5.8576441 2.3730321 6.6921077 0 0 0 0 29.555746
6.4042211 2.7869754 6.8021479 0 0 0 0 29.560694
4.7666268 1.7200727 6.4719605 0 0 0 0 29.565639
5.2874017 2.1038699 6.5649571 0 0 0 0 29.570587
5.8030376 2.5016515 6.6879344 0 0 0 0 29.575535
6.3166151 2.9234047 6.7818952 0 0 0 0 29.580481
4.7411451 1.8218634 6.471869 0 0 0 0 29.585428
5.2468596 2.2185736 6.5638242 0 0 0 0 29.590376
5.7354836 2.6251988 6.6737347 0 0 0 0 29.595322
6.234992 3.0598722 6.7706566 0 0 0 0 29.600269
4.7176466 1.9256673 6.475781 0 0 0 0 29.605217
5.1983523 2.3302326 6.5556746 0 0 0 0 29.610163
5.6758881 2.7517965 6.6725521 0 0 0 0 29.61511
6.1573443 3.1983671 6.767426 0 0 0 0 29.620058
4.683197 2.0254085 6.4686704 0 0 0 0 29.625004
5.1538162 2.4449174 6.554533 0 0 0 0 29.629951
5.5993838 2.8692977 6.6533365 0 0 0 0 29.634899
6.0508404 3.3216984 6.7371392 0 0 0 0 29.639845
4.6497359 2.126158 6.4655623 0 0 0 0 29.644793
5.0973454 2.5525351 6.5423684 0 0 0 0 29.64974
5.5228887 2.9848018 6.6361222 0 0 0 0 29.654686
5.9692192 3.4551785 6.7369037 0 0 0 0 29.659634
4.6122913 2.2258854 6.458446 0 0 0 0 29.664581
5.0398693 2.6611495 6.5312023 0 0 0 0 29.669527
5.4533329 3.1063514 6.6329212 0 0 0 0 29.674475
5.8667102 3.5765414 6.7166281 0 0 0 0 29.67942
4.585783 2.3306799 6.4693518 0 0 0 0 29.684368
4.9843831 2.769779 6.5260406 0 0 0 0 29.689316
5.3778191 3.2228692 6.6247101 0 0 0 0 29.694263
5.7671852 3.6989257 6.7023587 0 0 0 0 29.699209
4.545342 2.4303939 6.4632297 0 0 0 0 29.704157
4.9249039 2.8783882 6.5188699 0 0 0 0 29.709103
5.2953477 3.3343501 6.610486 0 0 0 0 29.71405
5.6646695 3.8192978 6.6900849 0 0 0 0 29.718998
4.4919686 2.5240343 6.4420815 0 0 0 0 29.723944
4.8644438 2.9839938 6.5116997 0 0 0 0 29.728891
5.2138619 3.4468405 6.601264 0 0 0 0 29.733839
5.5572047 3.9326446 6.6728039 0 0 0 0 29.738785
4.4455476 2.6217189 6.4339471 0 0 0 0 29.743732
4.7989936 3.0885746 6.5035186 0 0 0 0 29.74868
5.1294003 3.5563166 6.5900378 0 0 0 0 29.753626
5.4437804 4.0409608 6.6505127 0 0 0 0 29.758574
4.4060817 2.7234464 6.4378271 0 0 0 0 29.763521
4.7325516 3.192152 6.4953365 0 0 0 0 29.768467
5.0310168 3.6567168 6.5657854 0 0 0 0 29.773415
5.3333302 4.1513 6.6362281 0 0 0 0 29.778362
4.3576641 2.8211236 6.4306893 0 0 0 0 29.783308
4.6571655 3.2896802 6.477138 0 0 0 0 29.788256
4.9396009 3.7591608 6.5525479 0 0 0 0 29.793201
5.2159352 4.2536035 6.6169324 0 0 0 0 29.798149
4.3042641 2.9167752 6.4215412 0 0 0 0 29.803097
4.5867424 3.3902414 6.4699497 0 0 0 0 29.808044
4.8442101 3.8585856 6.536304 0 0 0 0 29.81299
5.0935855 4.3498816 6.5926294 0 0 0 0 29.817938
4.2538424 3.0144467 6.4184003 0 0 0 0 29.822884
4.517312 3.4918106 6.4647636 0 0 0 0 29.827831
4.7388926 3.9489565 6.5090432 0 0 0 0 29.832779
4.9732289 4.4461761 6.5723314 0 0 0 0 29.837725
4.1974473 3.110086 6.4092464 0 0 0 0 29.842672
4.4319763 3.5822921 6.4435477 0 0 0 0 29.84762
4.6454816 4.0494008 6.5018039 0 0 0 0 29.852566
4.8518863 4.5394692 6.5540338 0 0 0 0 29.857513
4.1341081 3.2015336 6.3938584 0 0 0 0 29.613216
4.3574872 3.682725 6.4401355 0 0 0 0 29.618162
4.5439744 4.1437201 6.4873385 0 0 0 0 29.62311
4.7203841 4.6236572 6.5255103 0 0 0 0 29.628056
4.0776806 3.2981696 6.3917031 0 0 0 0 29.633003
4.2731385 3.7722037 6.4229202 0 0 0 0 29.637951
4.4366646 4.2290735 6.4650736 0 0 0 0 29.642897
4.6000309 4.7139454 6.5142126 0 0 0 0 29.647844
4.0172734 3.3927846 6.3865395 0 0 0 0 29.652792
4.1838121 3.8586576 6.4036951 0 0 0 0 29.657738
4.338284 4.3214846 6.4588251 0 0 0 0 29.662685
4.469759 4.794178 6.4908986 0 0 0 0 29.667633
3.947933 3.4803486 6.36936 0 0 0 0 29.672579
4.0974712 3.9461317 6.3894773 0 0 0 0 29.677526
4.2270002 4.402822 6.436554 0 0 0 0 29.682474
4.3355479 4.8653917 6.4625812 0 0 0 0 29.68742
3.8825433 3.5729406 6.3631873 0 0 0 0 29.692368
4.0111165 4.0346107 6.3802595 0 0 0 0 29.697315
4.1147366 4.4801583 6.4152837 0 0 0 0 29.702261
4.2092628 4.9446573 6.4492779 0 0 0 0 29.707209
3.8112056 3.6594994 6.3490047 0 0 0 0 29.712154
3.919806 4.118063 6.3640337 0 0 0 0 29.717102
4.0044684 4.5575099 6.397018 0 0 0 0 29.72205
4.0721016 5.0078621 6.4189587 0 0 0 0 29.726997
3.7378607 3.7470505 6.3368177 0 0 0 0 29.731943
3.8294864 4.2015252 6.3528104 0 0 0 0 29.736891
3.8842914 4.6228065 6.3667364 0 0 0 0 29.741837
3.9359431 5.0690775 6.3926439 0 0 0 0 29.746784
3.6684844 3.8376284 6.3326383 0 0 0 0 29.751732
3.7332084 4.2799559 6.335577 0 0 0 0 29.756678
3.7660923 4.6901197 6.3424602 0 0 0 0 29.761625
3.79089 5.1162429 6.3523169 0 0 0 0 29.766573
3.5901716 3.9211564 6.3174434 0 0 0 0 29.771519
3.6300063 4.3483486 6.3083334 0 0 0 0 29.776466
3.6983802 4.8197403 6.4052668 0 0 0 0 29.781414
3.671567 5.196568 6.3570323 0 0 0 0 29.78636
3.5098784 4.0016756 6.3012452 0 0 0 0 29.791307
3.5337284 4.4257865 6.2951016 0 0 0 0 29.796255
3.673167 5.0116224 6.5511394 0 0 0 0 29.801201
3.6599927 5.4355488 6.5589137 0 0 0 0 29.806149
3.4364908 4.0932417 6.3030586 0 0 0 0 29.811096
3.441395 4.5092535 6.2938766 0 0 0 0 29.816042
3.5499902 5.0749192 6.5298553 0 0 0 0 29.82099
3.5218441 5.4927711 6.5415993 0 0 0 0 29.825935
3.3393409 4.1566672 6.2638326 0 0 0 0 29.830883
3.3915865 4.649982 6.37572 0 0 0 0 29.835831
3.4248326 5.1352086 6.5075688 0 0 0 0 29.840778
3.3718586 5.527926 6.5022702 0 0 0 0 29.845724
3.2530673 4.2341633 6.2486243 0 0 0 0 29.850672
3.348634 4.8097587 6.4805698 0 0 0 0 29.855618
3.2987044 5.1904964 6.4842834 0 0 0 0 29.860565
3.228807 5.5701265 6.476954 0 0 0 0 29.865513
3.1628301 4.3066392 6.2294111 0 0 0 0 29.870459
3.2404199 4.8781428 6.4643178 0 0 0 0 29.875406
3.1706002 5.241776 6.4599967 0 0 0 0 29.880354
3.0847862 5.6073256 6.4496388 0 0 0 0 29.8853
3.0735831 4.3801246 6.2131996 0 0 0 0 29.890247
3.1282513 4.9405079 6.4420614 0 0 0 0 29.895195
3.0425146 5.2900596 6.4347119 0 0 0 0 29.900141
2.9378254 5.63551 6.4163227 0 0 0 0 29.905088
2.9981365 4.4776998 6.2330084 0 0 0 0 29.910036
3.0190415 5.0068951 6.42981 0 0 0 0 29.914982
2.9144263 5.337348 6.4134288 0 0 0 0 29.91993
2.7928491 5.6647115 6.388011 0 0 0 0 29.924877
2.9917994 4.6857018 6.4049177 0 0 0 0 29.929823
2.9009473 5.0582323 6.4005475 0 0 0 0 29.934771
2.7843933 5.3766274 6.3861456 0 0 0 0 29.939716
2.6528451 5.6959457 6.3677106 0 0 0 0 29.944664
2.9054103 4.7772202 6.4157062 0 0 0 0 29.949612
2.783838 5.11058 6.3762865 0 0 0 0 29.954559
2.6573086 5.4219298 6.3688669 0 0 0 0 29.959505
2.5098939 5.7191668 6.3424077 0 0 0 0 29.964453
2.8002448 4.8406291 6.3904667 0 0 0 0 29.969398
2.667707 5.1649384 6.3580279 0 0 0 0 29.974346
2.5263023 5.4562116 6.3415856 0 0 0 0 29.979294
2.3649983 5.7343783 6.3101053 0 0 0 0 29.98424
2.6990144 4.9110675 6.3792338 0 0 0 0 29.989187
2.5515943 5.2163 6.3387713 0 0 0 0 29.994135
2.3913698 5.4794726 6.3063016 0 0 0 0 29.999081
2.2250516 5.7546239 6.2898126 0 0 0 0 30.004028
2.5918624 4.9714727 6.3559923 0 0 0 0 30.008976
2.427577 5.2546186 6.3065047 0 0 0 0 30.013922
2.2662783 5.5228004 6.2980304 0 0 0 0 30.018869
2.0802112 5.7598429 6.255517 0 0 0 0 30.023817
2.4807439 5.0268593 6.3297458 0 0 0 0 30.028763
2.3114443 5.3069906 6.295249 0 0 0 0 30.03371
2.1313746 5.5400701 6.263751 0 0 0 0 30.038658
1.9373761 5.7630763 6.2232275 0 0 0 0 30.043604
2.3755438 5.0922861 6.3185077 0 0 0 0 30.048552
2.1894038 5.3463302 6.271987 0 0 0 0 30.053499
1.9994452 5.56036 6.2344775 0 0 0 0 30.058445
1.8004656 5.7753501 6.2049475 0 0 0 0 30.063393
2.2624383 5.14467 6.29426 0 0 0 0 30.06834
2.066396 5.3806663 6.2457266 0 0 0 0 30.073286
1.8724223 5.5916867 6.2232103 0 0 0 0 30.078234
1.6606437 5.7746077 6.1756682 0 0 0 0 30.083179
2.1494212 5.1960258 6.2720327 0 0 0 0 30.104382
1.9444425 5.4189844 6.2264881 0 0 0 0 30.109329
1.7386599 5.5989442 6.1889615 0 0 0 0 30.114275
1.5229055 5.7738552 6.1504159 0 0 0 0 30.119223
2.035306 5.248415 6.2537847 0 0 0 0 30.124168
1.8224142 5.4543381 6.208231 0 0 0 0 30.129116
1.6087363 5.6152601 6.166697 0 0 0 0 30.134064
1.3850963 5.7691331 6.124145 0 0 0 0 30.139011
1.9202183 5.2968016 6.2325363 0 0 0 0 30.143957
1.6984318 5.4826827 6.1849732 0 0 0 0 30.148905
1.4788277 5.6285791 6.1444345 0 0 0 0 30.153851
1.2502781 5.7644315 6.101881 0 0 0 0 30.158798
1.8011726 5.3381701 6.2082834 0 0 0 0 30.163746
1.5734743 5.5070248 6.1597171 0 0 0 0 30.168694
1.3499341 5.6389065 6.1221766 0 0 0 0 30.173639
1.1164694 5.7577391 6.0796213 0 0 0 0 30.178587
1.6811562 5.375535 6.1800313 0 0 0 0 30.183533
1.4485134 5.5303726 6.1384611 0 0 0 0 30.18848
1.2181307 5.6352186 6.0899196 0 0 0 0 30.193428
0.98267996 5.7470493 6.057364 0 0 0 0 30.198374
1.5620875 5.4189138 6.1627789 0 0 0 0 30.203321
1.3216233 5.5437093 6.1072068 0 0 0 0 30.208267
1.0902431 5.6425605 6.0716662 0 0 0 0 30.213215
0.84899592 5.7203579 6.0221152 0 0 0 0 30.218163
1.4381443 5.444263 6.1285253 0 0 0 0 30.22311
1.1956758 5.5640597 6.0869522 0 0 0 0 30.228056
0.95944947 5.6358852 6.0414147 0 0 0 0 30.233004
0.71729755 5.6946816 5.990871 0 0 0 0 30.237949
1.3180857 5.4846444 6.114274 0 0 0 0 30.242897
1.0688061 5.5724039 6.0577011 0 0 0 0 30.247845
0.83065116 5.6292248 6.0131674 0 0 0 0 30.252792
0.58856589 5.6730266 5.965632 0 0 0 0 30.257738
1.1970423 5.5220246 6.1000228 0 0 0 0 30.262686
0.94292307 5.581759 6.0324531 0 0 0 0 30.267632
0.70381379 5.6265817 5.9939241 0 0 0 0 30.272579
0.46080396 5.6543827 5.9473948 0 0 0 0 30.277527
1.0701606 5.5363684 6.0627699 0 0 0 0 30.282475
0.81894791 5.6031342 6.0232043 0 0 0 0 30.28742
0.5779928 5.6209459 5.9736848 0 0 0 0 30.292368
0.33318812 5.6137338 5.9101682 0 0 0 0 30.297314
0.94808292 5.576755 6.058516 0 0 0 0 30.302261
0.69114494 5.599483 5.9899597 0 0 0 0 30.307209
0.45126927 5.6003036 5.9414511 0 0 0 0 30.312155
0.20942074 5.5941181 5.8959413 0 0 0 0 30.317102
0.82023293 5.5851007 6.0202661 0 0 0 0 30.32205
0.56524074 5.6088529 5.9747143 0 0 0 0 30.326996
0.32744634 5.5926871 5.926218 0 0 0 0 30.331944
0.086764067 5.5575047 5.8677254 0 0 0 0 30.336891
0.69236302 5.5944529 5.9890156 0 0 0 0 30.341837
0.43845701 5.600214 5.9434752 0 0 0 0 30.346785
0.20272464 5.5700631 5.8969913 0 0 0 0 30.35173
-0.034849696 5.5138965 5.8345156 0 0 0 0 30.356678
0.56638527 5.6188264 5.9747634 0 0 0 0 30.361626
0.31362712 5.5975924 5.920239 0 0 0 0 30.366573
0.078995757 5.5474482 5.8707666 0 0 0 0 30.371519
-0.15361823 5.4913177 5.8263021 0 0 0 0 30.376467
0.43951887 5.6261916 5.9465175 0 0 0 0 30.381413
0.18785948 5.5849657 5.8900056 0 0 0 0 30.38636
-0.042747233 5.5258479 5.8485475 0 0 0 0 30.391308
-0.27127951 5.4527402 5.8031001 0 0 0 0 30.396255
0.31063497 5.6345539 5.9242678 0 0 0 0 30.401201
0.063048422 5.5773516 5.868773 0 0 0 0 30.406149
-0.16249265 5.5032625 5.8293328 0 0 0 0 30.411095
-0.38689569 5.4061732 5.7759066 0 0 0 0 30.416042
0.1827696 5.6399236 5.9000225 0 0 0 0 30.42099
-0.060707711 5.5607433 5.8415475 0 0 0 0 30.425936
-0.28115875 5.4686799 5.7991271 0 0 0 0 30.430883
-0.50158596 5.3696198 5.7607102 0 0 0 0 30.435831
0.054941453 5.6382961 5.8737817 0 0 0 0 30.440777
-0.18452553 5.5521426 5.8253183 0 0 0 0 30.445724
-0.39989597 5.4431062 5.781918 0 0 0 0 30.450672
-0.61418396 5.3190732 5.7325263 0 0 0 0 30.455618
-0.072882183 5.6356721 5.8475418 0 0 0 0 30.460566
-0.30826607 5.5315413 5.7990961 0 0 0 0 30.465511
-0.51860416 5.4125342 5.7617116 0 0 0 0 30.470459
-0.72586477 5.2795405 5.7183394 0 0 0 0 30.475407
-0.20173028 5.6350503 5.828299 0 0 0 0 30.480354
-0.43106139 5.5179524 5.7828736 0 0 0 0 30.4853
-0.63424492 5.3709764 5.7335172 0 0 0 0 30.490248
-0.83549201 5.2310176 5.6981621 0 0 0 0 30.495193
-0.33050805 5.6234274 5.8000627 0 0 0 0 30.500141
-0.55274343 5.4863658 5.7526617 0 0 0 0 30.505089
-0.74891162 5.3324285 5.7103243 0 0 0 0 30.510036
-0.94208425 5.1765099 5.6739941 0 0 0 0 30.514982
-0.46032864 5.6168079 5.7808228 0 0 0 0 30.51993
-0.67555481 5.4727869 5.7434406 0 0 0 0 30.524876
-0.86359048 5.2948856 5.6901317 0 0 0 0 30.529823
-1.0466511 5.1180129 5.645833 0 0 0 0 30.534771
-0.58909506 5.6011939 5.7555895 0 0 0 0 30.539717
-0.79517287 5.4302125 5.7062397 0 0 0 0 30.544664
-0.97525448 5.2543588 5.6689477 0 0 0 0 30.549612
-1.1512889 5.0685239 5.6306682 0 0 0 0 30.554558
-0.71582794 5.5795918 5.7273641 0 0 0 0 30.559505
-0.91486812 5.3976479 5.6830349 0 0 0 0 30.564453
-1.086937 5.214838 5.6537628 0 0 0 0 30.569399
-1.2528988 5.014051 5.6125126 0 0 0 0 30.574347
-0.83844602 5.5520444 5.6974115 0 0 0 0 31.325466
-1.0295868 5.3652444 5.6631193 0 0 0 0 31.330412
-1.1926841 5.1665616 5.6308889 0 0 0 0 31.33536
-1.3507664 4.9629016 5.6006703 0 0 0 0 31.340305
-0.96619844 5.528513 5.6752 0 0 0 0 31.345253
-1.147283 5.3277569 5.6399345 0 0 0 0 31.350201
-1.3003181 5.1141162 5.605731 0 0 0 0 31.355148
-1.4473485 4.8975034 5.5745406 0 0 0 0 31.360094
-1.0939679 5.5069871 5.6569886 0 0 0 0 31.365042
-1.262964 5.2862806 5.6167564 0 0 0 0 31.369987
-1.4069819 5.065681 5.5865741 0 0 0 0 31.374935
-1.5419468 4.8341174 5.551415 0 0 0 0 31.379883
-1.217633 5.4674735 5.6227942 0 0 0 0 31.38483
-1.3796746 5.2488055 5.599575 0 0 0 0 31.389776
-1.510613 5.0112586 5.5624266 0 0 0 0 31.394724
-1.3443718 5.4379587 5.6045895 0 0 0 0 31.404617
-1.49536 5.2063375 5.5793986 0 0 0 0 31.409565
-1.2927638 4.1446614 4.4632936 0 0 0 0 31.429352
-1.8187906 4.6460099 5.4970531 0 0 0 0 31.439247
-1.3936968 4.1392727 4.4831305 0 0 0 0 31.449141
-1.8155096 4.8410373 5.5010018 0 0 0 0 31.454086
-1.9063803 4.5776634 5.475945 0 0 0 0 31.459034
-1.3077691 4.0555058 4.216362 0 0 0 0 31.463982
-1.8272724 5.0480046 5.5049162 0 0 0 0 31.468929
-1.9121113 4.7776542 5.4768739 0 0 0 0 31.473875
-1.9929937 4.5123253 5.4598384 0 0 0 0 31.478823
-1.4076304 4.0401163 4.2192054 0 0 0 0 31.483768
-1.9359057 4.9925747 5.4817615 0 0 0 0 31.488716
-2.0087266 4.7152753 5.4567466 0 0 0 0 31.493664
-2.0796089 4.4459901 5.4457326 0 0 0 0 31.498611
-1.9557534 5.2225113 5.4856505 0 0 0 0 31.503557
-2.0445564 4.9381509 5.4646072 0 0 0 0 31.508505
-2.1043539 4.6539049 5.4396214 0 0 0 0 31.513451
-2.1571472 4.3676872 5.4156499 0 0 0 0 31.518398
-2.0754075 5.1720433 5.4634733 0 0 0 0 31.523346
-2.1491673 4.8767433 5.4404645 0 0 0 0 31.528292
-2.1969433 4.585546 5.4165049 0 0 0 0 31.533239
-2.2377529 4.2983799 5.400558 0 0 0 0 31.538187
-2.1899981 5.1095939 5.4323115 0 0 0 0 31.543133
-2.2537878 4.81534 5.4203219 0 0 0 0 31.54808
-2.2885504 4.5191956 5.3973904 0 0 0 0 31.553028
-2.3183701 4.2300768 5.3884659 0 0 0 0 31.557974
-2.3056338 5.0531487 5.4111462 0 0 0 0 31.562922
-2.3553905 4.7499504 5.3981881 0 0 0 0 31.567867
-2.3801851 4.4558501 5.3852754 0 0 0 0 31.572815
-2.376756 4.1258421 5.329433 0 0 0 0 31.577763
-2.4232712 4.9956994 5.3919773 0 0 0 0 31.58271
-2.4580226 4.6885619 5.3820505 0 0 0 0 31.587656
-2.465749 4.3805256 5.3601775 0 0 0 0 31.592604
-2.3998048 3.9687173 5.2024927 0 0 0 0 31.597549
-2.534869 4.9302745 5.3678246 0 0 0 0 31.602497
-2.5525529 4.6092005 5.3489375 0 0 0 0 31.607445
-2.5513425 4.309206 5.3410783 0 0 0 0 31.612392
-2.4491847 3.8625195 5.1404781 0 0 0 0 31.617338
-2.6454613 4.8628569 5.3436751 0 0 0 0 31.622286
-2.6501577 4.5408368 5.3308139 0 0 0 0 31.627232
-2.6359324 4.2358928 5.3229818 0 0 0 0 31.632179
-2.5177913 3.7902689 5.1254129 0 0 0 0 31.637127
-2.7540379 4.7914491 5.3185329 0 0 0 0 31.642075
-2.7457509 4.4694829 5.3116965 0 0 0 0 31.64702
-2.7155008 4.1585999 5.3008981 0 0 0 0 31.651968
-2.5884287 3.7220154 5.117342 0 0 0 0 31.656914
-2.8636439 4.7230444 5.3013868 0 0 0 0 31.661861
-2.8403382 4.3961353 5.292582 0 0 0 0 31.666809
-2.7547002 4.0224323 5.2049179 0 0 0 0 31.671755
-2.6540434 3.6497812 5.1042824 0 0 0 0 31.676702
-2.9722383 4.6516461 5.2832451 0 0 0 0 31.681648
-2.9349415 4.3237929 5.2784677 0 0 0 0 31.686596
-2.7737684 3.8653314 5.080986 0 0 0 0 31.691544
-2.7166483 3.5755594 5.0892305 0 0 0 0 31.696491
-3.0737789 4.5702739 5.2561216 0 0 0 0 31.701437
-3.0235007 4.2434726 5.2563686 0 0 0 0 31.706385
-2.8493869 3.7940631 5.0679078 0 0 0 0 31.71133
-2.7802675 3.5023375 5.078176 0 0 0 0 31.716278
-3.173322 4.4879127 5.2310033 0 0 0 0 31.721226
-3.1110678 4.1631598 5.2372723 0 0 0 0 31.726173
-2.9249997 3.7197974 5.0568314 0 0 0 0 31.731119
-2.8408766 3.4271276 5.0651288 0 0 0 0 31.736067
-3.2698445 4.4005651 5.2038932 0 0 0 0 31.741013
-3.1865454 4.0678878 5.2002063 0 0 0 0 31.74596
-2.99862 3.6465418 5.0467587 0 0 0 0 31.750908
-2.8964574 3.346936 5.0460935 0 0 0 0 31.755856
-3.3724403 4.324204 5.1917672 0 0 0 0 31.760801
-3.1925082 3.8898354 5.0583096 0 0 0 0 31.765749
-3.0702314 3.5712953 5.0346909 0 0 0 0 31.770695
-2.9550827 3.2727385 5.0370502 0 0 0 0 31.775642
-3.4649487 4.2318769 5.1646681 0 0 0 0 31.78059
-3.2348025 3.7636755 4.9833212 0 0 0 0 31.785536
-3.1317801 3.4850833 5.0106483 0 0 0 0 31.790483
-3.009691 3.1955564 5.0240164 0 0 0 0 31.795429
-3.5586078 4.1420569 5.1430416 0 0 0 0 31.545715
-3.3204665 3.6879301 4.9777155 0 0 0 0 31.550663
-3.199369 3.4054227 4.9970851 0 0 0 0 31.555609
-3.0652518 3.1189644 5.0134811 0 0 0 0 31.560556
-3.6551671 4.0577092 5.1319289 0 0 0 0 31.565504
-3.397033 3.6056569 4.9626403 0 0 0 0 31.57045
-3.2589123 3.3192124 4.9760447 0 0 0 0 31.575397
-3.1158445 3.0407906 4.9994545 0 0 0 0 31.580345
-3.6308968 3.843766 4.9561095 0 0 0 0 31.585291
-3.4715962 3.521394 4.9485707 0 0 0 0 31.590239
-3.3255227 3.2419827 4.9699869 0 0 0 0 31.595184
-3.1674492 2.9626167 4.9904261 0 0 0 0 31.600132
-3.6912682 3.7285471 4.9070811 0 0 0 0 31.60508
-3.5522027 3.4421146 4.9454865 0 0 0 0 31.610027
-3.3800611 3.153795 4.947957 0 0 0 0 31.614973
-3.2170582 2.8854516 4.980401 0 0 0 0 31.619921
-3.7677557 3.6302776 4.8820148 0 0 0 0 31.624866
-3.6167197 3.3488917 4.9234414 0 0 0 0 31.629814
-3.4356198 3.0676067 4.9309254 0 0 0 0 31.634762
-3.2626498 2.8053014 4.9663854 0 0 0 0 31.639709
-3.8573372 3.5449688 4.8779178 0 0 0 0 31.644655
-3.6832592 3.2576652 4.9073906 0 0 0 0 31.649603
-3.4962251 2.9874055 4.9248815 0 0 0 0 31.654549
-3.3082495 2.7251542 4.9553699 0 0 0 0 31.659496
-3.9298286 3.444721 4.8558612 0 0 0 0 31.664444
-3.7538319 3.1704288 4.8993311 0 0 0 0 31.66939
-3.5487828 2.8992326 4.9088564 0 0 0 0 31.674337
-3.3518517 2.6450157 4.9443588 0 0 0 0 31.679285
-4.0033302 3.3444724 4.8378019 0 0 0 0 31.684231
-3.8133495 3.0742314 4.8792973 0 0 0 0 31.689178
-3.599345 2.8110695 4.893836 0 0 0 0 31.694126
-3.3964713 2.5668762 4.937345 0 0 0 0 31.699072
-4.079864 3.2482176 4.826736 0 0 0 0 31.70402
-3.871881 2.9790411 4.8632655 0 0 0 0 31.708965
-3.658967 2.7308788 4.8927946 0 0 0 0 31.713913
-3.4370739 2.4857516 4.9263401 0 0 0 0 31.718861
-4.1443462 3.1430066 4.8056979 0 0 0 0 31.723808
-3.9364462 2.8878329 4.8552198 0 0 0 0 31.728754
-3.7035167 2.6397405 4.8747873 0 0 0 0 31.733702
-3.4716635 2.4026494 4.9113479 0 0 0 0 31.738647
-4.2128553 3.0407848 4.7906508 0 0 0 0 31.743595
-3.9899702 2.7896647 4.8381996 0 0 0 0 31.748543
-3.7541091 2.5535846 4.8677664 0 0 0 0 31.75349
-3.5142958 2.3245225 4.9073381 0 0 0 0 31.758436
-4.2803683 2.9375699 4.7786059 0 0 0 0 31.763384
-4.0364699 2.6875217 4.8151941 0 0 0 0 31.76833
-3.8006928 2.4654446 4.8587546 0 0 0 0 31.773277
-3.5529187 2.2444108 4.9013371 0 0 0 0 31.778225
-4.3378487 2.8283918 4.7595835 0 0 0 0 31.783171
-4.0950356 2.5933421 4.8091626 0 0 0 0 31.788118
-3.8392422 2.3723323 4.8407602 0 0 0 0 31.793066
-3.5855267 2.1623209 4.8903494 0 0 0 0 31.798012
-4.4073906 2.727176 4.7555346 0 0 0 0 31.802959
-4.1445718 2.494195 4.7961507 0 0 0 0 31.807907
-3.8757968 2.2792292 4.82377 0 0 0 0 31.812853
-3.6211483 2.0812223 4.8833542 0 0 0 0 31.817801
-4.4558544 2.6140335 4.732532 0 0 0 0 31.822746
-4.1890931 2.392067 4.7801499 0 0 0 0 31.827694
-3.9244163 2.1940889 4.8237534 0 0 0 0 31.832642
-3.652765 1.9991388 4.8743682 0 0 0 0 31.837589
-4.5063348 2.5018868 4.7145247 0 0 0 0 31.842535
-4.2386541 2.2949247 4.7731376 0 0 0 0 31.847483
-3.9579737 2.0999999 4.8077693 0 0 0 0 31.852428
-3.6803744 1.9160699 4.86239 0 0 0 0 31.857376
-4.5718899 2.3986936 4.716485 0 0 0 0 31.862324
-4.283195 2.1938014 4.7621365 0 0 0 0 31.867271
-3.9965682 2.0098968 4.8017745 0 0 0 0 31.872217
-3.7130105 1.8349868 4.8594022 0 0 0 0 31.877165
-4.6163683 2.2845724 4.6984916 0 0 0 0 31.882111
-4.3167086 2.0887165 4.7431583 0 0 0 0 31.887058
-4.0321536 1.9178054 4.793786 0 0 0 0 31.892006
-3.7406356 1.7529211 4.8514237 0 0 0 0 31.896954
-4.6608582 2.1704538 4.6844974 0 0 0 0 31.901899
-4.3632793 1.9895917 4.7411532 0 0 0 0 31.906847
-4.0667419 1.8257185 4.7858 0 0 0 0 31.911793
-3.7622409 1.6678759 4.8374586 0 0 0 0 31.91674
-4.7063622 2.0573347 4.6745009 0 0 0 0 31.921688
-4.3968081 1.8845109 4.7271757 0 0 0 0 31.926634
-4.1013417 1.734634 4.7808132 0 0 0 0 31.931581
-3.781852 1.5838386 4.8234963 0 0 0 0 31.936527
-4.7488699 1.9442276 4.6645107 0 0 0 0 31.941475
-4.4313555 1.7814293 4.7171946 0 0 0 0 31.946423
-4.1289244 1.6405739 4.7708411 0 0 0 0 31.95137
-3.8094974 1.5017779 4.8225183 0 0 0 0 31.956316
-4.786366 1.8281393 4.6525311 0 0 0 0 31.961264
-4.4618936 1.6763623 4.7052231 0 0 0 0 31.966209
-4.1585197 1.547509 4.7648654 0 0 0 0 31.971157
-3.8371489 1.4207181 4.8215399 0 0 0 0 31.976105
-4.8208647 1.712063 4.6405573 0 0 0 0 31.981052
-4.4934483 1.5722946 4.6982493 0 0 0 0 31.985998
-4.1811075 1.4534687 4.7549028 0 0 0 0 31.990946
-3.875855 1.3446264 4.8385386 0 0 0 0 31.995892
-4.8583784 1.5959792 4.6345778 0 0 0 0 32.000839
-4.5189891 1.4662474 4.6862874 0 0 0 0 32.005787
-4.2057033 1.359423 4.7479367 0 0 0 0 32.010735
-3.8804343 1.2556412 4.8126073 0 0 0 0 32.015678
-4.8685455 1.4721615 4.6050248 0 0 0 0 31.732841
-4.55126 1.3614203 4.6836972 0 0 0 0 31.737787
-4.230989 1.2646794 4.7423697 0 0 0 0 31.742735
-3.8977406 1.1719874 4.8040643 0 0 0 0 31.747681
-4.9080658 1.3580679 4.6070399 0 0 0 0 31.752628
-4.5707831 1.255392 4.6707468 0 0 0 0 31.757576
-4.2465563 1.1686628 4.7314219 0 0 0 0 31.762522
-3.9113524 1.0869741 4.7941146 0 0 0 0 31.767469
-4.9335546 1.240024 4.5990844 0 0 0 0 31.772417
-4.5983362 1.1503389 4.6697807 0 0 0 0 31.777363
-4.270154 1.0756201 4.7294569 0 0 0 0 31.78231
-3.9249761 1.0029626 4.7871642 0 0 0 0 31.787258
-4.9871325 1.1298872 4.6200709 0 0 0 0 31.792204
-4.6158695 1.043321 4.6608348 0 0 0 0 31.797152
-4.2847319 0.97960937 4.7215109 0 0 0 0 31.802097
-3.9426215 0.92093867 4.7862053 0 0 0 0 31.807045
-5.0697823 1.0226555 4.671001 0 0 0 0 31.811993
-4.6364245 0.93829477 4.6578817 0 0 0 0 31.81694
-4.3003201 0.88459617 4.7155623 0 0 0 0 31.821886
-3.9592671 0.83791953 4.7862487 0 0 0 0 31.826834
-4.6479583 0.83029991 4.6479478 0 0 0 0 31.836727
-4.3109031 0.78860134 4.707624 0 0 0 0 31.841675
-3.9588599 0.7509557 4.7653265 0 0 0 0 31.846622
-0.5731824 0.087792397 0.51411068 0 0 0 0 31.851568
-4.328516 0.69458485 4.709671 0 0 0 0 31.861462
-3.9865537 0.67090333 4.7823472 0 0 0 0 31.866409
-0.55707741 0.072845884 0.49817771 0 0 0 0 31.871357
-0.56518376 0.074838974 0.55216891 0 0 0 0 31.876303
-4.3320928 0.597615 4.6977463 0 0 0 0 31.88125
-3.9901795 0.58592957 4.7724166 0 0 0 0 31.886198
-0.52092564 0.054965202 0.46328422 0 0 0 0 31.891144
-0.55008096 0.060887925 0.5352335 0 0 0 0 31.896091
-4.3364182 0.50286001 4.692872 0 0 0 0 31.901039
-3.9985237 0.50309086 4.774375 0 0 0 0 31.905985
-0.51661444 0.043011904 0.45857105 0 0 0 0 31.910933
-0.53971785 0.046951018 0.52354407 0 0 0 0 31.915878
-4.008182 0.41910139 4.7734332 0 0 0 0 31.925774
-0.51254439 0.030024687 0.45461151 0 0 0 0 31.930721
-0.52863741 0.033986457 0.5125947 0 0 0 0 31.935667
-4.0148411 0.33512235 4.7714968 0 0 0 0 31.94556
-0.51148117 0.018027484 0.45264727 0 0 0 0 31.950508
-0.53057826 0.021979867 0.51362628 0 0 0 0 31.955456
-4.0164938 0.2501598 4.7655673 0 0 0 0 31.965349
-0.49940541 0.0060658013 0.44169879 0 0 0 0 31.970297
-0.50047505 0.010075145 0.48370367 0 0 0 0 31.975243
-4.0171537 0.16620103 4.7606387 0 0 0 0 31.985138
-0.49741441 -0.00091566797 0.48074189 0 0 0 0 31.995031
-4.0228271 0.082227446 4.7637033 0 0 0 0 32.004925
-0.50229764 -0.015944177 0.44476229 0 0 0 0 32.009872
-0.49535552 -0.011909708 0.47877863 0 0 0 0 32.01482
-4.0254955 -0.002736554 4.7637725 0 0 0 0 32.024712
-0.51224935 -0.028975746 0.45478261 0 0 0 0 32.029659
-0.50631326 -0.023944208 0.49079713 0 0 0 0 32.034607
-4.0191617 -0.085672051 4.7558532 0 0 0 0 32.044502
-0.51319349 -0.040978655 0.45681536 0 0 0 0 32.04945
-0.54430115 -0.038062911 0.52877814 0 0 0 0 32.054394
-4.0188384 -0.16962577 4.7559257 0 0 0 0 32.064289
-0.53323323 -0.049027856 0.51982772 0 0 0 0 32.074184
-4.0195184 -0.25458199 4.7589965 0 0 0 0 32.084076
-0.5340963 -0.068043806 0.47785512 0 0 0 0 32.089024
-0.54518634 -0.063064508 0.53284568 0 0 0 0 32.093971
-4.0111904 -0.33950981 4.7550807 0 0 0 0 32.103867
-0.57006717 -0.086154826 0.51284063 0 0 0 0 32.10881
-0.55413556 -0.077091597 0.54286796 0 0 0 0 32.113758
-4.0048733 -0.42344373 4.7541604 0 0 0 0 32.123653
-0.58701795 -0.10320599 0.53085274 0 0 0 0 32.128601
-0.55808288 -0.090102836 0.54889697 0 0 0 0 32.133549
-3.9925511 -0.50735921 4.7482495 0 0 0 0 32.14344
-5.1097202 -1.0421069 4.7218637 0 0 0 0 32.148388
-4.6001444 -0.86941463 4.6175342 0 0 0 0 32.153336
-3.9832337 -0.59228379 4.7463336 0 0 0 0 32.163231
-5.087306 -1.1619693 4.728981 0 0 0 0 32.168175
-4.5797739 -0.97329283 4.6186419 0 0 0 0 32.173122
-4.2873368 -0.83028328 4.686017 0 0 0 0 32.17807
-3.9789312 -0.67722261 4.7534108 0 0 0 0 32.183018
-5.0538912 -1.2797982 4.7281132 0 0 0 0 32.187965
-4.5544086 -1.0761553 4.6187558 0 0 0 0 32.192913
-4.2719998 -0.92518234 4.6891136 0 0 0 0 32.197857
-3.9656219 -0.76113445 4.7514997 0 0 0 0 32.202805
-5.0167389 -1.3940926 4.7303467 0 0 0 0 33.040504
-4.5351968 -1.1787983 4.6298742 0 0 0 0 33.045452
-4.2557039 -1.0180106 4.6961756 0 0 0 0 33.0504
-3.9532371 -0.84416485 4.7555008 0 0 0 0 33.055347
-4.9864111 -1.5119494 4.7374625 0 0 0 0 33.060295
-4.4988961 -1.2796494 4.6229911 0 0 0 0 33.065243
-4.2264242 -1.1098851 4.6882806 0 0 0 0 33.07019
-3.9349809 -0.92807233 4.7515898 0 0 0 0 33.075134
-4.9340825 -1.6237524 4.7276025 0 0 0 0 33.080082
-4.473608 -1.3825278 4.6290946 0 0 0 0 33.08503
-4.2091575 -1.2047884 4.696372 0 0 0 0 33.089977
-3.9157271 -1.0119776 4.7476788 0 0 0 0 33.094925
-4.8537602 -1.7234886 4.6927714 0 0 0 0 33.099869
-4.4483266 -1.485406 4.6381979 0 0 0 0 33.104816
-4.1838908 -1.2976727 4.6974716 0 0 0 0 33.109764
-3.9074852 -1.0989089 4.7587562 0 0 0 0 33.114712
-4.7584448 -1.8161902 4.6449556 0 0 0 0 33.119659
-4.4190469 -1.5882747 4.646306 0 0 0 0 33.124603
-4.1546278 -1.3885481 4.6945753 0 0 0 0 33.129551
-3.8832407 -1.1808022 4.75385 0 0 0 0 33.134499
-4.6611457 -1.9038895 4.5971394 0 0 0 0 33.139446
-4.3857718 -1.6891344 4.6514168 0 0 0 0 33.144394
-4.1293693 -1.4824327 4.7006741 0 0 0 0 33.149342
-3.8669994 -1.2667147 4.7589359 0 0 0 0 33.154289
-4.5888591 -1.9996502 4.5762954 0 0 0 0 33.159233
-4.3475022 -1.7879826 4.6545334 0 0 0 0 33.164181
-4.0961146 -1.572299 4.6987815 0 0 0 0 33.169128
-3.8447597 -1.3506134 4.7590275 0 0 0 0 33.174076
-4.5485787 -2.1094878 4.589417 0 0 0 0 33.179024
