# .PCD v0.7 - Point Cloud Data file format
VERSION 0.7
FIELDS x y z normal_x normal_y normal_z intensity curvature
SIZE 4 4 4 4 4 4 4 4
TYPE F F F F F F F F
COUNT 1 1 1 1 1 1 1 1
WIDTH 977
HEIGHT 1
VIEWPOINT 0 0 0 1 0 0 0
POINTS 977
DATA ascii
5.8927226 7.5924182 7.0237188 0 0 0 0 21.663067
5.670033 8.0999088 7.0237312 0 0 0 0 21.668015
6.1304512 6.64889 7.0031943 0 0 0 0 21.672958
5.9180231 7.2003298 6.9892364 0 0 0 0 21.677906
5.7093544 7.7067094 7.0052204 0 0 0 0 21.682854
5.4705687 8.1992989 7.0092459 0 0 0 0 21.687801
5.9934072 6.8068643 6.9986567 0 0 0 0 21.692749
5.7568302 7.3374629 6.9817209 0 0 0 0 21.697697
5.5138516 7.8040881 6.9757247 0 0 0 0 21.702641
5.2609615 8.2807627 6.9827585 0 0 0 0 21.707588
5.8442516 6.9519277 6.9821267 0 0 0 0 21.712536
5.5915866 7.4686232 6.9702053 0 0 0 0 21.717484
5.3375769 7.9283061 6.9742212 0 0 0 0 21.722431
3.4355431 5.6912208 4.73736 0 0 0 0 21.727379
5.676939 7.0781245 6.9496093 0 0 0 0 21.732323
5.4172478 7.5878477 6.9506922 0 0 0 0 21.73727
5.1450939 8.0266466 6.9537187 0 0 0 0 21.742218
3.2603457 5.687469 4.6767044 0 0 0 0 21.747166
5.5460191 7.2500253 6.967073 0 0 0 0 21.752113
5.240912 7.7070785 6.9341822 0 0 0 0 21.757057
4.9505591 8.1179991 6.9312105 0 0 0 0 21.762005
3.1277051 5.7513719 4.6750426 0 0 0 0 21.766953
5.3918934 7.3981009 6.9605527 0 0 0 0 21.7719
5.0686169 7.8302689 6.9266677 0 0 0 0 21.776848
3.4801395 6.0146723 5.0636706 0 0 0 0 21.781796
3.016367 5.852097 4.7063808 0 0 0 0 21.786739
5.2347407 7.542191 6.9550328 0 0 0 0 21.791687
4.8851967 7.9385424 6.9061561 0 0 0 0 21.796635
3.2045238 5.8387351 4.8510118 0 0 0 0 21.801582
2.9965932 6.1470532 4.894762 0 0 0 0 21.80653
5.056345 7.6564431 6.9255185 0 0 0 0 21.811478
3.4097953 5.8412595 5.0016284 0 0 0 0 21.816422
3.0830913 5.9305434 4.8653584 0 0 0 0 21.821369
2.7846785 6.0515938 4.7730699 0 0 0 0 21.826317
4.8982449 7.8065214 6.9300051 0 0 0 0 21.831264
3.3147867 5.9878588 5.0519867 0 0 0 0 21.836212
3.0369067 6.1767206 5.0087352 0 0 0 0 21.84116
3.782845 8.7179337 6.8171797 0 0 0 0 21.846104
3.4109948 5.7333174 4.9975228 0 0 0 0 21.851051
3.1700876 6.0498562 5.030344 0 0 0 0 21.855999
2.8443658 6.1301012 4.91606 0 0 0 0 21.860947
3.5668659 8.745409 6.7846332 0 0 0 0 21.865894
3.3220487 5.8898759 5.0478806 0 0 0 0 21.870838
3.0273886 6.1108327 5.0126948 0 0 0 0 21.875786
3.7517352 8.5742188 6.8040934 0 0 0 0 21.880733
3.3528905 8.7728643 6.7540817 0 0 0 0 21.885681
3.1875236 5.9757943 5.0362444 0 0 0 0 21.890629
2.8765662 6.15587 4.985043 0 0 0 0 21.895576
3.5490031 8.6355886 6.7855587 0 0 0 0 21.90052
3.1388907 8.7963133 6.724524 0 0 0 0 21.905468
3.0499413 6.0537319 5.0226045 0 0 0 0 21.910416
3.7380419 8.4933872 6.7940454 0 0 0 0 21.915363
3.3380618 8.6700268 6.7490082 0 0 0 0 21.920311
2.9329479 8.8256969 6.7049565 0 0 0 0 21.925259
2.8971148 6.1007895 4.9859576 0 0 0 0 21.930202
3.5383451 8.5617409 6.7705112 0 0 0 0 21.93515
3.1342487 8.7193966 6.7294598 0 0 0 0 21.940098
2.7208896 8.8401241 6.6753826 0 0 0 0 21.945045
3.7827191 8.4601469 6.8159394 0 0 0 0 21.949993
3.3407412 8.642066 6.7559862 0 0 0 0 21.954941
2.9273362 8.7557907 6.701901 0 0 0 0 21.959885
2.5097797 8.8465414 6.6457973 0 0 0 0 21.964832
3.5841711 8.5514889 6.7934284 0 0 0 0 21.96978
3.1349277 8.6944561 6.7264433 0 0 0 0 21.974728
2.7214701 8.797164 6.6823449 0 0 0 0 21.979675
2.3037295 8.8599138 6.6242089 0 0 0 0 21.984619
3.3876553 8.6458044 6.7789154 0 0 0 0 21.989567
2.9332314 8.7607985 6.7119074 0 0 0 0 21.994514
2.5104005 8.8115845 6.6467667 0 0 0 0 21.999462
2.0924664 8.8453341 6.5845971 0 0 0 0 22.00441
3.1830537 8.716753 6.7502966 0 0 0 0 21.766277
2.7264867 8.8078136 6.6842809 0 0 0 0 21.771225
2.3065221 8.836628 6.6221232 0 0 0 0 21.776173
1.8739053 8.7795734 6.5118923 0 0 0 0 21.781116
2.9794307 8.7951374 6.7297845 0 0 0 0 21.786064
2.5206637 8.8562098 6.6617374 0 0 0 0 21.791012
2.0994513 8.8490334 6.5925407 0 0 0 0 21.795959
1.6247896 8.529438 6.3070922 0 0 0 0 21.800907
2.7717969 8.8715429 6.7112765 0 0 0 0 21.805855
2.3086841 8.8836517 6.6291809 0 0 0 0 21.810799
1.8695695 8.7586641 6.488884 0 0 0 0 21.815746
1.4295425 8.5137548 6.2784524 0 0 0 0 21.820694
2.555886 8.9120207 6.670743 0 0 0 0 21.825642
2.101805 8.9230433 6.6086273 0 0 0 0 21.830589
1.6268589 8.56145 6.3131304 0 0 0 0 21.835533
1.2353251 8.5010567 6.2548132 0 0 0 0 21.840481
2.3451366 8.9724417 6.6472206 0 0 0 0 21.845428
1.8399336 8.7099876 6.4028926 0 0 0 0 21.850376
1.4318209 8.5747509 6.2955217 0 0 0 0 21.855324
1.041991 8.4723549 6.224153 0 0 0 0 21.860271
2.1334255 9.0368567 6.630703 0 0 0 0 21.865215
1.6203024 8.6515198 6.3192506 0 0 0 0 21.870163
1.2336684 8.5730782 6.2689018 0 0 0 0 21.875111
0.8506763 8.4456339 6.1964903 0 0 0 0 21.880058
1.8428016 8.729064 6.3499155 0 0 0 0 21.885006
1.4194167 8.6868486 6.3076768 0 0 0 0 21.889954
1.0364627 8.5633945 6.2412696 0 0 0 0 21.894897
0.66129857 8.4098978 6.1658125 0 0 0 0 21.899845
1.6401346 8.7963982 6.3453817 0 0 0 0 21.904793
1.2152777 8.6892157 6.2750716 0 0 0 0 21.90974
0.8391242 8.535718 6.2046161 0 0 0 0 21.914688
0.47395054 8.377141 6.1401339 0 0 0 0 21.919636
1.4302387 8.8337927 6.3228264 0 0 0 0 21.92458
1.0121696 8.6945667 6.2484665 0 0 0 0 21.929527
0.64490575 8.5230036 6.1799726 0 0 0 0 21.934475
0.28957114 8.3393593 6.1144423 0 0 0 0 21.939423
1.2182808 8.8621988 6.2982645 0 0 0 0 21.94437
0.80906916 8.6999083 6.2258601 0 0 0 0 21.949314
0.45163438 8.5022812 6.1543174 0 0 0 0 21.954262
0.10611896 8.2915735 6.0837369 0 0 0 0 21.959209
1.0072756 8.8835964 6.2726908 0 0 0 0 21.964157
0.60684061 8.6882496 6.1932321 0 0 0 0 21.969105
0.25818959 8.4585695 6.1146355 0 0 0 0 21.974052
-0.073351331 8.2407589 6.053019 0 0 0 0 21.978996
0.79213583 8.8870249 6.2371039 0 0 0 0 21.983944
0.40353006 8.6645985 6.1575909 0 0 0 0 21.988892
0.068975054 8.4438028 6.0979767 0 0 0 0 21.993839
-0.2507439 8.1989155 6.0323071 0 0 0 0 21.998787
0.57902861 8.8934288 6.2085156 0 0 0 0 22.003735
0.20230108 8.650919 6.1309562 0 0 0 0 22.008678
-0.11943621 8.4020395 6.0682855 0 0 0 0 22.013626
-0.42731902 8.1330814 5.9955654 0 0 0 0 22.018574
0.36690599 8.8968191 6.1819205 0 0 0 0 22.023521
0.0030259637 8.6302242 6.1033092 0 0 0 0 22.028469
-0.30684644 8.3602667 6.0385914 0 0 0 0 22.033417
-0.60076684 8.0822048 5.974834 0 0 0 0 22.038361
0.15171228 8.8902292 6.1513186 0 0 0 0 22.043308
-0.19535546 8.5945244 6.0696421 0 0 0 0 22.048256
-0.49223989 8.3194714 6.0138931 0 0 0 0 22.053204
-0.7723214 8.0173244 5.9440823 0 0 0 0 22.058151
-0.059519406 8.8776093 6.1207013 0 0 0 0 22.063099
-0.39464712 8.5698166 6.0459881 0 0 0 0 22.068043
-0.67476565 8.260664 5.9791689 0 0 0 0 22.07299
-0.94181299 7.9594169 5.9223337 0 0 0 0 22.077938
-0.27184072 8.8519955 6.086071 0 0 0 0 22.082886
-0.5910567 8.5290956 6.0133095 0 0 0 0 22.087833
-0.85629439 8.2008467 5.9454408 0 0 0 0 22.092777
-1.1073908 7.8894873 5.8945637 0 0 0 0 22.097725
-0.48508731 8.8353739 6.0604506 0 0 0 0 22.102673
-0.78642488 8.4923553 5.9886327 0 0 0 0 22.10762
-1.0348061 8.1420002 5.9167066 0 0 0 0 22.112568
-1.2671511 7.7955356 5.8497548 0 0 0 0 22.117516
-0.69269812 8.7697439 6.0057645 0 0 0 0 22.122459
-0.97990209 8.440608 5.9559345 0 0 0 0 22.127407
-1.2103581 8.0771332 5.8859591 0 0 0 0 22.132355
-1.4257981 7.7155609 5.8169584 0 0 0 0 22.137302
-0.90490919 8.7560978 5.9881434 0 0 0 0 22.14225
-1.1713871 8.3868408 5.9252291 0 0 0 0 22.147198
-1.3849503 8.006258 5.8532028 0 0 0 0 22.152142
-1.6460685 7.9417167 6.0206189 0 0 0 0 22.157089
-1.1132776 8.7204332 5.9604893 0 0 0 0 22.162037
-1.3609022 8.3280573 5.8945136 0 0 0 0 22.166985
-1.5854142 8.0814247 5.9306574 0 0 0 0 22.171932
-1.8086779 7.8647485 5.9978318 0 0 0 0 22.17688
-1.3207405 8.670763 5.9288173 0 0 0 0 22.181824
-1.5494475 8.2642632 5.8637896 0 0 0 0 22.186771
-1.7947041 8.1786194 6.028151 0 0 0 0 22.191719
-1.9653761 7.7757483 5.9670196 0 0 0 0 22.196667
-1.5252683 8.6120758 5.892128 0 0 0 0 22.201614
-1.7359505 8.2054472 5.8380666 0 0 0 0 22.206558
-1.9683912 8.0927286 5.9943733 0 0 0 0 22.211506
-2.1220133 7.6937356 5.9442139 0 0 0 0 22.216454
-1.7278142 8.549367 5.8584299 0 0 0 0 22.221401
-1.9631498 8.3167467 5.9386077 0 0 0 0 22.226349
-2.138073 8.0068064 5.9625874 0 0 0 0 22.231297
-2.2757003 7.6047049 5.9173942 0 0 0 0 22.23624
-1.9262536 8.4779091 5.8208041 0 0 0 0 21.964237
-2.177712 8.3593225 5.9931469 0 0 0 0 21.969185
-2.3046808 7.918191 5.930891 0 0 0 0 21.974129
-2.4224274 7.5059795 5.8866491 0 0 0 0 21.979076
-2.1336179 8.4382296 5.8091464 0 0 0 0 21.984024
-2.3604434 8.2695093 5.9563856 0 0 0 0 21.988972
-2.4733233 7.8372703 5.908112 0 0 0 0 21.993919
-2.5691564 7.4119215 5.8598146 0 0 0 0 21.998863
-2.3993449 8.6097555 5.9488354 0 0 0 0 22.003811
-2.5402424 8.1696758 5.9166064 0 0 0 0 22.008759
-2.6370125 7.7493162 5.883316 0 0 0 0 22.013706
-2.7158694 7.3188558 5.8369803 0 0 0 0 22.018654
-2.6185486 8.589119 5.9582186 0 0 0 0 22.023602
-2.7228875 8.0888405 5.8928528 0 0 0 0 22.028545
-2.7997189 7.6583524 5.8585134 0 0 0 0 22.033493
-2.850749 7.2037268 5.799098 0 0 0 0 22.038441
-2.819288 8.4974089 5.9234862 0 0 0 0 22.043388
-2.8986478 7.9919653 5.8610673 0 0 0 0 22.048336
-2.951592 7.5453324 5.818665 0 0 0 0 22.053284
-2.9904602 7.1096077 5.7782483 0 0 0 0 22.058228
-3.0071983 8.3826265 5.8747025 0 0 0 0 22.063175
-3.0773547 7.9010973 5.8362932 0 0 0 0 22.068123
-3.1102765 7.4553299 5.7998543 0 0 0 0 22.073071
-3.1301804 7.013485 5.7583952 0 0 0 0 22.078018
-3.2019451 8.2878647 5.8439536 0 0 0 0 22.082966
-3.2520702 7.8081989 5.8125091 0 0 0 0 22.08791
-3.2601106 7.3452816 5.7680039 0 0 0 0 22.092857
-3.2629628 6.9083195 5.7345185 0 0 0 0 22.097805
-3.3947146 8.189086 5.8131957 0 0 0 0 22.102753
-3.4179087 7.6982508 5.7796879 0 0 0 0 22.1077
-3.4089158 7.2382193 5.7401543 0 0 0 0 22.112644
-3.3937449 6.8031387 5.7096372 0 0 0 0 22.117592
-3.5835247 8.0832758 5.783421 0 0 0 0 22.12254
-3.5798237 7.5772791 5.7418461 0 0 0 0 22.127487
-3.5517621 7.1251187 5.7092862 0 0 0 0 22.132435
-3.5235026 6.699944 5.6897559 0 0 0 0 22.137383
-3.7713387 7.9764566 5.753643 0 0 0 0 22.142326
-3.7475693 7.4773216 5.7220383 0 0 0 0 22.147274
-3.6985509 7.0180311 5.6874318 0 0 0 0 22.152222
-3.6453409 6.5857038 5.662847 0 0 0 0 22.157169
-3.9443328 7.8445539 5.7108078 0 0 0 0 22.162117
-3.9024944 7.3532972 5.6861787 0 0 0 0 22.167065
-3.8364077 6.9018912 5.6585493 0 0 0 0 22.172009
-3.7641973 6.4684434 5.6349287 0 0 0 0 22.176956
-4.1271391 7.7356863 5.6890163 0 0 0 0 22.181904
-4.0603495 7.2372775 5.6593332 0 0 0 0 22.186852
-3.9712787 6.7827287 5.6306577 0 0 0 0 22.191799
-3.811934 6.2398386 5.5087528 0 0 0 0 22.196747
-4.2951407 7.6007409 5.6491675 0 0 0 0 22.201691
-4.2132335 7.1162229 5.632472 0 0 0 0 22.206638
-4.1021762 6.6595402 5.6007538 0 0 0 0 22.211586
-3.8467159 6.0051599 5.3755455 0 0 0 0 22.216534
-4.466085 7.4718003 5.6183295 0 0 0 0 22.221481
-4.3572197 6.9811196 5.5965776 0 0 0 0 22.226425
-4.0937347 6.323667 5.3923526 0 0 0 0 22.231373
-3.9664006 5.9078779 5.3666506 0 0 0 0 22.23632
-4.6330366 7.3408303 5.5884814 0 0 0 0 22.241268
-4.5090742 6.8620458 5.5757155 0 0 0 0 22.246216
-4.199789 6.179338 5.3443785 0 0 0 0 22.251163
-4.072206 5.7945189 5.3457108 0 0 0 0 22.256107
-4.7920866 7.1958146 5.5516024 0 0 0 0 22.261055
-4.4740109 6.4740348 5.336206 0 0 0 0 22.266003
-4.3275495 6.0711045 5.3314843 0 0 0 0 22.27095
-4.1710563 5.6751204 5.3197513 0 0 0 0 22.275898
-4.856122 6.9213076 5.4164023 0 0 0 0 22.280846
-4.6088963 6.3488517 5.3143053 0 0 0 0 22.285789
-4.4434242 5.9478073 5.3065505 0 0 0 0 22.290737
-4.2748547 5.5617442 5.2998071 0 0 0 0 22.295685
-4.9081459 6.6477242 5.2811813 0 0 0 0 22.300632
-4.7447791 6.2236719 5.2924056 0 0 0 0 22.30558
-4.560266 5.8275075 5.2876215 0 0 0 0 22.310528
-4.3657403 5.4362936 5.2718253 0 0 0 0 22.315472
-5.064054 6.5176601 5.2633119 0 0 0 0 22.320419
-4.8687434 6.0864205 5.2654696 0 0 0 0 22.325367
-4.6671925 5.6961541 5.2586617 0 0 0 0 22.330315
-4.4556236 5.3108349 5.2438407 0 0 0 0 22.335262
-5.1991115 6.3674798 5.230381 0 0 0 0 22.340206
-4.9907126 5.9481549 5.2375283 0 0 0 0 22.345154
-4.7582359 5.5487108 5.2186542 0 0 0 0 22.350101
-4.6187983 5.2727332 5.305089 0 0 0 0 22.355049
-5.3331766 6.2152886 5.1984453 0 0 0 0 22.359997
-5.0928292 5.7897787 5.1955285 0 0 0 0 22.364944
-4.8859267 5.4454498 5.2197633 0 0 0 0 22.369888
-4.8206582 5.2728224 5.4084492 0 0 0 0 22.374836
-5.4543157 6.0520201 5.1614733 0 0 0 0 22.379784
-5.2167282 5.6585083 5.1785975 0 0 0 0 22.384731
-5.1613426 5.5009279 5.3803186 0 0 0 0 22.389679
-4.9045877 5.1393199 5.3794436 0 0 0 0 22.394627
-5.5893021 5.9078159 5.1415472 0 0 0 0 22.39957
-5.5340338 5.7282248 5.3532443 0 0 0 0 22.404518
-5.255342 5.3564849 5.350318 0 0 0 0 22.409466
-4.9954219 5.0168447 5.3634629 0 0 0 0 22.414413
-5.9306669 5.9706826 5.3092289 0 0 0 0 22.419361
-5.6361427 5.567832 5.3182397 0 0 0 0 22.424309
-5.3572712 5.2200775 5.3303409 0 0 0 0 22.429253
-5.0793009 4.8883314 5.3414621 0 0 0 0 22.4342
-6.0562372 5.8015409 5.2795348 0 0 0 0 23.336151
-5.7484083 5.4157534 5.2955952 0 0 0 0 23.341099
-5.4543114 5.0780501 5.3077307 0 0 0 0 23.346046
-5.1611218 4.7563539 5.3198853 0 0 0 0 23.350994
-6.17628 5.6351833 5.2535453 0 0 0 0 23.355942
-5.8543758 5.2613163 5.2715955 0 0 0 0 23.360886
-5.5402365 4.9315071 5.279707 0 0 0 0 23.365833
-5.232996 4.6187363 5.2898479 0 0 0 0 23.370781
-6.2774329 5.4527292 5.2145071 0 0 0 0 23.375729
-5.9453988 5.0988011 5.2395625 0 0 0 0 23.380676
-5.6370783 4.7950096 5.2657123 0 0 0 0 23.38562
-5.3167558 4.4951649 5.2788458 0 0 0 0 23.390568
-6.3795409 5.2752709 5.1824751 0 0 0 0 23.395515
-6.0443707 4.9423208 5.2155485 0 0 0 0 23.400463
-5.7179937 4.6484318 5.2396793 0 0 0 0 23.405411
-5.391573 4.3635502 5.2588201 0 0 0 0 23.410358
-6.4905701 5.1078496 5.161468 0 0 0 0 23.415302
-6.1363487 4.7837973 5.1925201 0 0 0 0 23.42025
-5.7899599 4.4938083 5.208622 0 0 0 0 23.425198
-5.4633799 4.2329159 5.2397895 0 0 0 0 23.430145
-6.5876765 4.9283557 5.1324248 0 0 0 0 23.435093
-6.2173791 4.6172171 5.1634645 0 0 0 0 23.440041
-5.8708401 4.3502197 5.1895919 0 0 0 0 23.444984
-5.5272136 4.0982399 5.2167406 0 0 0 0 23.449932
-6.6817632 4.7508397 5.1063781 0 0 0 0 23.45488
-6.3113232 4.4616947 5.1464424 0 0 0 0 23.459827
-5.9457374 4.203598 5.1685486 0 0 0 0 23.464775
-5.597014 3.9665873 5.2017055 0 0 0 0 23.469723
-6.7658863 4.5672698 5.0763083 0 0 0 0 23.474667
-6.3903189 4.2980928 5.1233864 0 0 0 0 23.479614
-6.0146499 4.0539432 5.1464915 0 0 0 0 23.484562
-5.6628075 3.835912 5.1856647 0 0 0 0 23.48951
-6.8659186 4.3947721 5.0612764 0 0 0 0 23.494457
-6.4643245 4.1324625 5.099319 0 0 0 0 23.499405
-6.0885286 3.9083085 5.1294465 0 0 0 0 23.504349
-5.7216415 3.6992023 5.1636052 0 0 0 0 23.509296
-6.9370599 4.2071276 5.0291796 0 0 0 0 23.514244
-6.5393095 3.968833 5.0782561 0 0 0 0 23.519192
-6.1494541 3.7556064 5.1063724 0 0 0 0 23.524139
-5.7734804 3.5614536 5.140533 0 0 0 0 23.529083
-7.0241156 4.0295553 5.0121207 0 0 0 0 23.534031
-6.6053171 3.8011534 5.0551734 0 0 0 0 23.538979
-6.2014079 3.5988595 5.0772791 0 0 0 0 23.543926
-5.8372502 3.4317567 5.1304889 0 0 0 0 23.548874
-7.0892401 3.8418694 4.985014 0 0 0 0 23.553822
-6.675303 3.6354909 5.0360994 0 0 0 0 23.558765
-6.2682686 3.4531763 5.0652218 0 0 0 0 23.563713
-5.8821101 3.2899699 5.1044006 0 0 0 0 23.568661
-7.1493678 3.6531553 4.9568973 0 0 0 0 23.573608
-6.7392845 3.4697924 5.0180149 0 0 0 0 23.578556
-6.3251567 3.303442 5.0481443 0 0 0 0 23.583504
-5.9269438 3.1511779 5.0823154 0 0 0 0 23.588448
-7.2164435 3.470469 4.937799 0 0 0 0 23.593395
-6.7903013 3.2990279 4.9929032 0 0 0 0 23.598343
-6.3760705 3.149677 5.0270514 0 0 0 0 23.603291
-5.9906821 3.0234697 5.0792732 0 0 0 0 23.608238
-7.2815247 3.2857695 4.9196949 0 0 0 0 23.613186
-6.8433018 3.1292691 4.9717965 0 0 0 0 23.61813
-6.4369245 3.0029547 5.0169835 0 0 0 0 23.623077
-6.0275311 2.8816345 5.0541716 0 0 0 0 23.628025
-7.3316269 3.0979908 4.8965626 0 0 0 0 23.632973
-6.8743567 2.9523993 4.9396453 0 0 0 0 23.63792
-6.4848266 2.8491681 4.9988861 0 0 0 0 23.642864
-6.0743175 2.74684 5.0420938 0 0 0 0 23.647812
-7.3597946 2.9011025 4.8613844 0 0 0 0 23.65276
-6.948247 2.7947307 4.9405861 0 0 0 0 23.657707
-6.5137701 2.6902862 4.9707522 0 0 0 0 23.662655
-6.1201077 2.6110399 5.0290127 0 0 0 0 23.667603
-7.3799543 2.7051706 4.8251944 0 0 0 0 23.672546
-6.9822712 2.6198685 4.915442 0 0 0 0 23.677494
-6.5636282 2.540499 4.9616623 0 0 0 0 23.682442
-6.153923 2.4721801 5.0089092 0 0 0 0 23.687389
-7.0162635 2.4490008 4.8943024 0 0 0 0 23.697285
-6.5925479 2.3836114 4.93753 0 0 0 0 23.702229
-6.1887236 2.334321 4.9928079 0 0 0 0 23.707176
-0.46841836 0.14481615 0.29105297 0 0 0 0 23.712124
-7.0542307 2.2801483 4.8791718 0 0 0 0 23.717072
-6.635407 2.2327852 4.9274273 0 0 0 0 23.722019
-6.2225175 2.1964536 4.9787054 0 0 0 0 23.726967
-7.0632753 2.1021564 4.8449841 0 0 0 0 23.736858
-6.6722775 2.079927 4.9153132 0 0 0 0 23.741806
-6.2543163 2.0575755 4.9635983 0 0 0 0 23.746754
-0.46851563 0.12080443 0.28703681 0 0 0 0 23.751701
-6.6941814 1.922996 4.8941693 0 0 0 0 23.761593
-6.28511 1.9186904 4.9494896 0 0 0 0 23.766541
-0.45651963 0.11171646 0.2990132 0 0 0 0 23.776436
-6.5145917 1.7151158 4.7296419 0 0 0 0 23.781384
-6.3208656 1.7838233 4.9433937 0 0 0 0 23.786327
-0.49854219 0.10393582 0.30207729 0 0 0 0 23.791275
-6.4945426 1.5549818 4.6854277 0 0 0 0 23.80117
-6.3197231 1.6377828 4.9102254 0 0 0 0 23.806118
-0.46391997 0.091868259 0.29994065 0 0 0 0 23.496265
-6.5312462 1.4112225 4.6845441 0 0 0 0 23.501213
-6.1339269 1.4519303 4.7359171 0 0 0 0 23.506161
-0.46604025 0.073895924 0.27892849 0 0 0 0 23.511108
-6.5401216 1.2612209 4.6653867 0 0 0 0 23.521
-6.1467223 1.315954 4.7177815 0 0 0 0 23.525948
-0.47298878 0.070898362 0.30394268 0 0 0 0 23.535843
-6.5569739 1.1122552 4.6542435 0 0 0 0 23.540791
-6.1744685 1.184046 4.7136755 0 0 0 0 23.545734
-0.47411013 0.052921366 0.28192887 0 0 0 0 23.550682
-6.5638304 0.96323788 4.6390839 0 0 0 0 23.560577
-6.1852531 1.0480547 4.6985373 0 0 0 0 23.565525
-0.48904443 0.050962716 0.31195742 0 0 0 0 23.575417
-6.5577078 0.81215662 4.6159 0 0 0 0 23.580364
-6.2050023 0.91510355 4.6924176 0 0 0 0 23.585312
-0.44024372 0.027740072 0.25985473 0 0 0 0 23.59026
-6.5565538 0.6640957 4.5997286 0 0 0 0 23.600155
-6.2147703 0.78010291 4.6802788 0 0 0 0 23.605099
-0.45417556 0.026778145 0.28788275 0 0 0 0 23.614994
-6.5493999 0.51600379 4.5815473 0 0 0 0 23.619942
-6.2165403 0.64506102 4.6651268 0 0 0 0 23.624889
-0.44930446 0.0077701551 0.26385802 0 0 0 0 23.629833
-6.2262921 0.51105684 4.6559896 0 0 0 0 23.644676
-0.43826696 0.005685919 0.27684331 0 0 0 0 23.654572
-0.54004067 0.019151784 0.36602756 0 0 0 0 23.659515
-0.43638295 -0.012309608 0.25682467 0 0 0 0 23.669411
-0.54394954 0.02213214 0.39504266 0 0 0 0 23.684254
-0.52425212 -0.01591518 0.33197209 0 0 0 0 23.694145
-0.52913773 -0.003917465 0.35799396 0 0 0 0 23.699093
-0.5014146 -0.038010623 0.29691443 0 0 0 0 23.708988
-0.53204602 6.0656461e-05 0.3840085 0 0 0 0 23.723827
-0.52633488 -0.039924413 0.33495918 0 0 0 0 23.733723
-0.53421539 -0.026910383 0.36098698 0 0 0 0 23.73867
-0.50849152 -0.06199529 0.30290991 0 0 0 0 23.748562
-0.52314025 -0.022998188 0.37697846 0 0 0 0 23.763405
-0.53142053 -0.064918414 0.33895019 0 0 0 0 23.773296
-0.54229635 -0.051891338 0.36798289 0 0 0 0 23.778244
-0.51057631 -0.087005325 0.30689612 0 0 0 0 23.788139
-0.52321637 -0.045015141 0.37696439 0 0 0 0 23.802979
-0.54150224 -0.090890713 0.3479484 0 0 0 0 23.812874
-0.53838038 -0.074928299 0.36596116 0 0 0 0 23.817822
-0.48665413 -0.10613964 0.29484606 0 0 0 0 23.827717
-6.7945929 -1.3503553 4.5018544 0 0 0 0 23.832661
-0.53229082 -0.068990707 0.38396302 0 0 0 0 23.842556
-6.7634201 -1.5075965 4.500627 0 0 0 0 23.852451
-0.54846692 -0.10190091 0.37495831 0 0 0 0 23.857395
-0.5177471 -0.13901359 0.31887162 0 0 0 0 23.86729
-6.7952485 -1.679545 4.5454874 0 0 0 0 23.872238
-6.4096875 -1.3826045 4.5131674 0 0 0 0 23.877186
-0.54236645 -0.09396331 0.39296225 0 0 0 0 23.882133
-6.7020369 -1.8200821 4.5081768 0 0 0 0 23.892025
-6.411449 -1.5346853 4.5330005 0 0 0 0 23.896973
-6.1158204 -1.2403097 4.5538249 0 0 0 0 23.90192
-6.6638403 -1.9753609 4.5089412 0 0 0 0 23.911816
-6.3661952 -1.6749852 4.5207696 0 0 0 0 23.916759
-6.0785255 -1.3715606 4.5386171 0 0 0 0 23.921707
-6.8543677 -2.4293263 4.4397683 0 0 0 0 23.926655
-6.5876045 -2.1178212 4.488658 0 0 0 0 23.931602
-6.4019704 -1.8389113 4.567646 0 0 0 0 23.93655
-6.0532212 -1.5047579 4.5344272 0 0 0 0 23.941498
-6.7491398 -2.5719349 4.411438 0 0 0 0 23.946442
-6.5894222 -2.2869182 4.5224743 0 0 0 0 23.951389
-6.3396993 -1.9752951 4.5493927 0 0 0 0 23.956337
-6.084938 -1.6556952 4.5743113 0 0 0 0 23.961285
-5.5731373 -2.2727795 3.67694 0 0 0 0 23.715443
-6.5096178 -2.4265287 4.5033221 0 0 0 0 23.72039
-6.2828393 -2.1138167 4.5362744 0 0 0 0 23.725338
-6.0790067 -1.7969989 4.5892692 0 0 0 0 23.730286
-6.6552849 -2.8997247 4.4400568 0 0 0 0 23.735233
-5.6515508 -2.2537005 3.9420793 0 0 0 0 23.740177
-6.2375779 -2.2541289 4.5330424 0 0 0 0 23.745125
-6.0597334 -1.9371762 4.5950804 0 0 0 0 23.750072
-6.5630465 -3.0432875 4.4277439 0 0 0 0 23.75502
-6.3821459 -2.7173555 4.4937863 0 0 0 0 23.759968
-6.1622901 -2.3845837 4.5107718 0 0 0 0 23.764915
-6.0354514 -2.0763803 4.6008849 0 0 0 0 23.769859
-6.4898281 -3.1957605 4.4304538 0 0 0 0 23.774807
-6.3209019 -2.863759 4.4945221 0 0 0 0 23.779755
-6.1690822 -2.5486555 4.5506015 0 0 0 0 23.784702
-5.9861536 -2.2077012 4.5886569 0 0 0 0 23.78965
-6.4105887 -3.3442628 4.4311585 0 0 0 0 23.794598
-6.2496409 -3.0062106 4.4902468 0 0 0 0 23.799541
-6.1007853 -2.6810796 4.5373416 0 0 0 0 23.804489
-5.9508629 -2.3449588 4.5894461 0 0 0 0 23.809437
-6.3283324 -3.4907818 4.4338608 0 0 0 0 23.814384
-6.1583323 -3.1367567 4.4739513 0 0 0 0 23.819332
-6.0485096 -2.8224311 4.5390987 0 0 0 0 23.82428
-5.8935447 -2.47332 4.5762091 0 0 0 0 23.829224
-6.2440691 -3.6363087 4.4355621 0 0 0 0 23.834171
-6.0960689 -3.2831676 4.4806881 0 0 0 0 23.839119
-5.9802017 -2.9558587 4.5318389 0 0 0 0 23.844067
-5.8172088 -2.5947683 4.5489488 0 0 0 0 23.849014
-6.151773 -3.7758749 4.435257 0 0 0 0 23.853958
-6.0788789 -3.4543715 4.5234723 0 0 0 0 23.858906
-5.8988652 -3.0813448 4.5145669 0 0 0 0 23.863853
-5.8329716 -2.7577975 4.5977955 0 0 0 0 23.868801
-6.0745115 -3.926373 4.4489655 0 0 0 0 23.873749
-5.9715157 -3.5749943 4.5021629 0 0 0 0 23.878696
-4.9119649 -2.7079778 3.7973428 0 0 0 0 23.88364
-5.7736435 -2.8871706 4.5885558 0 0 0 0 23.888588
-5.9902205 -4.0709028 4.4586692 0 0 0 0 23.893536
-5.8731618 -3.7005754 4.4898639 0 0 0 0 23.898483
-5.7022986 -3.0115988 4.5713019 0 0 0 0 23.908379
-5.8858709 -4.2015262 4.456356 0 0 0 0 23.913322
-5.7908363 -3.8360832 4.4915814 0 0 0 0 23.91827
-5.6969028 -3.4846182 4.5117941 0 0 0 0 23.923218
-5.6389546 -3.1399941 4.5650578 0 0 0 0 23.928165
-5.7815208 -4.3331494 4.4560428 0 0 0 0 23.933113
-5.7084937 -3.9695911 4.4953017 0 0 0 0 23.938061
-5.6526198 -3.63394 4.5335598 0 0 0 0 23.943005
-5.5976577 -3.2832897 4.5778341 0 0 0 0 23.947952
-5.6791544 -4.4637647 4.4607344 0 0 0 0 23.9529
-5.6251554 -4.1051049 4.5010195 0 0 0 0 23.957848
-5.5682526 -3.759445 4.5262856 0 0 0 0 23.962795
-5.515276 -3.4017706 4.5585713 0 0 0 0 23.967739
-5.5717692 -4.5904016 4.4624228 0 0 0 0 23.972687
-5.530777 -4.2316694 4.5007286 0 0 0 0 23.977634
-5.4918947 -3.8899145 4.5280199 0 0 0 0 23.982582
-5.4509277 -3.5321715 4.5563245 0 0 0 0 23.98753
-5.4613652 -4.7140522 4.4641104 0 0 0 0 23.992477
-5.455451 -4.3741493 4.5184531 0 0 0 0 23.997421
-5.4125295 -4.0193987 4.5297513 0 0 0 0 24.002369
-5.369535 -3.6516509 4.5440626 0 0 0 0 24.007317
-5.3389111 -4.8267574 4.4587908 0 0 0 0 24.012264
-5.3510308 -4.4927592 4.5141559 0 0 0 0 24.017212
-5.3261461 -4.1449142 4.5274763 0 0 0 0 24.02216
-5.3212185 -3.7949843 4.56183 0 0 0 0 24.027103
-5.2134299 -4.9344749 4.4524722 0 0 0 0 24.032051
-5.2476068 -4.6123657 4.5138602 0 0 0 0 24.036999
-5.2387462 -4.2684355 4.5272021 0 0 0 0 24.041946
-5.2588782 -3.9313807 4.5695825 0 0 0 0 24.046894
-5.0678577 -5.0202785 4.4291449 0 0 0 0 24.051842
-5.1421766 -4.7309794 4.5125632 0 0 0 0 24.056786
-5.1473351 -4.3899746 4.5259242 0 0 0 0 24.061733
-5.1804876 -4.05585 4.5673227 0 0 0 0 24.066681
-4.9212656 -5.103085 4.4068203 0 0 0 0 24.071629
-5.0467725 -4.8585505 4.5232735 0 0 0 0 24.076576
-5.0579309 -4.5145054 4.5286469 0 0 0 0 24.081524
-5.1031108 -4.1843162 4.5680604 0 0 0 0 24.086468
-4.7776604 -5.1848769 4.3885026 0 0 0 0 24.091415
-4.949357 -4.9851322 4.5359826 0 0 0 0 24.096363
-4.9875975 -4.6589551 4.5513806 0 0 0 0 24.101311
-5.017704 -4.3058157 4.5627933 0 0 0 0 24.106258
-4.6340461 -5.2656674 4.3711867 0 0 0 0 24.111202
-4.8338642 -5.0927901 4.5326834 0 0 0 0 24.11615
-4.8821325 -4.7705584 4.546093 0 0 0 0 24.121098
-4.9393139 -4.434288 4.5685306 0 0 0 0 24.126045
-4.4924164 -5.3444457 4.3558769 0 0 0 0 24.130993
-4.7193789 -5.203445 4.5333834 0 0 0 0 24.135941
-4.7876992 -4.8921127 4.5518131 0 0 0 0 24.140884
-4.8539171 -4.560792 4.57026 0 0 0 0 24.145832
-4.3527732 -5.422215 4.3445725 0 0 0 0 24.15078
-4.5928216 -5.2981505 4.5250816 0 0 0 0 24.155727
-4.6832423 -5.0077119 4.5515246 0 0 0 0 24.160675
-4.7554603 -4.6733518 4.5619831 0 0 0 0 24.165623
-4.2121177 -5.4979873 4.3332691 0 0 0 0 24.170567
-4.448173 -5.3709321 4.5007744 0 0 0 0 24.175514
-4.5898185 -5.1342659 4.5652423 0 0 0 0 24.180462
-4.6931491 -4.8257599 4.5917239 0 0 0 0 24.18541
-4.0793424 -5.5791907 4.329987 0 0 0 0 23.943901
-4.3194346 -5.4610806 4.4914985 0 0 0 0 23.948849
-4.4841504 -5.2472873 4.5689874 0 0 0 0 23.953796
-4.5904479 -4.9367428 4.5854816 0 0 0 0 23.958744
-3.9436934 -5.6569557 4.3256865 0 0 0 0 23.963692
-4.1838083 -5.5398369 4.4771957 0 0 0 0 23.968636
-4.3746786 -5.3599243 4.5726905 0 0 0 0 23.973583
-4.4890103 -5.0533314 4.5831938 0 0 0 0 23.978531
-3.8130579 -5.7396979 4.3283887 0 0 0 0 23.983479
-4.0361152 -5.6036458 4.4538898 0 0 0 0 23.988426
-4.269218 -5.4765429 4.5813975 0 0 0 0 23.993374
-4.3966045 -5.1798825 4.5929103 0 0 0 0 23.998318
-3.6773992 -5.817461 4.3280892 0 0 0 0 24.003265
-3.9155493 -5.7003369 4.4595947 0 0 0 0 24.008213
-4.1416569 -5.5692577 4.5720944 0 0 0 0 24.013161
-4.2901387 -5.2924948 4.5916204 0 0 0 0 24.018108
-3.5467451 -5.898201 4.333796 0 0 0 0 24.023052
-3.7748666 -5.7691102 4.4442968 0 0 0 0 24.028
-4.0080352 -5.6489949 4.5557961 0 0 0 0 24.032948
-4.1957498 -5.4250588 4.6073294 0 0 0 0 24.037895
-3.4160864 -5.9799433 4.3445024 0 0 0 0 24.042843
-3.6412127 -5.8468552 4.4400015 0 0 0 0 24.047791
-3.8683782 -5.7207561 4.5344968 0 0 0 0 24.052734
-4.0862784 -5.5386872 4.6100345 0 0 0 0 24.057682
-3.2803862 -6.0517015 4.3472118 0 0 0 0 24.06263
-3.503521 -5.9166145 4.4317093 0 0 0 0 24.067577
-3.7337508 -5.8014979 4.5231977 0 0 0 0 24.072525
-3.975805 -5.6533213 4.6157384 0 0 0 0 24.077473
-3.1497197 -6.1334414 4.36092 0 0 0 0 24.082417
-3.3698571 -5.9943576 4.4314165 0 0 0 0 24.087364
-3.6051509 -5.890214 4.5199003 0 0 0 0 24.092312
-3.8532748 -5.754004 4.6094375 0 0 0 0 24.09726
-3.0170462 -6.2141895 4.3746271 0 0 0 0 24.102207
-3.2452407 -6.085063 4.4431252 0 0 0 0 24.107155
-3.4745245 -5.9739361 4.5156059 0 0 0 0 24.112099
-3.7116325 -5.827764 4.5831351 0 0 0 0 24.117046
-2.8853557 -6.2929316 4.3913379 0 0 0 0 24.121994
-3.1105671 -6.1628098 4.4468322 0 0 0 0 24.126942
-3.3358393 -6.0446911 4.504313 0 0 0 0 24.131889
-3.5780218 -5.9114914 4.5688362 0 0 0 0 24.136833
-2.7577176 -6.3846598 4.4170432 0 0 0 0 24.141781
-2.9859571 -6.2575169 4.465538 0 0 0 0 24.146729
-3.204217 -6.1314182 4.5050159 0 0 0 0 24.151676
-3.4464116 -5.9972105 4.5595398 0 0 0 0 24.156624
-2.6260533 -6.471405 4.4417481 0 0 0 0 24.161572
-2.8532937 -6.3402562 4.4772449 0 0 0 0 24.166515
-3.0695508 -6.2091556 4.5027242 0 0 0 0 24.171463
-3.3047514 -6.0709701 4.5412402 0 0 0 0 24.176411
-2.4913538 -6.5511613 4.4644561 0 0 0 0 24.181358
-2.7186165 -6.4210043 4.4899516 0 0 0 0 24.186306
-2.9379158 -6.2958832 4.5094285 0 0 0 0 24.191254
-3.1701152 -6.1526999 4.5329442 0 0 0 0 24.196198
-2.3597136 -6.6459107 4.4981551 0 0 0 0 24.201145
-2.5849524 -6.5057478 4.5066566 0 0 0 0 24.206093
-2.7962077 -6.3656492 4.5051355 0 0 0 0 24.21104
-3.0354919 -6.2384315 4.528645 0 0 0 0 24.215988
-2.2229972 -6.7236733 4.5228634 0 0 0 0 24.220936
-2.4462421 -6.5805101 4.5183644 0 0 0 0 24.22588
-2.6554897 -6.4344096 4.5028458 0 0 0 0 24.230827
-2.894835 -6.3171883 4.5213447 0 0 0 0 24.235775
-2.0842924 -6.805449 4.5525661 0 0 0 0 24.240723
-2.3136055 -6.674253 4.5450635 0 0 0 0 24.24567
-2.5259092 -6.5371332 4.5245399 0 0 0 0 24.250614
-2.7561822 -6.3979349 4.5170465 0 0 0 0 24.255562
-1.94762 -6.8962193 4.5902634 0 0 0 0 24.260509
-2.1759357 -6.7610164 4.5687623 0 0 0 0 24.265457
-2.3882422 -6.6208873 4.5372419 0 0 0 0 24.270405
-2.6185565 -6.4866819 4.5207424 0 0 0 0 24.275352
-1.808948 -6.987999 4.6299572 0 0 0 0 24.280296
-2.0362346 -6.8417859 4.591466 0 0 0 0 24.285244
-2.2485821 -6.7066498 4.5509391 0 0 0 0 24.290192
-2.4778957 -6.568439 4.5224414 0 0 0 0 24.295139
-1.6662465 -7.0737944 4.6676521 0 0 0 0 24.300087
-1.8965676 -6.93156 4.6211605 0 0 0 0 24.305035
-2.1099355 -6.7974105 4.5716338 0 0 0 0 24.309978
-2.3312001 -6.6422191 4.5191407 0 0 0 0 24.314926
-1.5266128 -7.1775866 4.7203345 0 0 0 0 24.319874
-1.7539028 -7.0233498 4.6548495 0 0 0 0 24.324821
-1.9662519 -6.8801908 4.5883298 0 0 0 0 24.329769
-2.1925967 -6.739974 4.5348287 0 0 0 0 24.334717
-1.3799177 -7.2674036 4.7650204 0 0 0 0 24.339661
-1.6102188 -7.1111407 4.6865416 0 0 0 0 24.344608
-1.8226057 -6.9729757 4.6130166 0 0 0 0 24.349556
-2.0469339 -6.8247557 4.5445199 0 0 0 0 24.354504
-1.23323 -7.3602214 4.813705 0 0 0 0 24.359451
-1.464548 -7.2039452 4.7252269 0 0 0 0 24.364395
-1.6769459 -7.0637689 4.6387033 0 0 0 0 24.369343
-1.8992729 -6.9105463 4.5552077 0 0 0 0 24.37429
-1.0825291 -7.4510579 4.8633862 0 0 0 0 24.379238
-1.3148806 -7.2977672 4.763906 0 0 0 0 24.384186
-1.5282638 -7.1505747 4.6643901 0 0 0 0 24.389133
-1.7526648 -7.0103393 4.5768843 0 0 0 0 24.394077
-0.92472184 -7.5169115 4.8980823 0 0 0 0 24.399025
-1.165242 -7.4005957 4.8125768 0 0 0 0 24.403973
-1.3776327 -7.2503963 4.6990619 0 0 0 0 24.40892
-1.6009926 -7.0961485 4.5925679 0 0 0 0 24.413868
-0.75815022 -7.5341434 4.9043255 0 0 0 0 25.440445
-1.0070536 -7.5039697 4.8617063 0 0 0 0 25.445393
-1.2215278 -7.3548741 4.7391558 0 0 0 0 25.450336
-1.4419264 -7.1877494 4.6126304 0 0 0 0 25.455284
-0.59622115 -7.5769105 4.9280658 0 0 0 0 25.460232
-0.84620047 -7.563735 4.8864317 0 0 0 0 25.465179
-1.0638099 -7.4466357 4.7718539 0 0 0 0 25.470127
-1.2872699 -7.2924981 4.6443191 0 0 0 0 25.475075
-0.43424246 -7.6076703 4.9478197 0 0 0 0 25.480019
-0.68340653 -7.6405177 4.9231391 0 0 0 0 25.484966
-0.90617561 -7.5634131 4.8245282 0 0 0 0 25.489914
-1.128601 -7.3942595 4.6740065 0 0 0 0 25.494862
-0.2712312 -7.6304283 4.964581 0 0 0 0 25.499809
-0.51647627 -7.6812959 4.9398761 0 0 0 0 25.504753
-0.74249017 -7.6672072 4.8702078 0 0 0 0 25.509701
-0.96489686 -7.4890413 4.7046938 0 0 0 0 25.514648
-0.10625046 -7.6621985 4.9883313 0 0 0 0 25.519596
-0.34853175 -7.7190752 4.9566159 0 0 0 0 25.524544
-0.57474315 -7.7550077 4.9068985 0 0 0 0 25.529491
-0.7992658 -7.6038394 4.7463613 0 0 0 0 25.534435
0.056776211 -7.6829538 5.0090961 0 0 0 0 25.539383
-0.17858376 -7.7568617 4.9753542 0 0 0 0 25.544331
-0.40293682 -7.8278155 4.9365993 0 0 0 0 25.549278
-0.62960559 -7.7126513 4.7880292 0 0 0 0 25.554226
0.2228063 -7.7027178 5.0288591 0 0 0 0 25.559174
-0.0086612804 -7.8026514 5.0010858 0 0 0 0 25.564117
-0.22612499 -7.9006448 4.9692945 0 0 0 0 25.569065
-0.45595583 -7.8254819 4.8336887 0 0 0 0 25.574013
0.38884532 -7.7214813 5.0516233 0 0 0 0 25.57896
0.16431953 -7.8334441 5.0198288 0 0 0 0 25.583908
-0.048141733 -7.9274502 4.9760337 0 0 0 0 25.588856
-0.2763181 -7.9433413 4.8853364 0 0 0 0 25.5938
0.55490559 -7.7352405 5.0733938 0 0 0 0 25.598747
0.33732942 -7.8572316 5.0365791 0 0 0 0 25.603695
0.13268405 -7.9982924 5.0107274 0 0 0 0 25.608643
-0.091676809 -8.0612202 4.9379787 0 0 0 0 25.61359
0.72299004 -7.7430029 5.0931683 0 0 0 0 25.618538
0.51134825 -7.8800225 5.0563302 0 0 0 0 25.623482
0.31467867 -8.0241117 5.0214643 0 0 0 0 25.628429
0.09803886 -8.1601086 4.9816337 0 0 0 0 25.633377
0.89007729 -7.7507591 5.1149449 0 0 0 0 25.638325
0.68935072 -7.9078317 5.0800719 0 0 0 0 25.643272
0.50062829 -8.0629539 5.0411844 0 0 0 0 25.648216
0.29183286 -8.2390022 5.0163031 0 0 0 0 25.653164
1.0591704 -7.7575221 5.1377211 0 0 0 0 25.658112
0.86541814 -7.9186196 5.0958338 0 0 0 0 25.663059
0.68854183 -8.1138134 5.0728908 0 0 0 0 25.668007
0.48874551 -8.2858877 5.0330014 0 0 0 0 25.672955
1.2253398 -7.7442594 5.1515212 0 0 0 0 25.677898
1.0464175 -7.9494414 5.1265712 0 0 0 0 25.682846
0.87655962 -8.1366529 5.0896254 0 0 0 0 25.687794
0.687657 -8.3347826 5.0546956 0 0 0 0 25.692741
1.394462 -7.7450171 5.1763053 0 0 0 0 25.697689
1.2254891 -7.9612417 5.1483297 0 0 0 0 25.702637
1.0675762 -8.1605043 5.1083565 0 0 0 0 25.707581
0.89153451 -8.3947058 5.0863738 0 0 0 0 25.712528
1.5665689 -7.7507887 5.2060804 0 0 0 0 25.717476
1.4075803 -7.9680495 5.1680908 0 0 0 0 25.722424
1.2625341 -8.202383 5.1420655 0 0 0 0 25.727371
1.0974683 -8.4396248 5.110065 0 0 0 0 25.732319
1.7317874 -7.7255092 5.2178965 0 0 0 0 25.737263
1.5857439 -7.9558282 5.1798763 0 0 0 0 25.74221
1.4516927 -8.1882 5.1418381 0 0 0 0 25.747158
1.298587 -8.4344931 5.1078119 0 0 0 0 25.752106
1.8713882 -7.5900416 5.1558552 0 0 0 0 25.757053
1.7412697 -7.8404388 5.1257935 0 0 0 0 25.761997
1.6221752 -8.0838795 5.0897241 0 0 0 0 25.766945
1.4869969 -8.3482561 5.0586562 0 0 0 0 25.771893
2.0385654 -7.5777764 5.1806574 0 0 0 0 25.77684
1.9214121 -7.8352265 5.1455717 0 0 0 0 25.781788
1.8182172 -8.1047459 5.1174555 0 0 0 0 25.786736
1.6989626 -8.388195 5.0893474 0 0 0 0 25.791679
2.2067566 -7.5625124 5.2064619 0 0 0 0 25.796627
2.1075001 -7.8470511 5.180326 0 0 0 0 25.801575
2.0172915 -8.1176186 5.1431913 0 0 0 0 25.806522
1.9100041 -8.4081173 5.1110601 0 0 0 0 25.81147
2.377934 -7.5512619 5.2352605 0 0 0 0 25.816418
2.2886741 -7.8348365 5.2011118 0 0 0 0 25.821362
2.2193434 -8.1385088 5.1779165 0 0 0 0 25.826309
2.1299851 -8.4460859 5.1457448 0 0 0 0 25.831257
2.5421906 -7.5179653 5.2520895 0 0 0 0 25.836205
2.4708681 -7.8176217 5.2209015 0 0 0 0 25.841152
2.4204648 -8.1403818 5.2026629 0 0 0 0 25.8461
2.3480425 -8.464035 5.1724529 0 0 0 0 25.851044
2.712409 -7.4967017 5.2799006 0 0 0 0 25.855991
2.6570375 -7.8084278 5.2486792 0 0 0 0 25.860939
2.622597 -8.1402559 5.2294106 0 0 0 0 25.865887
2.5691266 -8.4759922 5.1991639 0 0 0 0 25.870834
2.8786707 -7.4634118 5.3017287 0 0 0 0 25.875778
2.8432429 -7.7902279 5.2744665 0 0 0 0 25.880726
2.8217933 -8.123107 5.2491798 0 0 0 0 25.885674
2.7912202 -8.4859495 5.2268767 0 0 0 0 25.890621
3.0508964 -7.4411526 5.3325396 0 0 0 0 25.895569
3.0334196 -7.7810488 5.3082409 0 0 0 0 25.900517
3.0319245 -8.1260157 5.2849159 0 0 0 0 25.90546
3.0193145 -8.4979334 5.2615809 0 0 0 0 25.910408
3.2198081 -7.411427 5.3610339 0 0 0 0 25.604862
3.2232158 -7.766417 5.3406887 0 0 0 0 25.60981
3.2366562 -8.1114426 5.310339 0 0 0 0 25.614754
3.2489066 -8.5034752 5.2929463 0 0 0 0 25.619701
3.3841307 -7.3651443 5.3818731 0 0 0 0 25.624649
3.4094985 -7.7302327 5.3624883 0 0 0 0 25.629597
3.4428794 -8.0913515 5.3380966 0 0 0 0 25.634544
3.4780769 -8.4964886 5.3216596 0 0 0 0 25.639488
3.5534351 -7.3238835 5.406702 0 0 0 0 25.644436
3.5947864 -7.6930408 5.3852916 0 0 0 0 25.649384
3.6570878 -8.0762987 5.371839 0 0 0 0 25.654331
3.7092707 -8.4845047 5.3513765 0 0 0 0 25.659279
3.719764 -7.2766056 5.430542 0 0 0 0 25.664227
3.7900362 -7.667901 5.4200706 0 0 0 0 25.66917
3.8653481 -8.0472078 5.3986044 0 0 0 0 25.674118
3.9474635 -8.474555 5.3870826 0 0 0 0 25.679066
3.8861063 -7.226325 5.4553847 0 0 0 0 25.684013
3.9783452 -7.6267185 5.4468756 0 0 0 0 25.688961
4.0825891 -8.0251608 5.4343519 0 0 0 0 25.693909
4.1876655 -8.4626083 5.42379 0 0 0 0 25.698853
4.059423 -7.1840796 5.4882116 0 0 0 0 25.7038
4.1646857 -7.5775213 5.4716921 0 0 0 0 25.708748
4.2938905 -7.9870763 5.4631243 0 0 0 0 25.713696
4.4229417 -8.4316292 5.4535232 0 0 0 0 25.718643
4.2247896 -7.1277876 5.5130639 0 0 0 0 25.723591
4.3540292 -7.5283365 5.499505 0 0 0 0 25.728535
4.5111904 -7.9510188 5.4978876 0 0 0 0 25.733482
4.6691952 -8.4087019 5.4932356 0 0 0 0 25.73843
4.3961391 -7.0775261 5.5459027 0 0 0 0 25.743378
4.5493612 -7.4831781 5.5323076 0 0 0 0 25.748325
4.7295036 -7.9119625 5.5336537 0 0 0 0 25.753269
4.9045439 -8.3597078 5.5189886 0 0 0 0 25.758217
4.5665159 -7.0192513 5.5737519 0 0 0 0 25.763165
4.736753 -7.4219751 5.5591369 0 0 0 0 25.768112
4.9508348 -7.8689156 5.5704207 0 0 0 0 25.77306
5.1468797 -8.3157473 5.5527291 0 0 0 0 25.778008
4.7239594 -6.941906 5.5906377 0 0 0 0 25.782951
4.9261532 -7.3587775 5.5859671 0 0 0 0 25.787899
5.1702027 -7.8168545 5.6062002 0 0 0 0 25.792847
5.3992043 -8.2768345 5.5954523 0 0 0 0 25.797794
4.9003296 -6.8876605 5.6284766 0 0 0 0 25.802742
5.1364655 -7.3226895 5.6367431 0 0 0 0 25.80769
5.386611 -7.7537704 5.6369953 0 0 0 0 25.812634
5.6684728 -8.2560062 5.6551366 0 0 0 0 25.817581
5.0697389 -6.8223758 5.6613359 0 0 0 0 25.822529
5.3269005 -7.2514896 5.6655817 0 0 0 0 25.827477
5.6080093 -7.6947107 5.6747813 0 0 0 0 25.832424
5.8591623 -8.112752 5.6340461 0 0 0 0 25.837372
5.2282033 -6.740027 5.6812277 0 0 0 0 25.842316
5.5163455 -7.1772809 5.6944246 0 0 0 0 25.847263
5.8284469 -7.6256399 5.7105794 0 0 0 0 25.852211
5.9891176 -7.8921828 5.5641127 0 0 0 0 25.857159
5.4066 -6.6797829 5.7230721 0 0 0 0 25.862106
5.7097926 -7.1040902 5.7282624 0 0 0 0 25.86705
6.0509014 -7.5525737 5.7473793 0 0 0 0 25.871998
6.111074 -7.6695747 5.4921932 0 0 0 0 25.876945
5.5720711 -6.5974655 5.7509561 0 0 0 0 25.881893
5.8813419 -6.9997797 5.7401605 0 0 0 0 25.886841
6.2345195 -7.4303021 5.74928 0 0 0 0 25.891788
6.2360058 -7.4539833 5.4272623 0 0 0 0 25.896732
5.7415276 -6.5201678 5.7848306 0 0 0 0 25.90168
6.0977402 -6.9437017 5.7959533 0 0 0 0 25.906628
5.9060168 -6.4328384 5.8127222 0 0 0 0 25.921471
6.2583594 -6.8193278 5.7988873 0 0 0 0 25.926414
6.0505819 -6.3224049 5.8246632 0 0 0 0 25.941257
6.4837708 -6.7622881 5.8636708 0 0 0 0 25.946205
6.6209946 -6.8746338 5.627387 0 0 0 0 25.951153
6.2041249 -6.2190151 5.8445864 0 0 0 0 25.961044
6.6693268 -6.6600389 5.8935513 0 0 0 0 25.965992
6.7298522 -6.6779814 5.580461 0 0 0 0 25.97094
6.3935652 -6.1508102 5.9014287 0 0 0 0 25.980831
6.8170047 -6.5185938 5.8915215 0 0 0 0 25.985779
6.8187633 -6.4642301 5.5215783 0 0 0 0 25.990726
6.5630894 -6.0564985 5.9393234 0 0 0 0 26.000622
6.9367661 -6.3500051 5.8675551 0 0 0 0 26.005569
6.9684796 -6.3117862 5.5155563 0 0 0 0 26.010513
7.0540028 -6.3348455 5.2154284 0 0 0 0 26.015461
6.6957126 -5.9279943 5.9443002 0 0 0 0 26.020409
7.0445614 -6.1703572 5.8366146 0 0 0 0 26.025356
7.0643377 -6.1130733 5.4706507 0 0 0 0 26.030304
6.8483 -5.8125882 5.966239 0 0 0 0 26.040195
7.143362 -5.9876657 5.80269 0 0 0 0 26.045143
7.2330141 -5.9747233 5.4845915 0 0 0 0 26.050091
7.0148606 -5.7072511 6.0021505 0 0 0 0 26.059986
7.3030167 -5.8542767 5.8186383 0 0 0 0 26.064934
7.9434319 -6.2610435 5.9014153 0 0 0 0 26.069878
7.2045698 -5.6200037 6.0616307 0 0 0 0 25.832653
7.3281589 -5.6162052 5.7324753 0 0 0 0 25.837601
7.3562045 -5.4966063 6.0865769 0 0 0 0 25.85244
7.4628801 -5.4667139 5.7374692 0 0 0 0 25.857388
7.4908767 -5.3611236 6.1025572 0 0 0 0 25.872227
7.5686641 -5.295073 5.7205238 0 0 0 0 25.877174
7.6894355 -5.2542748 5.4074087 0 0 0 0 25.882122
7.5966177 -5.2014899 6.0946007 0 0 0 0 25.892017
7.6684618 -5.1194043 5.7035909 0 0 0 0 25.896961
7.7063446 -5.045876 6.0916352 0 0 0 0 25.911804
7.8101878 -4.9699459 5.7195768 0 0 0 0 25.916752
7.7951069 -4.8771577 6.0757103 0 0 0 0 25.931591
7.88587 -4.7084484 6.0627832 0 0 0 0 25.951382
8.0005932 -4.5548596 6.0708098 0 0 0 0 25.971169
8.0945988 -4.434866 5.6798077 0 0 0 0 25.976116
8.8547306 -4.6691713 5.7635822 0 0 0 0 25.981064
8.0873556 -4.3851318 6.0598898 0 0 0 0 25.990955
8.1983852 -4.262218 5.6778684 0 0 0 0 25.995903
8.1920977 -4.224493 6.0649371 0 0 0 0 26.010742
8.3021727 -4.0895705 5.6789289 0 0 0 0 26.01569
8.2678766 -4.0477095 6.0490389 0 0 0 0 26.030533
8.4065895 -3.901238 6.0820284 0 0 0 0 26.05032
8.9229698 -3.5194318 5.1177378 0 0 0 0 26.065163
8.4683838 -3.7173858 6.0601559 0 0 0 0 26.070107
8.7444601 -3.6152616 5.7808981 0 0 0 0 26.075054
8.8696966 -3.4544382 5.4368954 0 0 0 0 26.080002
8.963933 -3.291477 5.0859351 0 0 0 0 26.084949
8.5831347 -3.5557954 6.0801921 0 0 0 0 26.089897
8.7703438 -3.4022343 5.738101 0 0 0 0 26.094845
8.9515839 -3.2526822 5.4330139 0 0 0 0 26.099789
9.083827 -3.0938988 5.1020002 0 0 0 0 26.104736
8.6858988 -3.3881445 6.0922508 0 0 0 0 26.109684
8.9021425 -3.2317204 5.7681246 0 0 0 0 26.114632
8.9685097 -3.0286148 5.3902392 0 0 0 0 26.119579
9.0598221 -2.8476424 5.0423002 0 0 0 0 26.124523
8.7576866 -3.2083457 6.0873613 0 0 0 0 26.129471
8.9140196 -3.0176303 5.7233462 0 0 0 0 26.134418
9.067378 -2.8339415 5.4013295 0 0 0 0 26.139366
9.2356949 -2.6653306 5.0962782 0 0 0 0 26.144314
8.853466 -3.0346596 6.0974345 0 0 0 0 26.149261
9.0508327 -2.8441405 5.7613668 0 0 0 0 26.154205
9.2152338 -2.6515007 5.444344 0 0 0 0 26.159153
9.3696089 -2.4648194 5.1283288 0 0 0 0 26.164101
8.9612427 -2.8640332 6.1194906 0 0 0 0 26.169048
9.164669 -2.659538 5.7844286 0 0 0 0 26.173996
9.3351164 -2.4569273 5.4734073 0 0 0 0 26.178944
9.498538 -2.2602856 5.1613903 0 0 0 0 26.183887
9.1110163 -2.7026055 6.1694827 0 0 0 0 26.188835
9.2815084 -2.474951 5.8134861 0 0 0 0 26.193783
9.4400148 -2.255281 5.4944973 0 0 0 0 26.19873
9.5894966 -2.0415733 5.1755147 0 0 0 0 26.203678
9.2228165 -2.5269971 6.1985388 0 0 0 0 26.208626
9.3963652 -2.2853534 5.8425517 0 0 0 0 26.21357
9.5469236 -2.0516458 5.520587 0 0 0 0 26.218517
9.6804514 -1.8238627 5.1936383 0 0 0 0 26.223465
9.3326263 -2.3473761 6.2256012 0 0 0 0 26.228413
9.5182304 -2.094789 5.8786092 0 0 0 0 26.23336
9.6448421 -1.8429666 5.5416927 0 0 0 0 26.238304
9.9594212 -1.6340246 5.3154931 0 0 0 0 26.243252
9.4334469 -2.1637137 6.2506795 0 0 0 0 26.248199
9.6061096 -1.8940645 5.8967204 0 0 0 0 26.253147
9.9127722 -1.6630828 5.6655531 0 0 0 0 26.258095
10.150423 -1.4207748 5.3914847 0 0 0 0 26.263042
9.4922743 -1.9688511 6.2488222 0 0 0 0 26.267986
9.7360001 -1.6985376 5.9427733 0 0 0 0 26.272934
10.07674 -1.4537092 5.7295752 0 0 0 0 26.277882
9.5971107 -1.7812071 6.2798996 0 0 0 0 26.287777
9.8749075 -1.4990494 5.9938188 0 0 0 0 26.292725
9.7456541 -1.5992795 6.3404155 0 0 0 0 26.021942
10.06557 -1.3043611 6.0802836 0 0 0 0 26.02689
9.8715582 -1.4057511 6.3874693 0 0 0 0 26.041733
10.026488 -1.2113616 6.4544864 0 0 0 0 26.06152
10.121411 -1.0066826 6.4865918 0 0 0 0 26.081306
10.33851 -0.64826697 6.1706576 0 0 0 0 26.086254
10.229349 -0.80106765 6.5306821 0 0 0 0 26.101097
10.518563 -0.42899612 6.2606668 0 0 0 0 26.106045
10.361322 -0.59056526 6.5897455 0 0 0 0 26.120884
10.698652 -0.20072429 6.3536849 0 0 0 0 26.125832
10.499324 -0.37409091 6.6548076 0 0 0 0 26.140671
10.826727 0.034797356 6.4167786 0 0 0 0 26.145618
10.647353 -0.15266386 6.7288613 0 0 0 0 26.160461
10.886775 0.2776424 6.4409676 0 0 0 0 26.165405
10.755371 0.074955679 6.7789736 0 0 0 0 26.180248
11.074958 0.52888024 6.5449986 0 0 0 0 26.185196
10.907455 0.31036636 6.8590364 0 0 0 0 26.200035
11.241149 0.78622204 6.6400647 0 0 0 0 26.204983
11.597859 1.2519385 6.4690542 0 0 0 0 26.20993
11.052555 0.55081028 6.9381132 0 0 0 0 26.219826
11.351309 1.0478295 6.7032075 0 0 0 0 26.22477
11.688074 1.5286344 6.5302377 0 0 0 0 26.229717
12.948159 2.1781766 6.8332362 0 0 0 0 26.234665
11.187663 0.79529959 7.0162077 0 0 0 0 26.239613
11.494523 1.3162804 6.7903147 0 0 0 0 26.24456
11.85042 1.8249943 6.634347 0 0 0 0 26.249508
11.297782 1.0489109 7.0773425 0 0 0 0 26.259399
11.698857 1.6024443 6.9183598 0 0 0 0 26.264347
12.05187 2.1401727 6.7644243 0 0 0 0 26.269295
11.386888 1.3036194 7.1295066 0 0 0 0 26.279186
11.863184 1.8957988 7.0234642 0 0 0 0 26.284134
12.189257 2.4516485 6.8625808 0 0 0 0 26.289082
13.023229 3.1441705 6.9641757 0 0 0 0 26.294029
11.417938 1.5565978 7.1497426 0 0 0 0 26.298977
12.012517 2.1932209 7.1255918 0 0 0 0 26.303925
12.448892 2.8025584 7.0336185 0 0 0 0 26.308868
12.780138 3.403394 6.8717723 0 0 0 0 26.313816
11.47204 1.8184688 7.184958 0 0 0 0 26.318764
12.221993 2.5153654 7.265667 0 0 0 0 26.323711
12.607403 3.140934 7.1547747 0 0 0 0 26.328659
12.985868 3.7865491 7.0269103 0 0 0 0 26.333607
11.487091 2.0755188 7.2002182 0 0 0 0 26.338551
12.325328 2.8230011 7.3478637 0 0 0 0 26.343498
12.81806 3.5070708 7.3078904 0 0 0 0 26.348446
13.246756 4.1994514 7.2170072 0 0 0 0 26.353394
11.510165 2.3375292 7.2234726 0 0 0 0 26.358341
12.307475 3.1081965 7.3611937 0 0 0 0 26.363289
13.013729 3.8782732 7.461031 0 0 0 0 26.368233
13.457613 4.6135817 7.3871698 0 0 0 0 26.37318
11.53025 2.6025503 7.2487335 0 0 0 0 26.378128
12.305665 3.4003112 7.3905096 0 0 0 0 26.383076
13.125296 4.2408628 7.5692711 0 0 0 0 26.388023
13.776774 5.0842156 7.6242485 0 0 0 0 26.392967
11.513286 2.8637412 7.2530375 0 0 0 0 26.397915
12.264787 3.6846054 7.3968668 0 0 0 0 26.402863
13.054505 4.5482836 7.5786891 0 0 0 0 26.40781
13.91561 5.5056696 7.7705102 0 0 0 0 26.412758
11.498331 3.126919 7.2623401 0 0 0 0 26.417706
12.242968 3.9798069 7.41921 0 0 0 0 26.422649
12.979713 4.8567185 7.5891132 0 0 0 0 26.427597
13.784862 5.8313494 7.7700224 0 0 0 0 26.432545
11.6357 3.4403906 7.3714976 0 0 0 0 26.437492
12.171048 4.259232 7.4176006 0 0 0 0 26.44244
12.874861 5.1562862 7.5855656 0 0 0 0 26.447388
13.66011 6.1549935 7.7785234 0 0 0 0 26.452332
11.952476 3.8190341 7.5994902 0 0 0 0 26.457279
12.143233 4.5574527 7.4439521 0 0 0 0 26.462227
12.901327 5.5102458 7.6659026 0 0 0 0 26.467175
13.506299 6.4697633 7.7750521 0 0 0 0 26.472122
11.934599 4.1032181 7.6198158 0 0 0 0 26.47707
12.120442 4.8606439 7.4793019 0 0 0 0 26.482014
13.208549 5.9999242 7.9190145 0 0 0 0 26.486961
13.857861 7.0342326 8.0701799 0 0 0 0 26.491909
11.895953 4.3817339 7.6299491 0 0 0 0 26.379612
12.038836 5.1423316 7.4824929 0 0 0 0 26.38456
13.07608 6.3017664 7.9152784 0 0 0 0 26.389503
13.690525 7.3541775 8.0705004 0 0 0 0 26.394451
11.642553 4.5810046 7.506494 0 0 0 0 26.399399
11.955936 5.4257927 7.4889007 0 0 0 0 26.404346
12.953276 6.6123991 7.9227638 0 0 0 0 26.409294
13.497659 7.6581159 8.0600681 0 0 0 0 26.414242
11.424219 4.7901073 7.406002 0 0 0 0 26.419186
11.832939 5.6934338 7.4743433 0 0 0 0 26.424133
12.818428 6.9150815 7.9262567 0 0 0 0 26.429081
13.341918 7.9858747 8.077611 0 0 0 0 26.434029
11.348231 5.0545397 7.4043803 0 0 0 0 26.438976
11.666826 5.941267 7.4358206 0 0 0 0 26.44392
12.678569 7.2157788 7.9317517 0 0 0 0 26.448868
13.107904 8.2619858 8.0512028 0 0 0 0 26.453815
11.299327 5.3348436 7.422739 0 0 0 0 26.458763
12.115525 6.5152617 7.7958293 0 0 0 0 26.463711
12.514643 7.5045795 7.9272652 0 0 0 0 26.468658
12.890944 8.5470076 8.0407791 0 0 0 0 26.473602
11.225374 5.6092596 7.4271235 0 0 0 0 26.47855
12.003631 6.8068352 7.8032784 0 0 0 0 26.483498
12.322631 7.7785029 7.9077983 0 0 0 0 26.488445
12.66996 8.828043 8.0303555 0 0 0 0 26.493393
11.159451 5.8886309 7.443501 0 0 0 0 26.498341
11.873692 7.0904841 7.8047414 0 0 0 0 26.503284
12.185796 8.085165 7.9282913 0 0 0 0 26.508232
12.456995 9.112031 8.0299225 0 0 0 0 26.51318
11.032356 6.138279 7.4229264 0 0 0 0 26.518127
11.723696 7.3652205 7.7952194 0 0 0 0 26.523075
11.992767 8.3550758 7.917819 0 0 0 0 26.528023
12.207899 9.3711767 8.0085106 0 0 0 0 26.532967
10.907274 6.3909121 7.4063511 0 0 0 0 26.537914
11.588753 7.6498795 7.8006873 0 0 0 0 26.542862
11.796741 8.6259937 7.9083495 0 0 0 0 26.54781
11.971835 9.635253 8.0020847 0 0 0 0 26.552757
11.306941 6.9701271 7.754427 0 0 0 0 26.557701
11.428731 7.9196463 7.7941713 0 0 0 0 26.562649
11.6007 8.8939028 7.9038768 0 0 0 0 26.567596
11.714687 9.8834181 7.9826674 0 0 0 0 26.572544
11.160864 7.2288456 7.7358823 0 0 0 0 26.577492
11.27675 8.1983681 7.7976527 0 0 0 0 26.582439
11.392621 9.1538582 7.8964086 0 0 0 0 26.587383
11.440438 10.109653 7.9562497 0 0 0 0 26.592331
11.051927 7.5143871 7.7473154 0 0 0 0 26.597279
11.096666 8.4572124 7.7861481 0 0 0 0 26.602226
