# .PCD v0.7 - Point Cloud Data file format
VERSION 0.7
FIELDS x y z normal_x normal_y normal_z intensity curvature
SIZE 4 4 4 4 4 4 4 4
TYPE F F F F F F F F
COUNT 1 1 1 1 1 1 1 1
WIDTH 978
HEIGHT 1
VIEWPOINT 0 0 0 1 0 0 0
POINTS 978
DATA ascii
-3.8471346 -0.53477263 4.865005 0 0 0 0 23.18244
-0.50060284 -0.081520446 0.45864516 0 0 0 0 23.187386
-0.51274616 -0.083436735 0.51662511 0 0 0 0 23.192333
-3.8326976 -0.61394095 4.8630672 0 0 0 0 23.202227
-0.51583719 -0.095421657 0.52264726 0 0 0 0 23.212122
-3.8092217 -0.69217539 4.8481493 0 0 0 0 23.222015
-0.54092401 -0.1142373 0.50261116 0 0 0 0 23.226963
-0.51893538 -0.10840666 0.52866918 0 0 0 0 23.231909
-3.8018229 -0.77329135 4.8581939 0 0 0 0 23.241804
-0.54603386 -0.12820779 0.51062852 0 0 0 0 23.24675
-0.537099 -0.12528077 0.55065668 0 0 0 0 23.251698
-3.7793567 -0.8515178 4.8492732 0 0 0 0 23.261591
-0.56621647 -0.14706761 0.53461128 0 0 0 0 23.266539
-4.4283204 -1.1486919 4.7337937 0 0 0 0 23.271484
-4.096611 -1.0411885 4.7835636 0 0 0 0 23.276432
-3.7548811 -0.92875856 4.8403559 0 0 0 0 23.28138
-4.7337337 -1.3614593 4.6641092 0 0 0 0 23.286325
-4.3839598 -1.2440886 4.7179208 0 0 0 0 23.291273
-4.0642071 -1.1284924 4.7746639 0 0 0 0 23.296221
-3.7384529 -1.0089401 4.8434205 0 0 0 0 23.301167
-4.6884794 -1.4688673 4.6572375 0 0 0 0 23.306114
-4.3536572 -1.3423814 4.7190151 0 0 0 0 23.311062
-4.0428452 -1.2177147 4.7787385 0 0 0 0 23.316008
-3.7119639 -1.0851945 4.8335075 0 0 0 0 23.320955
-4.6407108 -1.5734398 4.6499233 0 0 0 0 23.075449
-4.3158088 -1.4379268 4.714684 0 0 0 0 23.080397
-4.010901 -1.3032594 4.7733984 0 0 0 0 23.085342
-3.6879342 -1.1617267 4.829155 0 0 0 0 23.09029
-4.6015029 -1.6818082 4.6550398 0 0 0 0 23.095238
-4.2784996 -1.5342759 4.714797 0 0 0 0 23.100183
-3.9755037 -1.3895893 4.7675076 0 0 0 0 23.105131
-3.6674981 -1.2399397 4.8322296 0 0 0 0 23.110079
-4.5532441 -1.7862434 4.6521769 0 0 0 0 23.115025
-4.2321405 -1.6266917 4.7069297 0 0 0 0 23.119972
-3.94613 -1.4768734 4.7696018 0 0 0 0 23.12492
-3.6339958 -1.3142494 4.8203344 0 0 0 0 23.129866
-4.4919076 -1.8837751 4.6393437 0 0 0 0 23.134813
-4.1938257 -1.7220466 4.7100439 0 0 0 0 23.139761
-3.9066939 -1.5592318 4.7617197 0 0 0 0 23.144707
-3.6155767 -1.3934466 4.8294039 0 0 0 0 23.149654
-4.4406452 -1.9872304 4.6404862 0 0 0 0 23.154602
-4.1524897 -1.815423 4.7111645 0 0 0 0 23.159548
-3.8702867 -1.6435668 4.760829 0 0 0 0 23.164495
-3.5830872 -1.4687476 4.8215055 0 0 0 0 23.169443
-2.2222819 -1.0557568 2.3396354 0 0 0 0 23.174389
-4.1011052 -1.9048733 4.705308 0 0 0 0 23.179337
-3.8379056 -1.7298714 4.7659292 0 0 0 0 23.184284
-3.5566261 -1.5450033 4.8235927 0 0 0 0 23.18923
-2.1956446 -1.1069912 2.3427231 0 0 0 0 23.194178
-2.2411637 -1.1016822 2.5916286 0 0 0 0 23.199123
-2.2977574 -1.0962938 2.8735092 0 0 0 0 23.204071
-3.5231318 -1.6193105 4.8186955 0 0 0 0 23.209019
-2.1569242 -1.1513143 2.3328388 0 0 0 0 23.213964
-2.2034361 -1.1459982 2.5787418 0 0 0 0 23.218912
-2.2710814 -1.1445292 2.8705971 0 0 0 0 23.22386
-2.357924 -1.1439258 3.2464092 0 0 0 0 23.228806
-2.1161878 -1.1936512 2.3229587 0 0 0 0 23.233753
-2.1606686 -1.1863506 2.5618668 0 0 0 0 23.238701
-2.235352 -1.1888307 2.8577058 0 0 0 0 23.243647
-2.3121014 -1.182302 3.2125411 0 0 0 0 23.248594
-2.0814867 -1.2389426 2.3190641 0 0 0 0 23.253542
-2.1289761 -1.2326206 2.5589654 0 0 0 0 23.258488
-2.1925638 -1.2281828 2.8358307 0 0 0 0 23.263435
-2.2743297 -1.2236183 3.1916544 0 0 0 0 23.268383
-2.0467885 -1.2842335 2.3171697 0 0 0 0 23.273329
-2.0912392 -1.2749342 2.5500782 0 0 0 0 23.278276
-2.1558175 -1.2704897 2.8229411 0 0 0 0 23.283224
-2.2355471 -1.2639409 3.1697698 0 0 0 0 23.28817
-2.0080526 -1.3255529 2.312284 0 0 0 0 23.293118
-2.0514746 -1.3142616 2.5391953 0 0 0 0 23.298065
-2.1210811 -1.3127812 2.8150463 0 0 0 0 23.303011
-2.1967659 -1.3042626 3.1488848 0 0 0 0 23.307959
-1.9703301 -1.3678643 2.3103962 0 0 0 0 23.312904
-2.014745 -1.3565661 2.5343051 0 0 0 0 23.317852
-2.0802963 -1.3511158 2.7991657 0 0 0 0 23.3228
-2.1549525 -1.3416052 3.1240065 0 0 0 0 23.327745
-1.9346184 -1.41116 2.310503 0 0 0 0 23.332693
-1.9789991 -1.3968621 2.5294123 0 0 0 0 23.337641
-2.0445483 -1.3924127 2.7902732 0 0 0 0 23.342587
-2.1201949 -1.3828958 3.1111119 0 0 0 0 23.347534
-1.9004017 -1.4552612 2.3151321 0 0 0 0 23.352482
-1.9417168 -1.438959 2.5270538 0 0 0 0 23.357428
-2.0112193 -1.4344497 2.7869172 0 0 0 0 23.362375
-2.0817533 -1.4209319 3.0937786 0 0 0 0 23.367323
-1.8646808 -1.4975512 2.3182411 0 0 0 0 23.372269
-1.9079932 -1.4812351 2.5291586 0 0 0 0 23.377216
-1.9714385 -1.4727714 2.7760348 0 0 0 0 23.382164
-2.0469956 -1.4622182 3.0838859 0 0 0 0 23.38711
-1.8299742 -1.5408328 2.3253477 0 0 0 0 23.392057
-1.8732663 -1.5235176 2.5302651 0 0 0 0 23.397005
-1.9336631 -1.5110774 2.7681477 0 0 0 0 23.401951
-2.0071819 -1.4985405 3.0650029 0 0 0 0 23.406898
-1.7952738 -1.5851135 2.3324537 0 0 0 0 23.411846
-1.8355051 -1.5618215 2.5293777 0 0 0 0 23.416792
-1.898921 -1.5523602 2.7662539 0 0 0 0 23.42174
-1.9754422 -1.5408026 3.0611033 0 0 0 0 23.426685
-1.7555182 -1.62343 2.3345699 0 0 0 0 23.431633
-1.8068373 -1.6090578 2.5424714 0 0 0 0 23.436581
-1.8661913 -1.5946274 2.7673559 0 0 0 0 23.441526
-1.9416877 -1.5820786 3.0542076 0 0 0 0 23.446474
-1.7238351 -1.6686867 2.3476694 0 0 0 0 23.451422
-1.771106 -1.650345 2.5465791 0 0 0 0 23.456367
-1.8304439 -1.6349155 2.7674639 0 0 0 0 23.461315
-1.9028836 -1.6183904 3.041322 0 0 0 0 23.466263
-1.690153 -1.7139572 2.3617725 0 0 0 0 23.471209
-1.7384079 -1.694609 2.5566802 0 0 0 0 23.476156
-1.7967161 -1.6771882 2.7705674 0 0 0 0 23.481104
-1.8681222 -1.6586719 3.0354276 0 0 0 0 23.48605
-1.6554621 -1.758234 2.3758776 0 0 0 0 23.490997
-1.7057104 -1.7388723 2.5677812 0 0 0 0 23.495945
-1.7619801 -1.718467 2.7736726 0 0 0 0 23.500891
-1.8353864 -1.7009375 3.0355289 0 0 0 0 23.505838
-1.6228001 -1.8054954 2.3939784 0 0 0 0 23.510786
-1.6709952 -1.7811491 2.5778861 0 0 0 0 23.515732
-1.7312881 -1.7637159 2.7847693 0 0 0 0 23.520679
-1.803663 -1.744195 3.0386279 0 0 0 0 23.525627
-1.5881296 -1.8517704 2.4120827 0 0 0 0 23.530573
-1.6362925 -1.8244251 2.5909905 0 0 0 0 23.535521
-1.6955539 -1.8050003 2.7898762 0 0 0 0 23.540468
-1.7638592 -1.7805099 3.0277429 0 0 0 0 23.545414
-1.5474827 -1.8915799 2.4238729 0 0 0 0 23.979033
-1.6006739 -1.8682193 2.6047745 0 0 0 0 23.98398
-1.6589009 -1.8468245 2.7966664 0 0 0 0 23.988926
-1.7322282 -1.8263265 3.0355279 0 0 0 0 23.993874
-1.5158409 -1.941823 2.4509676 0 0 0 0 23.998821
-1.5669863 -1.914477 2.6228733 0 0 0 0 24.003767
-1.6251781 -1.8900832 2.8077652 0 0 0 0 24.008715
-1.6994929 -1.8695794 3.0406251 0 0 0 0 24.01366
-1.476112 -1.9831206 2.4660778 0 0 0 0 24.018608
-1.5302777 -1.9587545 2.6379776 0 0 0 0 24.023556
-1.5924828 -1.936334 2.8228617 0 0 0 0 24.028502
-1.6637368 -1.9108522 3.0427279 0 0 0 0 24.033449
-1.4424764 -2.0343754 2.4941757 0 0 0 0 24.038397
-1.4955934 -2.0050175 2.6590779 0 0 0 0 24.043343
-1.5577685 -1.9805979 2.8359621 0 0 0 0 24.04829
-1.6269727 -1.9511309 3.0448322 0 0 0 0 24.053238
-1.4047991 -2.0806572 2.5192811 0 0 0 0 24.058184
-1.459897 -2.0502863 2.6781795 0 0 0 0 24.063131
-1.5210531 -2.0248747 2.849066 0 0 0 0 24.068079
-1.5942774 -1.9983811 3.0579283 0 0 0 0 24.073025
-1.3681471 -2.1299314 2.5473843 0 0 0 0 24.077972
-1.4211947 -2.0945752 2.698287 0 0 0 0 24.08292
-1.4853423 -2.0691435 2.8651674 0 0 0 0 24.087866
-1.5595504 -2.0426443 3.0660284 0 0 0 0 24.092813
-1.3304974 -2.1792114 2.5774891 0 0 0 0 24.097761
-1.3875477 -2.1448283 2.7263839 0 0 0 0 24.102707
-1.4547155 -2.1223772 2.8932588 0 0 0 0 24.107655
-1.5228152 -2.0859201 3.074132 0 0 0 0 24.112602
-1.2949014 -2.2344768 2.6145895 0 0 0 0 24.117548
-1.3539473 -2.2000809 2.7614806 0 0 0 0 24.122496
-1.4119475 -2.1606922 2.9023738 0 0 0 0 24.127441
-1.4860986 -2.1311951 3.0852349 0 0 0 0 24.132389
-1.2572986 -2.2887547 2.6526937 0 0 0 0 24.137337
-1.3183366 -2.2543461 2.7955809 0 0 0 0 24.142282
-1.3803549 -2.217931 2.9354663 0 0 0 0 24.14723
-1.4483652 -2.1744759 3.0953398 0 0 0 0 24.152178
-1.2186856 -2.3420389 2.6897993 0 0 0 0 24.157124
-1.2806978 -2.305624 2.826685 0 0 0 0 24.162071
-1.3426713 -2.2652099 2.9575703 0 0 0 0 24.167019
-1.4096501 -2.2197628 3.1084464 0 0 0 0 24.171965
-1.1821645 -2.4053085 2.7399006 0 0 0 0 24.176912
-1.2379985 -2.3499355 2.8517985 0 0 0 0 24.18186
-1.3040143 -2.3154948 2.9836762 0 0 0 0 24.186806
-1.3719444 -2.2660418 3.1235507 0 0 0 0 24.191753
-1.1426066 -2.4645972 2.7860074 0 0 0 0 24.196701
-1.2024522 -2.4111979 2.8968976 0 0 0 0 24.201647
-1.2684038 -2.3707583 3.0167756 0 0 0 0 24.206594
-1.335287 -2.3173127 3.1466525 0 0 0 0 24.211542
-1.1010488 -2.5238988 2.8331177 0 0 0 0 24.216488
-1.1649148 -2.4734733 2.9440002 0 0 0 0 24.221436
-1.228776 -2.4240479 3.0488827 0 0 0 0 24.226383
-1.2976261 -2.3685899 3.1687558 0 0 0 0 24.231329
-1.0595282 -2.5871997 2.8862278 0 0 0 0 24.236277
-1.1233215 -2.5297747 2.9841106 0 0 0 0 24.241222
-1.1891749 -2.4803367 3.0849893 0 0 0 0 24.24617
-1.2610241 -2.4258592 3.2008567 0 0 0 0 24.251118
-1.018051 -2.6554992 2.9453371 0 0 0 0 24.256063
-1.0817584 -2.5890753 3.0302203 0 0 0 0 24.261011
-1.1485634 -2.5356314 3.1200976 0 0 0 0 24.265959
-1.2193429 -2.4751613 3.2209673 0 0 0 0 24.270905
-0.97354096 -2.7198184 3.0024521 0 0 0 0 24.275852
-1.0412735 -2.6573682 3.0863276 0 0 0 0 24.2808
-1.1069782 -2.5939317 3.1592076 0 0 0 0 24.285746
-1.1807462 -2.5334423 3.2540712 0 0 0 0 24.290693
-0.92809159 -2.7911429 3.0675685 0 0 0 0 24.295641
-0.99775398 -2.7216802 3.1394405 0 0 0 0 24.300587
-1.0644039 -2.6532378 3.2013185 0 0 0 0 24.305534
-1.1381305 -2.5897491 3.285183 0 0 0 0 24.310482
-0.88165927 -2.8644733 3.1356862 0 0 0 0 24.315428
-0.95120656 -2.7830114 3.189559 0 0 0 0 24.320375
-1.0218836 -2.7185428 3.2514293 0 0 0 0 24.325323
-1.0944982 -2.6440618 3.3152964 0 0 0 0 24.330269
-0.83119416 -2.9338293 3.2018113 0 0 0 0 24.335217
-0.90578395 -2.8583348 3.2566745 0 0 0 0 24.340164
-0.97735286 -2.7828603 3.3005435 0 0 0 0 24.34511
-1.0519454 -2.7073665 3.3564069 0 0 0 0 24.350058
-0.78185141 -3.0171778 3.2839336 0 0 0 0 24.355003
-0.85729212 -2.9256771 3.3167956 0 0 0 0 24.359951
-0.92880094 -2.8452034 3.3466651 0 0 0 0 24.364899
-1.0094254 -2.7746704 3.4015169 0 0 0 0 24.369844
-0.72951007 -3.1005452 3.3680615 0 0 0 0 24.374792
-0.80891395 -3.0060184 3.391916 0 0 0 0 24.37974
-0.88543075 -2.9275122 3.418776 0 0 0 0 24.384686
-0.96185189 -2.8360064 3.4406366 0 0 0 0 24.389633
-0.67520434 -3.1879244 3.4581923 0 0 0 0 24.394581
-0.75649893 -3.0823853 3.4630439 0 0 0 0 24.399527
-0.83494931 -2.9978664 3.4759007 0 0 0 0 24.404474
-0.9153682 -2.9073348 3.4927535 0 0 0 0 24.409422
-0.61790836 -3.2763226 3.5513287 0 0 0 0 24.414368
-0.7041837 -3.1697512 3.5491707 0 0 0 0 24.419315
-0.78246117 -3.0672326 3.5340283 0 0 0 0 24.424263
-0.86482906 -2.9726884 3.5378778 0 0 0 0 24.429209
-0.55765635 -3.3697395 3.6514699 0 0 0 0 24.434156
-0.64682955 -3.2531488 3.6303067 0 0 0 0 24.439104
-0.73216861 -3.1585848 3.6191509 0 0 0 0 24.44405
-0.81537926 -3.0480347 3.5959997 0 0 0 0 24.448997
-0.49631223 -3.4710312 3.7622821 0 0 0 0 24.204615
-0.59144199 -3.3533864 3.7321024 0 0 0 0 24.209562
-0.676552 -3.2368093 3.687943 0 0 0 0 24.21451
-0.76166779 -3.1192331 3.6497836 0 0 0 0 24.219456
-0.43122259 -3.5804875 3.883435 0 0 0 0 24.224403
-0.53017861 -3.4448166 3.8262486 0 0 0 0 24.229351
-0.61923724 -3.3242135 3.7690818 0 0 0 0 24.234297
-0.70832789 -3.205611 3.7209148 0 0 0 0 24.239244
-0.36220512 -3.6979697 4.015595 0 0 0 0 24.244192
-0.46495804 -3.5412726 3.9264016 0 0 0 0 24.249138
-0.55792379 -3.4116433 3.8522277 0 0 0 0 24.254086
-0.65094185 -3.2870147 3.7870536 0 0 0 0 24.259033
-0.28918985 -3.8154769 4.1507621 0 0 0 0 24.263979
-0.39892673 -3.6587338 4.0525556 0 0 0 0 24.268927
-0.49569649 -3.5090785 3.9463747 0 0 0 0 24.273872
-0.59060085 -3.3734374 3.8601973 0 0 0 0 24.27882
-0.21024624 -3.9410231 4.2969398 0 0 0 0 24.283768
-0.32685038 -3.771234 4.1747208 0 0 0 0 24.288713
-0.42955688 -3.616539 4.0525284 0 0 0 0 24.293661
-0.52937371 -3.4728651 3.9483421 0 0 0 0 24.298609
-0.12844706 -4.0825882 4.4641228 0 0 0 0 24.303555
-0.25180906 -3.8877525 4.3028908 0 0 0 0 24.308502
-0.36051506 -3.7350183 4.1726875 0 0 0 0 24.31345
-0.46411768 -3.5693183 4.033494 0 0 0 0 24.318396
-0.040770363 -4.2381911 4.6483159 0 0 0 0 24.323343
-0.1719362 -4.0233035 4.4540696 0 0 0 0 24.328291
-0.28540245 -3.8455362 4.2858577 0 0 0 0 24.333237
-0.39495099 -3.6757967 4.1316533 0 0 0 0 24.338184
0.054892831 -4.394846 4.8385239 0 0 0 0 24.343132
-0.086258739 -4.1808925 4.6322584 0 0 0 0 24.348078
-0.20743887 -3.9730725 4.4190321 0 0 0 0 24.353025
-0.32286254 -3.7912939 4.2408171 0 0 0 0 24.357973
0.15831462 -4.5785522 5.0627451 0 0 0 0 24.362919
0.0045318101 -4.3255124 4.7994566 0 0 0 0 24.367867
-0.12361693 -4.1166472 4.572217 0 0 0 0 24.372814
-0.24576198 -3.9058228 4.34899 0 0 0 0 24.37776
0.26266325 -4.6572561 5.1729693 0 0 0 0 24.382708
0.10212798 -4.4921784 4.9936662 0 0 0 0 24.387653
-0.035783846 -4.2592468 4.725409 0 0 0 0 24.392601
-0.16385667 -4.0423832 4.4841714 0 0 0 0 24.397549
0.3637886 -4.6469302 5.189189 0 0 0 0 24.402494
0.20790108 -4.6388946 5.167892 0 0 0 0 24.407442
0.059979178 -4.4098973 4.8896155 0 0 0 0 24.41239
-0.075919509 -4.1759815 4.6153636 0 0 0 0 24.417336
0.4658947 -4.6386089 5.2084098 0 0 0 0 24.422283
0.30890563 -4.6455674 5.1881108 0 0 0 0 24.427231
0.1643479 -4.6056066 5.1058364 0 0 0 0 24.432177
0.015821848 -4.3316045 4.7745614 0 0 0 0 24.437124
0.56508434 -4.6202645 5.2186246 0 0 0 0 24.442072
0.41191125 -4.6512508 5.2113323 0 0 0 0 24.447018
0.26984879 -4.6723118 5.1810622 0 0 0 0 24.451965
0.11657842 -4.4862852 4.931776 0 0 0 0 24.456913
0.66523159 -4.6059241 5.2368412 0 0 0 0 24.461859
0.5130747 -4.6389194 5.214551 0 0 0 0 24.466806
0.37385249 -4.6810002 5.1952858 0 0 0 0 24.471754
0.22601065 -4.6780233 5.1330051 0 0 0 0 24.4767
0.76438326 -4.5905752 5.2560549 0 0 0 0 24.481647
0.61514294 -4.636591 5.23277 0 0 0 0 24.486595
0.47886306 -4.688693 5.2095108 0 0 0 0 24.491541
0.33557868 -4.7397504 5.1922379 0 0 0 0 24.496489
0.86357522 -4.5702233 5.2712684 0 0 0 0 24.501434
0.71723098 -4.6312604 5.2509894 0 0 0 0 24.506382
0.58291066 -4.6913767 5.2217336 0 0 0 0 24.51133
0.44355187 -4.7544618 5.2024684 0 0 0 0 24.516275
0.96176952 -4.5488625 5.2884798 0 0 0 0 24.521223
0.81837839 -4.6189203 5.2622061 0 0 0 0 24.526171
0.68894601 -4.6950712 5.2369595 0 0 0 0 24.531116
0.55246878 -4.7751765 5.2216992 0 0 0 0 24.536064
1.0589679 -4.5264931 5.3066883 0 0 0 0 24.541012
0.92050278 -4.6085849 5.2784243 0 0 0 0 24.545958
0.79593146 -4.7037692 5.2611866 0 0 0 0 24.550905
0.66342288 -4.7909017 5.2389336 0 0 0 0 24.555853
1.1532506 -4.494101 5.3148918 0 0 0 0 24.560799
1.0226296 -4.5972462 5.2966418 0 0 0 0 24.565746
0.90204221 -4.6974578 5.2714114 0 0 0 0 24.570694
0.77445817 -4.7966242 5.2481685 0 0 0 0 24.57564
1.2514092 -4.4747329 5.3431015 0 0 0 0 24.580587
1.1237863 -4.5818987 5.3128572 0 0 0 0 24.585535
1.0091066 -4.6961503 5.2886381 0 0 0 0 24.590481
0.88936782 -4.81637 5.2754092 0 0 0 0 24.595428
1.3456658 -4.4443359 5.3573031 0 0 0 0 24.600376
1.2259305 -4.567555 5.3320742 0 0 0 0 24.605322
1.117174 -4.6938462 5.3078661 0 0 0 0 24.61027
1.0004803 -4.8120866 5.2786427 0 0 0 0 24.615215
1.439931 -4.4119368 5.3735051 0 0 0 0 24.620163
1.3212781 -4.5291629 5.3262782 0 0 0 0 24.625111
1.2088414 -4.621428 5.2510643 0 0 0 0 24.630058
1.0904213 -4.7106552 5.1778393 0 0 0 0 24.635004
1.5283254 -4.3644962 5.3726954 0 0 0 0 24.639952
1.4029638 -4.4516764 5.2754574 0 0 0 0 24.644897
1.2916515 -4.5319481 5.1762462 0 0 0 0 24.649845
1.1792779 -4.6182151 5.0890326 0 0 0 0 24.654793
1.6137565 -4.3120337 5.3688807 0 0 0 0 24.659739
1.4846098 -4.3781881 5.2306361 0 0 0 0 24.664686
1.3773274 -4.4574862 5.1194329 0 0 0 0 24.669634
1.2670404 -4.5357661 5.0142236 0 0 0 0 24.67458
1.6868057 -4.231411 5.3291316 0 0 0 0 24.770199
1.5743849 -4.3316836 5.2219181 0 0 0 0 24.775146
1.4603891 -4.3809419 5.0627046 0 0 0 0 24.780094
1.3619037 -4.4853063 4.9765177 0 0 0 0 24.78504
1.7613937 -4.1598678 5.3032951 0 0 0 0 24.789988
1.6647549 -4.2882442 5.2171106 0 0 0 0 24.794933
1.5498729 -4.3264966 5.0348959 0 0 0 0 24.799881
1.441774 -4.3877954 4.8896933 0 0 0 0 24.804829
1.8369344 -4.0933294 5.2844605 0 0 0 0 24.809776
1.7266855 -4.179615 5.1342525 0 0 0 0 24.814722
1.6794084 -4.3823137 5.137157 0 0 0 0 24.81967
1.542053 -4.3594189 4.8819041 0 0 0 0 24.824615
1.9094779 -4.0257702 5.2666197 0 0 0 0 24.829563
1.7954099 -4.0940294 5.0814056 0 0 0 0 24.834511
1.870735 -4.5785346 5.4095268 0 0 0 0 24.839457
1.8194213 -4.7922082 5.3974233 0 0 0 0 24.844404
1.9849418 -3.9672279 5.2597842 0 0 0 0 24.849352
1.8699926 -4.0244808 5.0485692 0 0 0 0 24.854298
1.8112482 -4.1691012 4.9664555 0 0 0 0 24.859245
1.943451 -4.7919779 5.430675 0 0 0 0 24.864193
2.0564349 -3.9046586 5.2499409 0 0 0 0 24.869139
1.9504186 -3.9719696 5.0407424 0 0 0 0 24.874086
1.8849438 -4.0875435 4.9136171 0 0 0 0 24.879034
2.057729 -4.7616806 5.432909 0 0 0 0 24.88398
2.126941 -3.840081 5.2390957 0 0 0 0 24.888927
2.0259044 -3.9124236 5.0239062 0 0 0 0 24.893875
1.9575922 -4.0109782 4.8677764 0 0 0 0 24.898821
2.2033277 -3.7885399 5.2472601 0 0 0 0 24.908714
2.0964639 -3.8438442 4.9970613 0 0 0 0 24.913662
2.0292268 -3.9354045 4.824934 0 0 0 0 24.91861
2.2698512 -3.7209334 5.2354074 0 0 0 0 24.928503
2.1630526 -3.7712374 4.9672089 0 0 0 0 24.933451
2.106735 -3.8738675 4.8011012 0 0 0 0 24.938396
2.3720987 -4.6025858 5.379559 0 0 0 0 24.943344
2.3264885 -3.6402614 5.2055364 0 0 0 0 24.948292
2.2404711 -3.7176991 4.9633751 0 0 0 0 24.953238
2.1901407 -3.8233671 4.7942791 0 0 0 0 24.958185
2.3988793 -3.5866899 5.215693 0 0 0 0 24.968079
2.3188479 -3.6681654 4.9675431 0 0 0 0 24.973026
2.2903106 -3.7999723 4.8224854 0 0 0 0 24.977974
2.4702749 -3.5321105 5.2258482 0 0 0 0 24.987867
2.3893287 -3.6065791 4.9556966 0 0 0 0 24.992815
2.5564766 -3.4986246 5.2690287 0 0 0 0 25.007656
2.4933736 -3.5932062 5.0159092 0 0 0 0 25.012602
2.6575074 -3.4832313 5.3432355 0 0 0 0 25.027443
2.8770385 -3.9616215 5.619616 0 0 0 0 25.032391
2.7022071 -3.3934753 5.3053422 0 0 0 0 25.047232
2.9644506 -3.9041328 5.6327987 0 0 0 0 25.052177
2.7498326 -3.3117375 5.2794533 0 0 0 0 25.067019
3.0607634 -3.8576987 5.6619968 0 0 0 0 25.071966
2.8073504 -3.2410614 5.2735825 0 0 0 0 25.086807
3.1462157 -3.7941928 5.6721749 0 0 0 0 25.091755
2.8796813 -3.1904783 5.3007369 0 0 0 0 25.106596
3.2286844 -3.7286661 5.679348 0 0 0 0 25.111542
2.9480631 -3.1338685 5.3198848 0 0 0 0 25.126383
2.9319165 -3.2447393 5.0378504 0 0 0 0 25.13133
3.0184121 -3.0802696 5.3460355 0 0 0 0 25.146172
2.9855046 -3.1660326 5.017972 0 0 0 0 25.151119
3.0857997 -3.0216501 5.3671808 0 0 0 0 25.165958
3.043047 -3.0923493 5.0051007 0 0 0 0 25.170906
3.1492038 -2.9610043 5.3853192 0 0 0 0 25.185747
3.1154535 -3.032758 5.0182552 0 0 0 0 25.190695
3.2225261 -2.9084191 5.4204745 0 0 0 0 25.205536
3.1809006 -2.9681218 5.0253973 0 0 0 0 25.210482
3.2918868 -2.8508072 5.450623 0 0 0 0 25.225323
3.255285 -2.9095397 5.0455546 0 0 0 0 25.23027
3.771178 -3.452723 5.4964604 0 0 0 0 25.235218
3.354501 -2.7886343 5.4725475 0 0 0 0 24.993198
3.3457415 -2.8655431 5.0935297 0 0 0 0 24.998146
3.414932 -2.7239735 5.4916811 0 0 0 0 25.012987
3.4538693 -2.8331842 5.1677499 0 0 0 0 25.017935
3.4932306 -2.6714251 5.5408463 0 0 0 0 25.032776
3.9689288 -3.1164069 5.8417048 0 0 0 0 25.037722
3.6181867 -2.6521709 5.663096 0 0 0 0 25.052563
4.0464292 -3.0408428 5.8618679 0 0 0 0 25.05751
3.6637361 -2.5734107 5.6632018 0 0 0 0 25.072351
4.1159902 -2.9582262 5.8720169 0 0 0 0 25.077299
3.7251751 -2.5047498 5.6883364 0 0 0 0 25.09214
4.1905112 -2.8786397 5.8921742 0 0 0 0 25.097086
3.7915676 -2.4401188 5.7244797 0 0 0 0 25.111927
4.2859025 -2.8111825 5.94137 0 0 0 0 25.116875
3.8679059 -2.3795488 5.7756405 0 0 0 0 25.131716
3.8685493 -2.4225018 5.2906418 0 0 0 0 25.136662
3.9382823 -2.3149395 5.8187904 0 0 0 0 25.151503
3.9141428 -2.336735 5.2857475 0 0 0 0 25.15645
4.0106497 -2.2503412 5.8659444 0 0 0 0 25.171291
3.9905519 -2.2681599 5.3229089 0 0 0 0 25.176239
4.0780497 -2.18171 5.9080887 0 0 0 0 25.19108
4.069942 -2.2006016 5.3660755 0 0 0 0 25.196026
4.3968639 -2.3905888 5.3316641 0 0 0 0 25.200974
4.1404915 -2.1080463 5.9432244 0 0 0 0 25.210867
4.1503296 -2.1320477 5.4132438 0 0 0 0 25.215815
4.330153 -2.2321141 5.1855683 0 0 0 0 25.22076
4.4313426 -2.2926929 4.888752 0 0 0 0 25.225708
4.1899977 -2.0283008 5.9623365 0 0 0 0 25.230656
4.2416792 -2.0655599 5.4734316 0 0 0 0 25.235603
4.3618894 -2.1272521 5.1616492 0 0 0 0 25.240549
4.3815298 -2.1413238 4.771687 0 0 0 0 25.245497
4.2405 -1.9485599 5.9824505 0 0 0 0 25.250443
4.320096 -1.9919899 5.5195956 0 0 0 0 25.25539
4.4334173 -2.0416358 5.1868014 0 0 0 0 25.260338
4.4590707 -2.0537429 4.7958508 0 0 0 0 25.265284
4.2870164 -1.8667935 6.0005574 0 0 0 0 25.270231
4.3885756 -1.9113563 5.5537419 0 0 0 0 25.275179
4.4920096 -1.9489381 5.1989307 0 0 0 0 25.280125
4.5644913 -1.9763318 4.8510637 0 0 0 0 25.285072
4.3275676 -1.7809889 6.0116539 0 0 0 0 25.29002
4.5028338 -1.849004 5.6479702 0 0 0 0 25.294966
4.4948487 -1.8328955 5.15096 0 0 0 0 25.299913
4.6520081 -1.8878084 4.889245 0 0 0 0 25.304861
4.3750725 -1.6992267 6.033762 0 0 0 0 25.309807
4.5763063 -1.7663977 5.6911259 0 0 0 0 25.314754
4.5972381 -1.7564653 5.2181673 0 0 0 0 25.319702
4.6100645 -1.7484885 4.7961946 0 0 0 0 25.324648
4.4096384 -1.6113836 6.0408478 0 0 0 0 25.329596
4.6836367 -1.6939976 5.7773414 0 0 0 0 25.334541
4.6946573 -1.676002 5.2813654 0 0 0 0 25.339489
4.6806407 -1.6528589 4.8223453 0 0 0 0 25.344437
4.443203 -1.5235337 6.0479312 0 0 0 0 25.349384
4.7800221 -1.6155281 5.8525376 0 0 0 0 25.35433
4.8080263 -1.5976343 5.3645926 0 0 0 0 25.359278
4.8458586 -1.5868062 4.9476652 0 0 0 0 25.364223
4.4817424 -1.4367136 6.064024 0 0 0 0 25.369171
4.871449 -1.5320257 5.9207249 0 0 0 0 25.374119
4.9114556 -1.512203 5.4368014 0 0 0 0 25.379065
4.9553237 -1.4964091 5.0158849 0 0 0 0 25.384012
4.5172911 -1.3488743 6.0771112 0 0 0 0 25.38896
4.9718466 -1.4485763 6.0039277 0 0 0 0 25.393906
5.0109167 -1.4217452 5.5070038 0 0 0 0 25.398853
5.0618048 -1.4029915 5.0840998 0 0 0 0 25.403801
4.5458698 -1.2579917 6.0821862 0 0 0 0 25.408747
5.0593138 -1.3580456 6.0711079 0 0 0 0 25.413694
5.1183696 -1.3293334 5.5872197 0 0 0 0 25.418642
5.1722965 -1.305596 5.1583219 0 0 0 0 25.423588
4.583405 -1.170163 6.1002774 0 0 0 0 25.428535
5.135828 -1.262446 6.1272683 0 0 0 0 25.433483
5.2308121 -1.2359498 5.6754446 0 0 0 0 25.438429
5.3017421 -1.2093126 5.2535772 0 0 0 0 25.443377
4.6149654 -1.0792975 6.113358 0 0 0 0 25.448322
5.1904254 -1.159712 6.15939 0 0 0 0 25.45327
5.3153667 -1.1323944 5.7336197 0 0 0 0 25.458218
5.3674054 -1.0946404 5.2867198 0 0 0 0 25.463165
4.643528 -0.98707497 6.1238146 0 0 0 0 25.9597
5.2440643 -1.0524389 6.1918488 0 0 0 0 25.964645
5.4517746 -1.0335407 5.8502131 0 0 0 0 25.969593
5.5058193 -0.98976433 5.3933144 0 0 0 0 25.974541
4.6710639 -0.89517534 6.1348891 0 0 0 0 25.979486
5.2747068 -0.94254798 6.1999292 0 0 0 0 25.984434
5.5343337 -0.92194402 5.9113832 0 0 0 0 25.989382
5.6841807 -0.8867135 5.5416489 0 0 0 0 25.994328
4.6956062 -0.80225796 6.1439586 0 0 0 0 25.999275
5.3163071 -0.83471978 6.2240286 0 0 0 0 26.004223
5.6797318 -0.81770557 6.0416603 0 0 0 0 26.009169
5.7618127 -0.76408339 5.593811 0 0 0 0 26.014116
4.7171555 -0.70832306 6.1510239 0 0 0 0 26.019064
5.3499355 -0.72384495 6.2401147 0 0 0 0 26.02401
5.8480978 -0.71059507 6.1989765 0 0 0 0 26.028957
5.9162855 -0.6458894 5.7231045 0 0 0 0 26.033905
4.7396984 -0.61439341 6.16009 0 0 0 0 26.038851
5.3725934 -0.60990703 6.2471819 0 0 0 0 26.043798
5.9696097 -0.5912137 6.3092132 0 0 0 0 26.048746
6.0508265 -0.51957899 5.8373647 0 0 0 0 26.053692
4.7632327 -0.52046925 6.1731586 0 0 0 0 26.05864
5.3922443 -0.49695179 6.2532444 0 0 0 0 26.063587
6.0282817 -0.46247205 6.3543434 0 0 0 0 26.068533
6.3021622 -0.39492792 6.065824 0 0 0 0 26.073481
4.7738008 -0.42447063 6.171205 0 0 0 0 26.078426
5.4278584 -0.3840872 6.2793345 0 0 0 0 26.083374
6.0590172 -0.32957083 6.373426 0 0 0 0 26.088322
6.3738785 -0.25325441 6.1239777 0 0 0 0 26.093269
4.8043132 -0.32958579 6.1972857 0 0 0 0 26.098215
5.4445128 -0.2691144 6.2863927 0 0 0 0 26.103163
6.0837603 -0.19563544 6.3894982 0 0 0 0 26.108109
6.5624094 -0.10923928 6.2973309 0 0 0 0 26.113056
4.9605155 -0.24041596 6.3865805 0 0 0 0 26.118004
5.4501896 -0.1530792 6.2824316 0 0 0 0 26.12295
6.1025109 -0.060666032 6.4025612 0 0 0 0 26.127897
6.7369924 0.041858565 6.4606609 0 0 0 0 26.132845
5.013989 -0.14165914 6.4457006 0 0 0 0 26.137791
5.4668331 -0.037106533 6.2954903 0 0 0 0 26.142738
6.1102657 0.073365293 6.4076056 0 0 0 0 26.147686
6.8027782 0.19957185 6.5238061 0 0 0 0 26.152632
5.0275621 -0.039675053 6.4547534 0 0 0 0 26.157579
5.4834728 0.0788664 6.3095489 0 0 0 0 26.162527
6.1310067 0.21032341 6.4286723 0 0 0 0 26.167473
6.8465962 0.35840952 6.568913 0 0 0 0 26.172421
5.0421238 0.061303645 6.4658074 0 0 0 0 26.177368
5.5530195 0.19854107 6.3886981 0 0 0 0 26.182314
6.137763 0.34735999 6.4387159 0 0 0 0 26.187262
6.7865405 0.51182902 6.5188441 0 0 0 0 26.192207
5.0516934 0.16331036 6.4738541 0 0 0 0 26.197155
5.6784835 0.32390285 6.5339432 0 0 0 0 26.202103
6.1265321 0.48249704 6.4327292 0 0 0 0 26.20705
6.8133683 0.67176104 6.5569234 0 0 0 0 26.211996
5.0592718 0.26732817 6.4818969 0 0 0 0 26.216944
5.7161088 0.44876 6.580039 0 0 0 0 26.221889
6.1242867 0.61958301 6.4397578 0 0 0 0 26.226837
6.8162208 0.83082682 6.5749621 0 0 0 0 26.231785
5.069839 0.37132916 6.4949455 0 0 0 0 26.236731
5.7117934 0.57185197 6.5830641 0 0 0 0 26.241678
6.235909 0.77103311 6.5699821 0 0 0 0 26.246626
6.8010821 0.98799223 6.5789714 0 0 0 0 26.251572
5.0664248 0.47440851 6.4919705 0 0 0 0 26.256519
5.7164602 0.69589347 6.598104 0 0 0 0 26.261467
6.3595419 0.93041843 6.717227 0 0 0 0 26.266413
6.7769427 1.1442065 6.5779653 0 0 0 0 26.27136
5.0839734 0.58036995 6.5190315 0 0 0 0 26.276308
5.7081361 0.81800723 6.599122 0 0 0 0 26.281254
6.3513103 1.0735385 6.7292471 0 0 0 0 26.286201
6.8917069 1.32665 6.7171974 0 0 0 0 26.291149
5.0855479 0.68542087 6.5260658 0 0 0 0 26.296095
5.7048016 0.94209218 6.6111498 0 0 0 0 26.301043
6.3410726 1.216669 6.7422643 0 0 0 0 26.305988
6.8875532 1.4907528 6.7452269 0 0 0 0 26.310936
5.0841269 0.79148817 6.5320954 0 0 0 0 26.315884
5.6994691 1.0671878 6.6231742 0 0 0 0 26.320831
6.3188376 1.3578651 6.7452612 0 0 0 0 26.325777
6.7924285 1.6343567 6.6871009 0 0 0 0 26.330725
5.0787067 0.89757711 6.5361185 0 0 0 0 26.33567
5.6871381 1.1913217 6.6291871 0 0 0 0 26.340618
6.2946048 1.5010709 6.751256 0 0 0 0 26.345566
6.6992846 1.7769465 6.6349792 0 0 0 0 26.350512
5.0742841 1.0046601 6.5431437 0 0 0 0 26.355459
5.6698074 1.3154821 6.6331925 0 0 0 0 26.360407
6.2683578 1.6422868 6.7572474 0 0 0 0 26.365353
6.6461029 1.9263142 6.6249261 0 0 0 0 26.3703
5.0668602 1.1117591 6.5491643 0 0 0 0 26.375248
5.6594653 1.4416033 6.6482096 0 0 0 0 26.380194
6.2431054 1.7844958 6.7672415 0 0 0 0 26.385141
6.5899081 2.0746963 6.6168685 0 0 0 0 26.390089
5.0634322 1.2208354 6.5621924 0 0 0 0 26.395035
5.6301312 1.563828 6.6441951 0 0 0 0 26.399982
6.2068453 1.9237639 6.7702165 0 0 0 0 26.40493
6.551703 2.2279778 6.6288424 0 0 0 0 26.409876
5.0480113 1.3279773 6.5632 0 0 0 0 26.414824
5.6027837 1.6850408 6.6431842 0 0 0 0 26.419769
6.1715751 2.063025 6.777194 0 0 0 0 26.424717
6.5024881 2.3783178 6.634798 0 0 0 0 26.429665
5.031456 1.4343232 6.5629673 0 0 0 0 26.162115
5.5773668 1.8083429 6.6499524 0 0 0 0 26.167063
6.1333036 2.2023046 6.7839565 0 0 0 0 26.172009
6.4373188 2.5216889 6.6285214 0 0 0 0 26.176956
5.0200443 1.5434439 6.5729809 0 0 0 0 26.181904
5.5460401 1.9315808 6.6519322 0 0 0 0 26.18685
6.078042 2.3356814 6.7768965 0 0 0 0 26.191797
6.3931241 2.6760058 6.6464829 0 0 0 0 26.196745
5.0086317 1.653564 6.5849938 0 0 0 0 26.201691
5.5247011 2.0577612 6.668931 0 0 0 0 26.206638
6.0127764 2.4661129 6.7608204 0 0 0 0 26.211586
6.3188901 2.8154893 6.637392 0 0 0 0 26.216532
4.9852266 1.7617507 6.5849876 0 0 0 0 26.221479
5.4853611 2.1790411 6.6688981 0 0 0 0 26.226427
5.9414868 2.5915756 6.7407336 0 0 0 0 26.231373
6.2486539 2.9579475 6.6373096 0 0 0 0 26.23632
4.9708138 1.8738858 6.5999975 0 0 0 0 26.241268
5.4490147 2.3013031 6.6738715 0 0 0 0 26.246214
5.8531818 2.7101309 6.7056174 0 0 0 0 26.251162
6.1793976 3.0983977 6.6402283 0 0 0 0 26.256107
4.9424024 1.9810989 6.5969825 0 0 0 0 26.261055
5.4096651 2.4235806 6.6788402 0 0 0 0 26.266003
5.770854 2.8276503 6.6785121 0 0 0 0 26.27095
6.1071401 3.2398624 6.6451435 0 0 0 0 26.275896
4.9099936 2.0893328 6.5939622 0 0 0 0 26.280844
5.3653069 2.543884 6.6808004 0 0 0 0 26.285789
5.6825194 2.9432008 6.647398 0 0 0 0 26.290737
6.0168424 3.3694251 6.6330271 0 0 0 0 26.295685
4.8885779 2.2015045 6.6059613 0 0 0 0 26.300631
5.3179412 2.6632032 6.6817565 0 0 0 0 26.305578
5.5901604 3.0547705 6.6162763 0 0 0 0 26.310526
5.9425588 3.5088954 6.6429405 0 0 0 0 26.315472
4.8521581 2.3087583 6.6029344 0 0 0 0 26.320419
5.2645674 2.7805533 6.6797023 0 0 0 0 26.325367
5.505795 3.1692934 6.5961695 0 0 0 0 26.330313
5.8442278 3.633496 6.6308112 0 0 0 0 26.33526
4.8207374 2.4189832 6.6079173 0 0 0 0 26.340208
5.2161932 2.9008741 6.685658 0 0 0 0 26.345154
5.4154086 3.278847 6.5710526 0 0 0 0 26.350101
5.7478828 3.7570834 6.6216865 0 0 0 0 26.355049
4.7873144 2.529218 6.6128974 0 0 0 0 26.359995
5.1568074 3.0162542 6.6805944 0 0 0 0 26.364943
5.3270159 3.3893867 6.55094 0 0 0 0 26.369888
5.6515336 3.8816674 6.6165624 0 0 0 0 26.374836
4.7498903 2.6394732 6.6168709 0 0 0 0 26.379784
5.102416 3.1346045 6.6865406 0 0 0 0 26.384731
5.2446165 3.5028903 6.5428391 0 0 0 0 26.389677
5.5561676 4.0052423 6.6164408 0 0 0 0 26.394625
4.6994476 2.7417994 6.6048217 0 0 0 0 26.39957
5.0450134 3.2509692 6.6914816 0 0 0 0 26.404518
5.1612053 3.615397 6.5367365 0 0 0 0 26.409466
5.4457598 4.1168976 6.6012936 0 0 0 0 26.414412
4.6640277 2.8570402 6.6188011 0 0 0 0 26.419359
4.9725909 3.3594148 6.6803975 0 0 0 0 26.424307
5.0687709 3.7209506 6.5206184 0 0 0 0 26.429253
5.3413424 4.2305169 6.5961566 0 0 0 0 26.4342
4.619586 2.9653299 6.6217637 0 0 0 0 26.439148
4.9041729 3.4718356 6.6783214 0 0 0 0 26.444094
4.9823399 3.8314683 6.5165124 0 0 0 0 26.449041
5.2329149 4.342154 6.5890141 0 0 0 0 26.453989
4.5621314 3.0666893 6.6087046 0 0 0 0 26.458935
4.8387465 3.585238 6.682251 0 0 0 0 26.463882
4.8908825 3.9360111 6.5073977 0 0 0 0 26.46883
5.1144509 4.4448428 6.5738544 0 0 0 0 26.473776
4.5176935 3.1789751 6.6186695 0 0 0 0 26.478724
4.7582898 3.6877205 6.6681542 0 0 0 0 26.483669
4.80443 4.0455232 6.5092926 0 0 0 0 26.488617
4.9989715 4.5465121 6.5627003 0 0 0 0 26.493565
4.4612398 3.2843251 6.614614 0 0 0 0 26.498512
4.6818376 3.7951784 6.6650662 0 0 0 0 26.503458
4.7089448 4.1460819 6.5011725 0 0 0 0 26.508406
4.885489 4.650167 6.5585504 0 0 0 0 26.513351
4.4067817 3.3916619 6.6175623 0 0 0 0 26.518299
4.6123929 3.9085951 6.6749907 0 0 0 0 26.523247
4.6114535 4.2466483 6.495049 0 0 0 0 26.528193
4.7619538 4.7408733 6.5433831 0 0 0 0 26.53314
4.3453135 3.4950354 6.6124992 0 0 0 0 26.538088
4.5239034 4.006114 6.6598825 0 0 0 0 26.543034
4.5159512 4.3472013 6.4939303 0 0 0 0 26.547981
4.6394186 4.83357 6.5332184 0 0 0 0 26.552929
4.2838445 3.6004064 6.6124372 0 0 0 0 26.557875
4.4384117 4.1066127 6.65378 0 0 0 0 26.562822
4.4144282 4.4427834 6.4878011 0 0 0 0 26.56777
4.5088415 4.915307 6.5120397 0 0 0 0 26.572716
4.2153602 3.7008135 6.604363 0 0 0 0 26.577663
4.3539228 4.2091036 6.6506801 0 0 0 0 26.582611
4.2938333 4.5164666 6.454638 0 0 0 0 26.587557
4.3872752 5.0049911 6.5078783 0 0 0 0 26.592505
4.1498752 3.8042018 6.6042948 0 0 0 0 26.59745
4.2603955 4.301641 6.6375647 0 0 0 0 26.602398
4.1822567 4.5990973 6.4374919 0 0 0 0 26.607346
4.2566648 5.0827208 6.4917006 0 0 0 0 26.612293
4.0773735 3.902626 6.5972152 0 0 0 0 26.617239
4.0254636 4.2469444 6.4041934 0 0 0 0 26.622187
4.0867195 4.6986375 6.4483757 0 0 0 0 26.627132
4.1290479 5.1614304 6.4815292 0 0 0 0 26.63208
4.0001826 3.9984834 6.5858183 0 0 0 0 26.374825
3.9232528 4.3229427 6.3777447 0 0 0 0 26.379772
3.9745793 4.7786779 6.434906 0 0 0 0 26.384718
3.9979434 5.2345653 6.4680209 0 0 0 0 26.389666
3.8695338 4.0392394 6.4896297 0 0 0 0 26.394611
3.8377314 4.4204421 6.3836408 0 0 0 0 26.399559
3.8529518 4.8483729 6.4117379 0 0 0 0 26.404507
3.8672991 5.3063068 6.457839 0 0 0 0 26.409454
3.7087848 4.0451598 6.3413863 0 0 0 0 26.4144
3.7381561 4.5020161 6.3695121 0 0 0 0 26.419348
3.7483761 4.9369712 6.4166026 0 0 0 0 26.424294
3.7306163 5.3690772 6.4406466 0 0 0 0 26.429241
3.6342659 4.1415968 6.3433013 0 0 0 0 26.434189
3.6466029 4.5935426 6.3723984 0 0 0 0 26.439135
3.6277308 5.0056543 6.398438 0 0 0 0 26.444082
3.5888927 5.4218721 6.4154449 0 0 0 0 26.44903
3.5557389 4.236053 6.3422103 0 0 0 0 26.453976
3.5460093 4.6741166 6.3632693 0 0 0 0 26.458923
3.5080667 5.0723286 6.3842754 0 0 0 0 26.463871
3.4592044 5.4885969 6.4122663 0 0 0 0 26.468817
3.4741917 4.3265233 6.3391142 0 0 0 0 26.473764
3.4383831 4.7457261 6.3441277 0 0 0 0 26.478712
3.3904078 5.1419883 6.3751178 0 0 0 0 26.483658
3.3174391 5.5343847 6.3880658 0 0 0 0 26.488605
3.3866291 4.4120245 6.3280082 0 0 0 0 26.493553
3.3367682 4.8242993 6.3389978 0 0 0 0 26.498499
3.2657061 5.2006836 6.355947 0 0 0 0 26.503447
3.1786749 5.5831513 6.371871 0 0 0 0 26.508392
3.3020792 4.5045052 6.3299088 0 0 0 0 26.51334
3.231137 4.8988914 6.3298616 0 0 0 0 26.518288
3.1409855 5.2563758 6.3377767 0 0 0 0 26.523235
3.041908 5.6329041 6.3596807 0 0 0 0 26.528181
3.2094948 4.587028 6.3197951 0 0 0 0 26.533129
3.1204808 4.9675078 6.3157167 0 0 0 0 26.538074
3.0233014 5.3250251 6.3376212 0 0 0 0 26.543022
2.8990724 5.6656866 6.3344789 0 0 0 0 26.54797
3.1148942 4.6665592 6.3086786 0 0 0 0 26.552916
3.0128267 5.0391049 6.308578 0 0 0 0 26.557863
2.8965511 5.375721 6.3194485 0 0 0 0 26.562811
2.7572453 5.7024589 6.3162799 0 0 0 0 26.567757
3.0243165 4.7550645 6.3105707 0 0 0 0 26.572704
2.9001408 5.1027255 6.2944307 0 0 0 0 26.577652
2.7697847 5.4244132 6.3042765 0 0 0 0 26.582598
2.6194015 5.737206 6.3010883 0 0 0 0 26.587545
2.9166548 4.8186607 6.2834315 0 0 0 0 26.592493
2.7844319 5.1613603 6.2772779 0 0 0 0 26.597439
2.6410007 5.4691133 6.2861009 0 0 0 0 26.602386
2.4734879 5.752995 6.2678809 0 0 0 0 26.607334
2.8160343 4.896215 6.2743068 0 0 0 0 26.61228
2.6727507 5.2309675 6.2771349 0 0 0 0 26.617228
2.5121932 5.50981 6.2689257 0 0 0 0 26.622173
2.3315954 5.7767568 6.2466817 0 0 0 0 26.627121
2.7184179 4.9787488 6.2771888 0 0 0 0 26.632069
2.5560145 5.2856011 6.2619815 0 0 0 0 26.637016
2.382376 5.5485082 6.2507491 0 0 0 0 26.641962
2.2683759 6.0010729 6.4466472 0 0 0 0 26.64691
2.6137638 5.0503187 6.2670574 0 0 0 0 26.651855
2.4342508 5.3332582 6.2408199 0 0 0 0 26.656803
2.252542 5.5842037 6.232573 0 0 0 0 26.661751
2.1335368 6.0447879 6.453465 0 0 0 0 26.666697
2.5040889 5.1169124 6.2529187 0 0 0 0 26.671644
2.3165092 5.3898888 6.2336664 0 0 0 0 26.676592
2.125715 5.6248784 6.2254033 0 0 0 0 26.681538
1.9956673 6.0815144 6.4562774 0 0 0 0 26.686485
2.3974228 5.1884861 6.2477865 0 0 0 0 26.691433
2.1937172 5.4325452 6.2125039 0 0 0 0 26.696379
2.0624816 5.84519 6.4183693 0 0 0 0 26.701326
1.8476717 6.0832953 6.4260688 0 0 0 0 26.706274
2.28372 5.2500949 6.2326412 0 0 0 0 26.71122
2.0689018 5.4712076 6.1923375 0 0 0 0 26.716167
1.9336717 5.893867 6.4231992 0 0 0 0 26.721115
1.697612 6.0680852 6.3818541 0 0 0 0 26.726061
2.1699975 5.3087001 6.2194963 0 0 0 0 26.731009
1.9612266 5.5537715 6.223208 0 0 0 0 26.735954
1.797769 5.9165802 6.4030142 0 0 0 0 26.740902
1.5535859 6.0648375 6.3546524 0 0 0 0 26.74585
2.050245 5.358335 6.1953411 0 0 0 0 26.750797
1.8949989 5.7740946 6.4091706 0 0 0 0 26.755743
1.662878 5.9452829 6.3938327 0 0 0 0 26.760691
1.4166603 6.0925436 6.3624682 0 0 0 0 26.765636
1.9324936 5.410955 6.1791902 0 0 0 0 26.770584
1.762144 5.80479 6.3849926 0 0 0 0 26.775532
1.5239108 5.9530063 6.3656421 0 0 0 0 26.780478
1.2756205 6.088273 6.3402729 0 0 0 0 26.785425
1.8753504 5.6532278 6.3801723 0 0 0 0 26.790373
1.6353334 5.8514476 6.3828278 0 0 0 0 26.795319
1.3879622 5.9677086 6.3474574 0 0 0 0 26.800266
1.1335381 6.0730042 6.3100739 0 0 0 0 26.805214
1.7616994 5.7398143 6.405036 0 0 0 0 26.81016
1.5014396 5.8751407 6.3596487 0 0 0 0 26.815107
1.2520034 5.9814072 6.332274 0 0 0 0 26.820055
0.9944734 6.0647154 6.2908821 0 0 0 0 26.825001
1.6318958 5.7814875 6.3828659 0 0 0 0 26.829948
1.3675468 5.8998303 6.3384705 0 0 0 0 26.834896
1.1160171 5.9881034 6.3120899 0 0 0 0 26.839842
0.856399 6.0554171 6.274693 0 0 0 0 26.84479
1.4944664 5.800333 6.3390479 0 0 0 0 27.073116
1.2350967 5.9296021 6.3286724 0 0 0 0 27.078062
0.97943771 5.9908571 6.2912898 0 0 0 0 27.08301
0.71769375 6.0321407 6.2458949 0 0 0 0 27.087955
1.3656558 5.8459735 6.3278861 0 0 0 0 27.092903
1.1011755 5.9512649 6.3124995 0 0 0 0 27.097851
0.84339225 5.9835272 6.2641087 0 0 0 0 27.102798
0.5825963 6.0178003 6.2297144 0 0 0 0 27.107744
1.238885 5.9055977 6.3337321 0 0 0 0 27.112692
0.96623105 5.9669294 6.2923245 0 0 0 0 27.117638
0.70836174 5.9821882 6.2459311 0 0 0 0 27.122585
0.44846672 5.9944539 6.2065349 0 0 0 0 27.127533
1.1050266 5.9402566 6.3175621 0 0 0 0 27.132479
0.83126825 5.9785905 6.2711492 0 0 0 0 27.137426
0.57330197 5.9728465 6.2217526 0 0 0 0 27.142372
0.31431347 5.9661031 6.1833544 0 0 0 0 27.14732
0.97014111 5.9679179 6.2963905 0 0 0 0 27.152267
0.69629234 5.9882479 6.2519746 0 0 0 0 27.157215
0.44023922 5.9644904 6.2025781 0 0 0 0 27.162161
0.18317544 5.9427342 6.1661806 0 0 0 0 27.167109
0.83424866 5.9955802 6.2792177 0 0 0 0 27.172054
0.56027895 5.9879084 6.2257972 0 0 0 0 27.177002
0.30717191 5.956131 6.1864042 0 0 0 0 27.18195
0.052996103 5.9083576 6.1420064 0 0 0 0 27.186897
0.6983701 6.0292368 6.2710471 0 0 0 0 27.191843
0.4252753 5.992558 6.2086225 0 0 0 0 27.196791
0.17407258 5.9387689 6.163229 0 0 0 0 27.201736
-0.075198509 5.8699689 6.1158357 0 0 0 0 27.206684
0.55939078 6.0329103 6.2348666 0 0 0 0 27.211632
0.29024902 5.9912052 6.187448 0 0 0 0 27.216579
0.042935167 5.9113955 6.1340556 0 0 0 0 27.221525
-0.20135672 5.844564 6.1066709 0 0 0 0 27.226473
0.4214516 6.0515709 6.2186913 0 0 0 0 27.231419
0.1551971 5.9828506 6.161272 0 0 0 0 27.236366
-0.086156622 5.9000049 6.1248889 0 0 0 0 27.241314
-0.32562327 5.7851534 6.0635028 0 0 0 0 27.24626
0.28252003 6.0742321 6.209516 0 0 0 0 27.251207
0.020171123 5.9854884 6.1520996 0 0 0 0 27.256153
-0.21530725 5.8706145 6.0987196 0 0 0 0 27.261101
-0.44883403 5.7447305 6.0433407 0 0 0 0 27.266048
0.1425353 6.0818963 6.1883368 0 0 0 0 27.270996
-0.11391073 5.9711218 6.1269259 0 0 0 0 27.275942
-0.34445232 5.8442197 6.0785513 0 0 0 0 27.28089
-0.57004851 5.7042937 6.0261822 0 0 0 0 27.285835
0.0035010602 6.0755548 6.156157 0 0 0 0 27.290783
-0.24702717 5.9477477 6.0967522 0 0 0 0 27.295731
-0.47062692 5.8098087 6.0533872 0 0 0 0 27.300678
-0.68930805 5.6498475 5.9960251 0 0 0 0 27.305624
-0.13653934 6.0692134 6.1279764 0 0 0 0 27.310572
-0.38110024 5.9393716 6.0845809 0 0 0 0 27.315517
-0.59582597 5.7683907 6.0232229 0 0 0 0 27.320465
-0.73213577 5.0841517 5.4238763 0 0 0 0 27.325413
-0.27660331 6.0568695 6.0967951 0 0 0 0 27.33036
-0.51422983 5.9149895 6.0604086 0 0 0 0 27.335306
-0.72002083 5.7299633 6.000062 0 0 0 0 27.340254
-0.83441293 5.0216236 5.3857431 0 0 0 0 27.3452
-0.4185819 6.0735235 6.098618 0 0 0 0 27.350147
-0.64635426 5.8925982 6.0392385 0 0 0 0 27.355095
-0.76484263 5.1612782 5.4209085 0 0 0 0 27.360041
-0.93863976 4.9770966 5.3706112 0 0 0 0 27.364988
-0.55868018 6.054172 6.0684371 0 0 0 0 27.369936
-0.70422518 5.3079791 5.4450612 0 0 0 0 27.374882
-0.87504756 5.1187816 5.3967681 0 0 0 0 27.379829
-1.0398843 4.9275532 5.3524833 0 0 0 0 27.384777
-0.69782335 6.0218143 6.028255 0 0 0 0 27.389723
-0.82041311 5.2665114 5.4119124 0 0 0 0 27.39467
-0.98325151 5.077271 5.3756313 0 0 0 0 27.399616
-1.2586092 5.3894339 5.8962879 0 0 0 0 27.404564
-0.75966805 5.44521 5.4470725 0 0 0 0 27.409512
-0.94151276 5.2540569 5.4097624 0 0 0 0 27.414459
-1.204875 5.5611639 5.9164371 0 0 0 0 27.419405
-1.3678935 5.3319206 5.8781476 0 0 0 0 27.424353
-0.88478565 5.4217787 5.4219151 0 0 0 0 27.429298
-1.1660355 5.7599616 5.9475698 0 0 0 0 27.434246
-1.3211285 5.5086842 5.8922877 0 0 0 0 27.439194
-1.4731903 5.2703862 5.8570132 0 0 0 0 27.444141
-1.1171525 5.9667153 5.9717197 0 0 0 0 27.449087
-1.2912743 5.7075253 5.9124069 0 0 0 0 27.454035
-1.4344072 5.4481883 5.8611422 0 0 0 0 27.458981
-1.5764904 5.2078409 5.8358822 0 0 0 0 27.463928
-1.2553055 5.9373355 5.9485431 0 0 0 0 27.468876
-1.4164964 5.6620827 5.8882465 0 0 0 0 27.473822
-1.5516319 5.4067035 5.852994 0 0 0 0 27.478769
-1.6787981 5.1432877 5.8147526 0 0 0 0 27.483717
-1.3924948 5.8979483 5.9193654 0 0 0 0 27.488663
-1.5417143 5.6186361 5.8680873 0 0 0 0 27.49361
-1.6629186 5.3451929 5.8258519 0 0 0 0 27.498558
-1.7771271 5.0727143 5.790628 0 0 0 0 27.503504
-1.5306524 5.8705587 5.9061904 0 0 0 0 27.508451
-1.6649603 5.5671782 5.8429294 0 0 0 0 27.513397
-1.7741961 5.2876768 5.8057108 0 0 0 0 27.518345
-1.8774225 5.013145 5.7785029 0 0 0 0 27.523293
-1.6628997 5.8151441 5.8680191 0 0 0 0 27.52824
-1.7872034 5.5177121 5.8227739 0 0 0 0 27.533186
-1.8864584 5.2361608 5.7945704 0 0 0 0 27.538134
-1.7930089 4.4928503 5.232553 0 0 0 0 27.543079
-1.7955327 5.7578645 5.8330102 0 0 0 0 28.104324
-1.90973 5.4653397 5.80478 0 0 0 0 28.109272
-1.991942 5.1656828 5.7675939 0 0 0 0 28.114218
-1.8702971 4.4063153 5.1895781 0 0 0 0 28.119165
-1.9327123 5.7234092 5.8228464 0 0 0 0 28.124111
-2.0309751 5.4118176 5.7876339 0 0 0 0 28.129059
-2.0952342 5.0970864 5.7424693 0 0 0 0 28.134007
-1.957554 4.3506489 5.1834784 0 0 0 0 28.138954
-2.0639446 5.670929 5.7976866 0 0 0 0 28.1439
-2.1452529 5.3462663 5.7594948 0 0 0 0 28.148848
-2.2025044 5.0375009 5.7293415 0 0 0 0 28.153793
-2.0418231 4.2899694 5.1723824 0 0 0 0 28.158741
-2.1941991 5.612442 5.7715273 0 0 0 0 28.163689
-2.2635119 5.2887254 5.7423525 0 0 0 0 28.168636
-2.3097656 4.9829097 5.7252159 0 0 0 0 28.173582
-2.1310596 4.2433033 5.1802831 0 0 0 0 28.17853
-2.3264279 5.5639567 5.7573686 0 0 0 0 28.183475
-2.3777955 5.2231665 5.7202148 0 0 0 0 28.188423
-2.1762497 4.434474 5.1493001 0 0 0 0 28.193371
-2.3895431 4.5162263 5.58603 0 0 0 0 28.198318
-2.4527056 5.4984465 5.7292137 0 0 0 0 28.203264
-2.4870992 5.1505857 5.6930823 0 0 0 0 28.208212
-2.2675192 4.372818 5.1361947 0 0 0 0 28.213158
-2.5087101 4.5066605 5.6518998 0 0 0 0 28.218105
-2.5710292 5.4169044 5.688067 0 0 0 0 28.223053
-2.3575878 4.608161 5.1431613 0 0 0 0 28.227999
-2.3647537 4.3251796 5.1400852 0 0 0 0 28.232946
-2.5900407 4.4269595 5.630805 0 0 0 0 28.237892
-2.6993032 5.3563924 5.673912 0 0 0 0 28.24284
-2.4628341 4.5555553 5.13904 0 0 0 0 28.247787
-2.6611733 4.6222396 5.5647888 0 0 0 0 28.252735
-2.6693656 4.349247 5.6127133 0 0 0 0 28.257681
-2.8265836 5.2938733 5.659759 0 0 0 0 28.262629
-2.5481722 4.466876 5.0969367 0 0 0 0 28.267574
-2.7863591 4.602694 5.6146488 0 0 0 0 28.272522
-2.7397201 4.2585001 5.5796313 0 0 0 0 28.27747
-2.6631711 4.7183175 5.0938749 0 0 0 0 28.282417
-2.8884711 4.8050966 5.549592 0 0 0 0 28.287363
-2.8736963 4.5200119 5.5905461 0 0 0 0 28.292311
-2.8180437 4.1827774 5.5695419 0 0 0 0 28.297256
-2.7834105 4.6697626 5.0967345 0 0 0 0 28.302204
-3.0236716 4.7795882 5.5914388 0 0 0 0 28.307152
-2.9600396 4.4353232 5.5664439 0 0 0 0 28.312099
-2.8903842 4.0990319 5.5494595 0 0 0 0 28.317045
-3.1835508 5.0642018 5.5923252 0 0 0 0 28.321993
-3.1190226 4.6919346 5.5623236 0 0 0 0 28.326939
-3.0473716 4.3556337 5.5503421 0 0 0 0 28.331886
-2.9667029 4.0242968 5.5413742 0 0 0 0 28.336834
-3.2929125 4.9746017 5.5631909 0 0 0 0 28.34178
-3.2223547 4.614306 5.5502009 0 0 0 0 28.346727
-3.1357007 4.2779455 5.5392404 0 0 0 0 28.351673
-3.0290587 3.9325094 5.5123043 0 0 0 0 28.356621
-3.408258 4.8920202 5.5440516 0 0 0 0 28.361568
-3.3147202 4.522635 5.5230904 0 0 0 0 28.366516
-3.2120605 4.1862111 5.5111508 0 0 0 0 28.371462
-3.1053739 3.8597689 5.5102196 0 0 0 0 28.37641
-3.5166264 4.8014088 5.5199194 0 0 0 0 28.381355
-3.4100747 4.4359703 5.5039768 0 0 0 0 28.386303
-3.2963951 4.1065016 5.5010543 0 0 0 0 28.391251
-3.1627333 3.7649591 5.4781551 0 0 0 0 28.396198
-3.6190135 4.7037721 5.4907942 0 0 0 0 28.401144
-3.5064273 4.3513069 5.4908628 0 0 0 0 28.406092
-3.3737507 4.017765 5.4819651 0 0 0 0 28.411037
-3.2260728 3.680167 5.4620862 0 0 0 0 28.415985
-3.7233932 4.6091394 5.4666677 0 0 0 0 28.420933
-3.588814 4.2515893 5.4607649 0 0 0 0 28.42588
-3.4461172 3.9240074 5.457881 0 0 0 0 28.430826
-3.291404 3.5993795 5.4530153 0 0 0 0 28.435774
-3.8277791 4.514502 5.4485407 0 0 0 0 28.44072
-3.6801782 4.1629009 5.4476571 0 0 0 0 28.445667
-3.5194752 3.8342505 5.4407978 0 0 0 0 28.450615
-3.3517473 3.5125723 5.4369497 0 0 0 0 28.455561
-3.9161997 4.4038048 5.4114323 0 0 0 0 28.460508
-3.7675514 4.0701952 5.4315543 0 0 0 0 28.465456
-3.5878401 3.740473 5.4187202 0 0 0 0 28.470402
-3.4100871 3.4267554 5.4228873 0 0 0 0 28.475349
-4.0215836 4.3111644 5.4013057 0 0 0 0 28.480297
-3.8509381 3.9724722 5.412456 0 0 0 0 28.485243
-3.6581988 3.6497004 5.4026408 0 0 0 0 28.490191
-3.4694209 3.3429399 5.4118237 0 0 0 0 28.495136
-4.1189828 4.2114916 5.3841882 0 0 0 0 28.500084
-3.924335 3.86871 5.3853693 0 0 0 0 28.505032
-3.7255673 3.5559137 5.3865647 0 0 0 0 28.509979
-3.5247617 3.2561078 5.3987656 0 0 0 0 28.514925
-4.2044172 4.0977736 5.3540835 0 0 0 0 28.519873
-4.0067186 3.7729771 5.3732734 0 0 0 0 28.524818
-3.7899306 3.4621143 5.3684931 0 0 0 0 28.529766
-3.5751076 3.1652565 5.3797135 0 0 0 0 28.534714
-4.2978272 3.9950795 5.3399715 0 0 0 0 28.539661
-4.0811162 3.670213 5.3531866 0 0 0 0 28.544607
-3.8542957 3.3683126 5.3534212 0 0 0 0 28.549555
-3.6344359 3.084434 5.3776512 0 0 0 0 28.554501
-4.3762689 3.878329 5.3108754 0 0 0 0 28.559448
-4.1465259 3.5604148 5.3241096 0 0 0 0 28.564396
-3.9156635 3.2734973 5.3393536 0 0 0 0 28.569342
-3.6777811 2.9915538 5.355608 0 0 0 0 28.574289
-4.4573617 3.7654948 5.2871308 0 0 0 0 28.301657
-4.2216306 3.4625132 5.3133903 0 0 0 0 28.306604
-3.9757998 3.1784964 5.3246689 0 0 0 0 28.31155
-3.724942 2.9024596 5.3409562 0 0 0 0 28.316498
-4.5388107 3.6547632 5.2700315 0 0 0 0 28.321445
-4.2960482 3.360754 5.3033028 0 0 0 0 28.326393
-4.0281973 3.0766549 5.3026114 0 0 0 0 28.331339
-3.7702992 2.8125904 5.3279109 0 0 0 0 28.336287
-4.6222658 3.5430367 5.2569299 0 0 0 0 28.341232
-4.3544831 3.2489331 5.278235 0 0 0 0 28.34618
-4.0845842 2.9798255 5.2895494 0 0 0 0 28.351128
-3.8096566 2.7196977 5.3078732 0 0 0 0 28.356075
-4.690742 3.4212511 5.2318463 0 0 0 0 28.361021
-4.4239039 3.1451502 5.2681546 0 0 0 0 28.365969
-4.1399713 2.8829901 5.2784891 0 0 0 0 28.370914
-3.8600047 2.6348431 5.3058219 0 0 0 0 28.375862
-4.7701969 3.3095031 5.2227507 0 0 0 0 28.38081
-4.4823346 3.0353241 5.2500873 0 0 0 0 28.385757
-4.1843691 2.7791126 5.2564425 0 0 0 0 28.390703
-3.8983567 2.5439429 5.2907863 0 0 0 0 28.395651
-4.8306794 3.1836827 5.1946778 0 0 0 0 28.400597
-4.5367694 2.9234807 5.2310252 0 0 0 0 28.405544
-4.2397513 2.6842728 5.2513828 0 0 0 0 28.410492
-3.9397104 2.4540522 5.2817464 0 0 0 0 28.415438
-4.7033515 2.9411685 4.9728322 0 0 0 0 28.420385
-4.5662274 2.7955444 5.1849933 0 0 0 0 28.425331
-4.2831459 2.5813878 5.2333379 0 0 0 0 28.430279
-3.9700639 2.3591204 5.2597203 0 0 0 0 28.435226
-4.7658062 2.8253517 4.9587588 0 0 0 0 28.440174
-4.4657736 2.5951326 4.9981213 0 0 0 0 28.44512
-4.2665725 2.4452839 5.1463656 0 0 0 0 28.450068
-4.0144095 2.2732368 5.2596774 0 0 0 0 28.455013
-4.833261 2.7115507 4.9526787 0 0 0 0 28.459961
-4.5121899 2.4862556 4.9810705 0 0 0 0 28.464909
-4.2050104 2.2880175 5.00945 0 0 0 0 28.469856
-4.0447564 2.1803019 5.241652 0 0 0 0 28.474802
-4.8877225 2.5916996 4.936615 0 0 0 0 28.47975
-4.5696039 2.3824162 4.9790063 0 0 0 0 28.484695
-4.2473822 2.1921246 5.0014076 0 0 0 0 28.489643
-3.9291396 2.0128458 5.0408063 0 0 0 0 28.494591
-4.9451866 2.472857 4.9275475 0 0 0 0 28.499538
-4.6170225 2.274538 4.9699545 0 0 0 0 28.504484
-4.2887588 2.095226 4.9953661 0 0 0 0 28.509432
-3.9514756 1.9208806 5.0217915 0 0 0 0 28.514378
