# .PCD v0.7 - Point Cloud Data file format
VERSION 0.7
FIELDS x y z normal_x normal_y normal_z intensity curvature
SIZE 4 4 4 4 4 4 4 4
TYPE F F F F F F F F
COUNT 1 1 1 1 1 1 1 1
WIDTH 978
HEIGHT 1
VIEWPOINT 0 0 0 1 0 0 0
POINTS 978
DATA ascii
15.16423 3.6175952 7.8420367 0 0 0 0 19.133074
15.319302 3.4514828 7.3655386 0 0 0 0 19.138021
14.888512 4.3934331 8.9497271 0 0 0 0 19.142969
15.187083 4.1986275 8.4809408 0 0 0 0 19.147917
15.31398 4.0260854 7.9754806 0 0 0 0 19.152864
15.384735 3.8486276 7.4451094 0 0 0 0 19.157812
14.768022 4.698133 8.9504709 0 0 0 0 19.162756
15.292447 4.5889578 8.606432 0 0 0 0 19.167704
15.477532 4.2642365 7.5466619 0 0 0 0 19.177599
14.55575 4.9676085 8.897316 0 0 0 0 19.182547
15.213727 4.9328523 8.6351643 0 0 0 0 19.187494
16.226196 5.0632319 8.5826645 0 0 0 0 19.192438
14.38469 5.2462668 8.8711023 0 0 0 0 19.202333
15.303239 5.3334827 8.7616978 0 0 0 0 19.207281
14.352803 5.5792079 8.9367352 0 0 0 0 19.22212
15.347569 5.7279868 8.8662968 0 0 0 0 19.227068
14.336043 5.9188528 9.012351 0 0 0 0 19.241911
15.325468 6.103765 8.940979 0 0 0 0 19.246855
15.549547 6.0454292 8.4555292 0 0 0 0 19.251802
14.328467 6.268311 9.0999651 0 0 0 0 19.261698
15.379197 6.5200715 9.0665932 0 0 0 0 19.266645
15.518829 6.4433784 8.5272589 0 0 0 0 19.271593
14.129137 6.5364709 9.0697784 0 0 0 0 19.281485
15.354312 6.9088874 9.1512976 0 0 0 0 19.286432
13.605379 6.6418839 8.8308887 0 0 0 0 19.301275
15.22051 7.2557931 9.1751194 0 0 0 0 19.306219
13.431509 6.900032 8.8177805 0 0 0 0 19.076231
15.01666 7.558022 9.1580887 0 0 0 0 19.081179
15.572766 7.7491784 8.8624458 0 0 0 0 19.086126
13.19147 7.1300058 8.7666092 0 0 0 0 19.096022
14.676599 7.7929749 9.0630999 0 0 0 0 19.100969
15.597362 8.2090254 8.992178 0 0 0 0 19.105913
16.572733 8.6601171 8.8922176 0 0 0 0 19.110861
13.063611 7.4157667 8.7903318 0 0 0 0 19.115808
14.634822 8.1840811 9.155838 0 0 0 0 19.120756
15.619148 8.6799173 9.128931 0 0 0 0 19.125704
12.810203 7.6279721 8.7331524 0 0 0 0 19.135595
14.605426 8.5949326 9.2665825 0 0 0 0 19.140543
15.671529 9.1812057 9.2926769 0 0 0 0 19.145491
12.496964 7.8003287 8.6380138 0 0 0 0 19.155386
14.562942 9.0030346 9.3703461 0 0 0 0 19.16033
15.638191 9.6501493 9.4145184 0 0 0 0 19.165277
15.806055 9.7489481 8.8743992 0 0 0 0 19.170225
12.147006 7.9373841 8.5158815 0 0 0 0 19.175173
14.273395 9.2639284 9.3243027 0 0 0 0 19.18012
15.491478 10.053282 9.4744501 0 0 0 0 19.185068
15.793607 10.265488 9.0142756 0 0 0 0 19.190012
12.613395 8.623477 8.9771967 0 0 0 0 19.19496
13.972507 9.5080252 9.2712507 0 0 0 0 19.199907
15.012302 10.238835 9.3366137 0 0 0 0 19.204855
15.88185 10.867063 9.2261086 0 0 0 0 19.209803
12.366994 8.8374891 8.9360018 0 0 0 0 19.21475
13.676635 9.7530041 9.2241888 0 0 0 0 19.219694
14.712352 10.532895 9.3086348 0 0 0 0 19.224642
15.88131 11.432338 9.4010363 0 0 0 0 19.229589
12.130652 9.054286 8.9047928 0 0 0 0 19.234537
13.384666 9.9928846 9.1821108 0 0 0 0 19.239485
14.281327 10.724466 9.2007198 0 0 0 0 19.244432
15.96126 12.074056 9.6309423 0 0 0 0 19.249376
11.858712 9.2417583 8.8505974 0 0 0 0 19.254324
13.151524 10.273605 9.1829929 0 0 0 0 19.259272
14.030983 11.048515 9.2146978 0 0 0 0 19.264219
15.680991 12.457694 9.6560631 0 0 0 0 19.269167
11.593808 9.4310751 8.8033924 0 0 0 0 19.274111
12.821754 10.474184 9.1169157 0 0 0 0 19.279058
13.63618 11.250337 9.1347322 0 0 0 0 19.284006
15.153613 12.636067 9.5302877 0 0 0 0 19.288954
10.745786 9.1197214 8.3044081 0 0 0 0 19.293901
12.498012 10.675616 9.0618258 0 0 0 0 19.298849
13.303314 11.498937 9.098731 0 0 0 0 19.303793
15.136867 13.247581 9.7383041 0 0 0 0 19.308741
10.593307 9.3778095 8.3411112 0 0 0 0 19.313688
12.097796 10.80351 8.9517517 0 0 0 0 19.318636
12.827699 11.609268 8.964757 0 0 0 0 19.323584
14.729483 13.526587 9.7014732 0 0 0 0 19.328531
10.433719 9.6310253 8.3738194 0 0 0 0 19.333475
11.644258 10.864416 8.7966642 0 0 0 0 19.338423
12.387486 11.738887 8.8577509 0 0 0 0 19.34337
14.349371 13.819043 9.6846142 0 0 0 0 19.348318
10.190632 9.8098431 8.3465519 0 0 0 0 19.353266
11.18734 10.905365 8.6355476 0 0 0 0 19.358213
11.967316 11.870098 8.7607098 0 0 0 0 19.363157
13.684593 13.823936 9.4767952 0 0 0 0 19.368105
9.9157219 9.9472675 8.2892742 0 0 0 0 19.373053
10.754556 10.951822 8.4913979 0 0 0 0 19.378
11.546884 11.98729 8.6636457 0 0 0 0 19.382948
13.287616 14.071663 9.4478893 0 0 0 0 19.387892
9.6571808 10.103354 8.2509956 0 0 0 0 19.392839
10.45319 11.119719 8.4502087 0 0 0 0 19.397787
11.111895 12.07574 8.5535612 0 0 0 0 19.402735
12.732157 14.1414 9.308979 0 0 0 0 19.407682
9.372921 10.222923 8.189702 0 0 0 0 19.41263
10.122185 11.255163 8.3900175 0 0 0 0 19.417574
10.912852 12.415621 8.6294575 0 0 0 0 19.422522
12.297187 14.33779 9.2630539 0 0 0 0 19.427469
9.1080685 10.363096 8.148407 0 0 0 0 19.432417
9.7797375 11.367811 8.3188105 0 0 0 0 19.437365
10.567739 12.599286 8.6003618 0 0 0 0 19.442312
11.193935 13.696979 8.6929798 0 0 0 0 19.447256
8.8339071 10.487432 8.1001005 0 0 0 0 19.452204
6.5360436 7.9444828 5.7021108 0 0 0 0 19.457151
10.144415 12.669442 8.5012217 0 0 0 0 19.462099
10.896162 14.003682 8.7419863 0 0 0 0 19.467047
6.4246817 7.9591541 6.0353546 0 0 0 0 19.471994
6.3819442 8.1154518 5.7276707 0 0 0 0 19.476938
9.7659607 12.783712 8.4380713 0 0 0 0 19.481886
10.41455 14.060895 8.6399221 0 0 0 0 19.486834
6.2722139 8.1111021 6.0498829 0 0 0 0 19.491781
6.1416125 8.1720762 5.6752009 0 0 0 0 19.496729
9.376111 12.877173 8.3699074 0 0 0 0 19.501673
9.9437923 14.109877 8.5418234 0 0 0 0 19.50662
6.0037189 8.1082878 5.9513698 0 0 0 0 19.511568
5.975122 8.3232632 5.6917491 0 0 0 0 19.516516
8.9343758 12.872622 8.2446785 0 0 0 0 19.521463
9.4728422 14.147828 8.4477062 0 0 0 0 19.526411
5.9046679 8.3331747 6.0239162 0 0 0 0 19.531355
8.4893932 12.385616 8.3607216 0 0 0 0 19.536303
8.8694506 13.427782 8.4816628 0 0 0 0 19.54125
8.9838753 14.132107 8.3295374 0 0 0 0 19.546198
7.7180138 11.382691 8.1210127 0 0 0 0 19.335733
8.1202154 12.41431 8.264904 0 0 0 0 19.340681
8.4823589 13.497667 8.4159412 0 0 0 0 19.345625
8.8636236 14.697709 8.5601206 0 0 0 0 19.350573
7.4322367 11.474235 8.0726767 0 0 0 0 19.35552
7.7759733 12.483953 8.202632 0 0 0 0 19.360468
7.3320127 12.282064 7.5610809 0 0 0 0 19.365416
7.5452194 13.21829 7.6081438 0 0 0 0 19.370363
7.161767 11.581465 8.0373354 0 0 0 0 19.375307
7.409688 12.500018 8.1083136 0 0 0 0 19.380255
7.6906276 13.575871 8.2634735 0 0 0 0 19.385202
7.2964482 13.517963 7.7000537 0 0 0 0 19.39015
6.8685651 11.651121 7.9809747 0 0 0 0 19.395098
6.623548 11.753333 7.5305467 0 0 0 0 19.400045
7.2830133 13.57567 8.1721964 0 0 0 0 19.404989
7.0250916 13.788054 7.7779546 0 0 0 0 19.409937
6.5606132 11.682055 7.9035788 0 0 0 0 19.414885
6.306829 11.795394 7.4721808 0 0 0 0 19.419832
6.8946023 13.585078 8.0948992 0 0 0 0 19.42478
7.0166616 14.624948 8.1772671 0 0 0 0 19.429728
6.2732248 11.74157 7.8491893 0 0 0 0 19.434671
5.9991131 11.837265 7.417798 0 0 0 0 19.439619
5.8369522 12.184661 7.1875978 0 0 0 0 19.444567
6.5668774 14.563479 8.0749626 0 0 0 0 19.449514
5.9909749 11.807962 7.8037996 0 0 0 0 19.454462
6.0663371 12.650706 7.8469477 0 0 0 0 19.459406
5.5591264 12.323875 7.205308 0 0 0 0 19.464354
5.5434675 13.115316 7.2145286 0 0 0 0 19.469301
5.6960173 11.837593 7.7383747 0 0 0 0 19.474249
5.7320719 12.66505 7.7815638 0 0 0 0 19.479197
5.708725 13.4726 7.8138204 0 0 0 0 19.484144
5.702426 14.443798 7.8932929 0 0 0 0 19.489088
5.4156051 11.894914 7.6969657 0 0 0 0 19.494036
5.4005628 12.66633 7.7121539 0 0 0 0 19.498983
5.3628259 13.506101 7.7734809 0 0 0 0 19.503931
5.2813759 14.365717 7.8019094 0 0 0 0 19.508879
5.1255193 11.917421 7.6335182 0 0 0 0 19.513826
5.0730996 12.66951 7.6487379 0 0 0 0 19.51877
4.9913726 13.458095 7.6910601 0 0 0 0 19.523718
4.8524303 14.239777 7.6914649 0 0 0 0 19.528666
4.8279066 11.912063 7.5580406 0 0 0 0 19.533613
4.7462974 12.654669 7.5772924 0 0 0 0 19.538561
4.6111526 13.369246 7.5915904 0 0 0 0 19.543509
4.4608417 14.184085 7.6240625 0 0 0 0 19.548452
4.5511422 11.95027 7.5155916 0 0 0 0 19.5534
4.4233336 12.630736 7.5068259 0 0 0 0 19.558348
4.2482247 13.295049 7.5031128 0 0 0 0 19.563295
3.9069905 13.535666 7.2430401 0 0 0 0 19.568243
4.2616186 11.948717 7.4511027 0 0 0 0 19.573187
3.971519 12.195399 7.1969552 0 0 0 0 19.578135
3.7660174 12.785264 7.1761799 0 0 0 0 19.583082
3.532573 13.433628 7.1635365 0 0 0 0 19.58803
3.82428 11.486156 7.103168 0 0 0 0 19.592978
3.6463161 12.1045 7.0983887 0 0 0 0 19.597925
3.424922 12.699617 7.0956459 0 0 0 0 19.602869
3.1627541 13.309493 7.0779905 0 0 0 0 19.607817
3.5549359 11.492183 7.0536547 0 0 0 0 19.612764
3.3462384 12.072085 7.0368671 0 0 0 0 19.617712
3.0959454 12.619729 7.0200987 0 0 0 0 19.62266
2.8048878 13.182119 6.9934187 0 0 0 0 19.627607
3.2843142 11.483225 6.9991188 0 0 0 0 19.632551
3.0467341 12.016655 6.9663081 0 0 0 0 19.637499
2.7697577 12.52777 6.9445281 0 0 0 0 19.642447
2.4526587 13.034632 6.9028058 0 0 0 0 19.647394
3.0196753 11.473142 6.9455709 0 0 0 0 19.652342
2.7510509 11.951138 6.8947268 0 0 0 0 19.65729
2.452523 12.43263 6.8709364 0 0 0 0 19.662233
2.1095586 12.892948 6.8211856 0 0 0 0 19.667181
2.7473264 11.425205 6.8729777 0 0 0 0 19.672129
2.4572818 11.880571 6.8231335 0 0 0 0 19.677076
2.1424117 12.343335 6.8043399 0 0 0 0 19.682024
1.779393 12.747014 6.7395363 0 0 0 0 19.686968
2.4886441 11.411981 6.8244128 0 0 0 0 19.691916
2.175976 11.833742 6.7705536 0 0 0 0 19.696863
1.8346152 12.217001 6.7206836 0 0 0 0 19.701811
1.4554329 12.610935 6.6698899 0 0 0 0 19.706758
2.2275743 11.377791 6.7678189 0 0 0 0 19.711706
1.8952255 11.762898 6.7069359 0 0 0 0 19.71665
1.5318528 12.091553 6.6430192 0 0 0 0 19.721598
1.1401803 12.458693 6.5922046 0 0 0 0 19.726545
1.9662876 11.331595 6.7082062 0 0 0 0 19.731493
1.6143575 11.68504 6.6453066 0 0 0 0 19.736441
1.2516673 12.102591 6.6445189 0 0 0 0 19.741388
0.82710725 12.261411 6.4984474 0 0 0 0 19.746332
1.7057071 11.26938 6.6415677 0 0 0 0 19.75128
1.3904513 12.030869 6.8242102 0 0 0 0 19.756227
0.98460948 12.28027 6.7412415 0 0 0 0 19.761175
0.53352809 12.196681 6.4768534 0 0 0 0 19.766123
1.5041748 11.634796 6.8314638 0 0 0 0 19.77107
1.1135877 11.952902 6.7675714 0 0 0 0 19.776014
0.69910049 12.220412 6.7086415 0 0 0 0 19.780962
0.24799359 12.401621 6.6036429 0 0 0 0 19.78591
1.2470479 11.596468 6.7848516 0 0 0 0 19.790857
0.83834213 11.853899 6.7028975 0 0 0 0 19.795805
0.41511017 12.080556 6.6369195 0 0 0 0 19.800749
-0.043047693 12.257854 6.5459256 0 0 0 0 19.805696
0.97381014 11.53559 6.7266231 0 0 0 0 20.766233
0.55319905 11.757664 6.6425633 0 0 0 0 20.771181
0.12194487 11.939886 6.5694623 0 0 0 0 20.776125
-0.34288979 12.088672 6.4803629 0 0 0 0 20.781073
0.71918279 11.463872 6.6669259 0 0 0 0 20.78602
0.2891078 11.658084 6.5828395 0 0 0 0 20.790968
-0.15084779 11.798438 6.5036907 0 0 0 0 20.795916
-0.61848599 11.899261 6.4055266 0 0 0 0 20.800863
0.46661744 11.395098 6.6132288 0 0 0 0 20.805807
0.030698046 11.539405 6.515079 0 0 0 0 20.810755
-0.41647705 11.665852 6.4439201 0 0 0 0 20.815702
-0.88899505 11.713742 6.3386869 0 0 0 0 20.82065
0.21495757 11.320295 6.5595207 0 0 0 0 20.825598
-0.22743741 11.435689 6.4623384 0 0 0 0 20.830545
-0.67765582 11.500188 6.373095 0 0 0 0 20.835489
-1.1467718 11.512012 6.2618051 0 0 0 0 20.840437
-0.029629063 11.249359 6.5088062 0 0 0 0 20.845385
-0.47684148 11.315826 6.4015608 0 0 0 0 20.850332
-0.92944795 11.356342 6.3152862 0 0 0 0 20.85528
-1.4010854 11.336189 6.2039533 0 0 0 0 20.860224
-0.27063492 11.153362 6.4480505 0 0 0 0 20.865171
-0.72337258 11.187904 6.3387671 0 0 0 0 20.870119
-1.1753501 11.205388 6.2554574 0 0 0 0 20.875067
-1.6445936 11.148182 6.141068 0 0 0 0 20.880014
-0.51156288 11.061345 6.3922992 0 0 0 0 20.884962
-0.96468848 11.071873 6.2849808 0 0 0 0 20.889906
-1.4154783 11.040332 6.1915994 0 0 0 0 20.894854
-1.876281 10.948976 6.0721488 0 0 0 0 20.899801
-0.74444968 10.97118 6.3395376 0 0 0 0 20.904749
-1.2010609 10.951745 6.233181 0 0 0 0 20.909697
-1.646547 10.878112 6.1297321 0 0 0 0 20.914644
-2.1058481 10.755713 6.0112343 0 0 0 0 20.919588
-0.97478926 10.853974 6.2737331 0 0 0 0 20.924536
-1.4289203 10.802483 6.166327 0 0 0 0 20.929483
-1.8726013 10.715794 6.071856 0 0 0 0 20.934431
-2.3337715 10.599382 5.9733682 0 0 0 0 20.939379
-1.2048424 10.752736 6.2219501 0 0 0 0 20.944326
-1.65548 10.670175 6.1104941 0 0 0 0 20.94927
-2.1012828 10.574485 6.0300121 0 0 0 0 20.954218
-2.5401132 10.358742 5.8913522 0 0 0 0 20.959166
-1.4309375 10.648417 6.1711555 0 0 0 0 20.964113
-1.8773123 10.520781 6.0516291 0 0 0 0 20.969061
-2.3165519 10.39797 5.969099 0 0 0 0 20.974005
-2.6581666 9.8398457 5.64782 0 0 0 0 20.978952
-1.6531918 10.534027 6.1183405 0 0 0 0 20.9839
-2.1003203 10.41936 6.0208325 0 0 0 0 20.988848
-2.5275538 10.236362 5.9191999 0 0 0 0 20.993795
-2.8507278 9.6429319 5.5918446 0 0 0 0 20.998743
-1.8695092 10.415533 6.062511 0 0 0 0 21.003687
-2.3121328 10.269774 5.9659514 0 0 0 0 21.008635
-2.6271286 9.686204 5.6425982 0 0 0 0 21.013582
-3.0342469 9.4478626 5.5358582 0 0 0 0 21.01853
-2.0848467 10.295007 6.0106754 0 0 0 0 21.023478
-2.450592 9.8451805 5.7495813 0 0 0 0 21.028425
-2.8200176 9.5292788 5.5966787 0 0 0 0 21.033369
-3.2041416 9.2295742 5.4698195 0 0 0 0 21.038317
-2.2922282 10.17134 5.9578238 0 0 0 0 21.043264
-2.6189911 9.5999374 5.6405044 0 0 0 0 21.048212
-3.0069952 9.3662472 5.5507417 0 0 0 0 21.05316
-3.3918223 9.0825167 5.4449053 0 0 0 0 21.058107
-2.4078481 9.6774349 5.6903248 0 0 0 0 21.063051
-2.8143592 9.4740353 5.603631 0 0 0 0 21.067999
-3.182267 9.1850281 5.4957623 0 0 0 0 21.072947
-3.5534396 8.8790646 5.389874 0 0 0 0 21.077894
-2.6050653 9.561574 5.6464686 0 0 0 0 21.082842
-2.9992404 9.3169708 5.5516987 0 0 0 0 21.08779
-3.3505805 9.0006905 5.4387679 0 0 0 0 21.092733
-3.5791988 8.3696442 5.1472249 0 0 0 0 21.097681
-2.8020859 9.4566879 5.6126261 0 0 0 0 21.102629
-3.1732984 9.1487303 5.4937348 0 0 0 0 21.107576
-3.5292711 8.8524809 5.4068379 0 0 0 0 21.112524
-3.6233315 7.9554553 4.958734 0 0 0 0 21.117468
-2.9896026 9.3216572 5.5637279 0 0 0 0 21.122416
-3.3414118 8.9763842 5.4357562 0 0 0 0 21.127363
-3.5942302 8.4496269 5.2183928 0 0 0 0 21.132311
-3.5933938 7.4251699 4.6939783 0 0 0 0 21.137259
-3.1702938 9.1755104 5.5108037 0 0 0 0 21.142206
-3.5266867 8.8532667 5.4098706 0 0 0 0 21.14715
-3.6479521 8.0595818 5.0359502 0 0 0 0 21.152098
-3.7378733 7.2853813 4.6750126 0 0 0 0 21.157045
-3.3412616 9.012208 5.4488416 0 0 0 0 21.161993
-3.5963533 8.4674845 5.222456 0 0 0 0 21.166941
-3.586134 7.4618511 4.720057 0 0 0 0 21.171888
-4.3128667 7.9488173 5.1837664 0 0 0 0 21.176832
-3.5244622 8.8940582 5.4159584 0 0 0 0 21.18178
-3.6596293 8.1035805 5.0490637 0 0 0 0 21.186728
-3.7092915 7.281755 4.6690044 0 0 0 0 21.191675
-3.6845195 6.4257855 4.2577939 0 0 0 0 21.196623
-3.5721095 8.4489737 5.1864319 0 0 0 0 21.201571
-3.5939908 7.4938059 4.7211504 0 0 0 0 21.206514
-4.2938447 7.974309 5.1868081 0 0 0 0 21.211462
-3.6345794 6.0101228 4.0491729 0 0 0 0 21.21641
-3.6391449 8.0991278 5.0130644 0 0 0 0 21.221357
-3.701525 7.2914867 4.6460452 0 0 0 0 21.226305
-3.6946404 6.4987411 4.2849483 0 0 0 0 21.231249
-3.685401 5.7869091 3.9679608 0 0 0 0 21.236197
-3.5563188 7.4663153 4.6608295 0 0 0 0 20.998274
-4.3181868 8.0549307 5.1967545 0 0 0 0 21.003222
-3.6299357 6.0640969 4.056993 0 0 0 0 21.008169
-3.6979978 5.5233717 3.8573444 0 0 0 0 21.013117
-3.7074161 7.352674 4.6349106 0 0 0 0 21.018064
-3.6874723 6.5177379 4.254725 0 0 0 0 21.023008
-3.6691272 5.8237333 3.9567389 0 0 0 0 21.027956
-3.7005503 5.2604318 3.7440064 0 0 0 0 21.032904
-4.365303 8.1944647 5.2230492 0 0 0 0 21.037851
-3.6220791 6.0768476 4.020041 0 0 0 0 21.042799
-3.6866319 5.5640354 3.8434267 0 0 0 0 21.047743
-3.6696088 4.9669819 3.6065784 0 0 0 0 21.052691
-3.6755226 6.5384336 4.2087765 0 0 0 0 21.057638
-3.6583495 5.8314452 3.9127755 0 0 0 0 21.062586
-3.6940916 5.3061748 3.7301033 0 0 0 0 21.067533
-3.7684236 4.8634558 3.6046014 0 0 0 0 21.072481
-3.6053331 6.0844831 3.9630685 0 0 0 0 21.077425
-3.6836104 5.5858665 3.8034947 0 0 0 0 21.082373
-3.6504192 4.9965439 3.5756354 0 0 0 0 21.08732
-3.7986586 4.6758986 3.5414093 0 0 0 0 21.092268
-3.6347537 5.8299842 3.843781 0 0 0 0 21.097216
-3.6832533 5.3168964 3.6771452 0 0 0 0 21.102163
-3.7345483 4.8748031 3.5536118 0 0 0 0 21.107107
-3.8140247 4.4801116 3.4701848 0 0 0 0 21.112055
-3.6560941 5.5793529 3.7264884 0 0 0 0 21.117002
-3.6444681 5.0133452 3.5236936 0 0 0 0 21.12195
-3.7755408 4.7014108 3.496455 0 0 0 0 21.126898
-3.8851619 4.3561497 3.4531398 0 0 0 0 21.131845
-3.667438 5.3275604 3.60918 0 0 0 0 21.136789
-3.7168524 4.876431 3.4876323 0 0 0 0 21.141737
-3.7879734 4.5015869 3.4172213 0 0 0 0 21.146685
-4.0564108 4.3426681 3.5283899 0 0 0 0 21.151632
-3.617914 5.0078573 3.4416916 0 0 0 0 21.15658
-3.7637258 4.7101331 3.4294939 0 0 0 0 21.161524
-3.8570967 4.3785973 3.3951745 0 0 0 0 21.166471
-3.6981459 4.8800645 3.4066541 0 0 0 0 21.176367
-3.7751544 4.5102987 3.3462589 0 0 0 0 21.181314
-4.0263753 4.36409 3.4614198 0 0 0 0 21.186262
-3.7401006 4.7086954 3.341502 0 0 0 0 21.196154
-3.8394122 4.3792396 3.3151944 0 0 0 0 21.201101
-4.084671 4.2299237 3.4343419 0 0 0 0 21.206049
-3.7525234 4.5088806 3.2552691 0 0 0 0 21.215944
-4.0076671 4.3667169 3.3754401 0 0 0 0 21.220888
-3.821696 4.3828993 3.2232184 0 0 0 0 21.235731
-4.069911 4.2356138 3.3463719 0 0 0 0 21.240679
-3.9909587 4.3703933 3.2774646 0 0 0 0 21.255518
-4.7343655 3.3361685 3.5401797 0 0 0 0 21.329725
-4.5636954 3.4395103 3.1401861 0 0 0 0 21.413824
-4.6543312 3.3407769 3.1452012 0 0 0 0 21.433611
-4.8160295 1.6026852 3.2209144 0 0 0 0 21.326765
-4.9462156 1.5244882 3.2930152 0 0 0 0 21.346552
-4.776279 1.6070647 3.0499105 0 0 0 0 21.361391
-0.48869044 0.20151141 0.2640312 0 0 0 0 21.371286
-4.7489758 1.5826352 2.8808851 0 0 0 0 21.396021
-0.46723765 0.16816112 0.24603613 0 0 0 0 21.410864
-0.45395142 0.12091966 0.26097342 0 0 0 0 21.420755
-0.50258148 0.14364442 0.27710187 0 0 0 0 21.435598
-0.48652413 0.14941409 0.25311762 0 0 0 0 21.450438
-0.45129824 0.09884569 0.25802031 0 0 0 0 21.460333
-0.50993651 0.12071624 0.27916107 0 0 0 0 21.475172
-0.4948802 0.12650339 0.25417829 0 0 0 0 21.490015
-0.45760375 0.078904137 0.26008254 0 0 0 0 21.49991
-0.52128601 0.097846352 0.28322589 0 0 0 0 21.51475
-0.46937054 0.096092634 0.23718245 0 0 0 0 21.529593
-0.45594448 0.056844298 0.25813106 0 0 0 0 21.539484
-0.55801737 0.045299005 0.34226519 0 0 0 0 21.544432
-0.54160833 0.076105542 0.2933045 0 0 0 0 21.554327
-0.47170925 0.074092291 0.23623641 0 0 0 0 21.569166
-0.45426604 0.035783146 0.25718102 0 0 0 0 21.579062
-0.55340177 0.020188382 0.34030515 0 0 0 0 21.584009
-0.49010015 0.046314541 0.26227432 0 0 0 0 21.593901
-0.46108595 0.049900897 0.22926992 0 0 0 0 21.608744
-0.54246813 0.018023703 0.3123576 0 0 0 0 21.618635
-0.542759 -0.0030083731 0.33433971 0 0 0 0 21.623583
-0.45549646 0.021774646 0.24127488 0 0 0 0 21.633478
-0.45444155 0.026768856 0.22431047 0 0 0 0 21.648317
-0.54681003 -0.0049554282 0.31541291 0 0 0 0 21.658213
-0.54110318 -0.026076261 0.33538684 0 0 0 0 21.66316
-0.47479334 0.0010160146 0.25335383 0 0 0 0 21.673052
-0.45077309 0.0068564932 0.22193779 0 0 0 0 21.481607
-0.5452193 -0.029820411 0.31603816 0 0 0 0 21.491503
-0.55551505 -0.051710047 0.34703267 0 0 0 0 21.49645
-0.53815919 -0.023909964 0.29106665 0 0 0 0 21.506342
-0.4931002 -0.016558969 0.24604499 0 0 0 0 21.521185
-0.5505892 -0.054787349 0.32209215 0 0 0 0 21.531076
-0.56988853 -0.077548116 0.36009783 0 0 0 0 21.536024
-0.54154712 -0.049904674 0.29511657 0 0 0 0 21.545919
-0.50446731 -0.041432563 0.25310758 0 0 0 0 21.560759
-0.56296128 -0.078637965 0.31018743 0 0 0 0 21.585493
-0.4477523 -0.058300786 0.22308837 0 0 0 0 21.600336
-0.50625139 -0.097520255 0.30013525 0 0 0 0 21.610231
-0.50221783 -0.093564689 0.27716541 0 0 0 0 21.625071
-4.6664872 -1.195985 3.2343438 0 0 0 0 21.634966
-0.52225423 -0.095260561 0.26822054 0 0 0 0 21.63991
-4.6349859 -1.2966069 3.237196 0 0 0 0 21.654753
-4.5674086 -1.2373782 2.9772069 0 0 0 0 21.669592
-4.5060954 -1.3666162 3.1719582 0 0 0 0 21.67454
-0.52564752 -0.12225629 0.27326959 0 0 0 0 21.679487
-4.522234 -1.2078619 2.7562084 0 0 0 0 21.684435
-4.4726925 -1.3208987 2.9369977 0 0 0 0 21.689383
-4.561883 -1.4919927 3.2388959 0 0 0 0 21.69433
-4.5002284 -1.1910185 2.5542243 0 0 0 0 21.699274
-4.4366083 -1.2982553 2.7260027 0 0 0 0 21.704222
-4.4893727 -1.4368271 2.9728954 0 0 0 0 21.709169
-4.5514317 -1.5983127 3.2587702 0 0 0 0 21.714117
-4.3694715 -1.2710617 2.4999719 0 0 0 0 21.719065
-4.4392724 -1.4123812 2.7508841 0 0 0 0 21.724012
-4.4789658 -1.546145 2.9927659 0 0 0 0 21.728956
-4.5781732 -1.7201099 3.3086736 0 0 0 0 21.733904
-4.4073176 -1.3986787 2.5428827 0 0 0 0 21.738852
-4.4148479 -1.5198964 2.7607384 0 0 0 0 21.743799
-4.5047259 -1.6689507 3.0386672 0 0 0 0 21.748747
-4.5767994 -1.8333089 3.3405516 0 0 0 0 21.753695
-4.4331622 -1.5264748 2.5827773 0 0 0 0 21.758638
-4.4537182 -1.6505107 2.8116469 0 0 0 0 21.763586
-4.5345783 -1.7987034 3.0895646 0 0 0 0 21.768534
-4.4909825 -1.9126978 3.311362 0 0 0 0 21.773481
-4.4228668 -1.6437886 2.6016381 0 0 0 0 21.778429
-4.4685254 -1.7764734 2.8505297 0 0 0 0 21.783373
-4.4588675 -1.8859502 3.0693784 0 0 0 0 21.788321
-4.5308776 -2.0473208 3.3782668 0 0 0 0 21.793268
-4.4296794 -1.7698634 2.63451 0 0 0 0 21.798216
-4.4119701 -1.8754512 2.8463538 0 0 0 0 21.803164
-4.4927716 -2.0206528 3.1282752 0 0 0 0 21.808111
-4.5778475 -2.1878479 3.4511733 0 0 0 0 21.813055
-4.4928684 -1.9241415 2.7034197 0 0 0 0 21.818003
-4.4248056 -2.004447 2.8882301 0 0 0 0 21.82295
-4.5237293 -2.1594021 3.1871631 0 0 0 0 21.827898
-4.6148314 -2.3295219 3.5200653 0 0 0 0 21.832846
-4.3729992 -2.0000165 2.6621914 0 0 0 0 21.837793
-4.4668875 -2.1520357 2.9521213 0 0 0 0 21.842737
-4.5547204 -2.301156 3.249047 0 0 0 0 21.847685
-4.6458244 -2.4722872 3.5889478 0 0 0 0 21.852633
-4.4493489 -2.1671185 2.7451017 0 0 0 0 21.85758
-4.5029788 -2.3007152 3.015003 0 0 0 0 21.862528
-4.5847759 -2.4479303 3.3139234 0 0 0 0 21.867476
-4.6728568 -2.6181126 3.6568215 0 0 0 0 21.872419
-4.474463 -2.3169518 2.7999678 0 0 0 0 21.877367
-4.5361066 -2.4524419 3.078877 0 0 0 0 21.882315
-4.6199198 -2.6016381 3.3847973 0 0 0 0 21.887262
-4.7090015 -2.7728171 3.7346957 0 0 0 0 21.89221
-4.5086923 -2.4756618 2.862834 0 0 0 0 21.897154
-4.5713525 -2.6131475 3.1487422 0 0 0 0 21.902102
-4.657167 -2.7633252 3.4616637 0 0 0 0 21.907049
-5.0184808 -3.1027625 4.0376968 0 0 0 0 21.911997
-4.5470362 -2.6433234 2.9336939 0 0 0 0 21.916945
-4.6086726 -2.7798307 3.2236021 0 0 0 0 21.921892
-4.9667649 -3.1002536 3.7486556 0 0 0 0 21.926836
-5.0750718 -3.2912147 4.1445527 0 0 0 0 21.931784
-4.578392 -2.8120866 3.0015435 0 0 0 0 21.936731
-4.9164162 -3.1257744 3.4965792 0 0 0 0 21.941679
-5.0143819 -3.2898247 3.8444984 0 0 0 0 21.946627
-5.0863461 -3.4562955 4.21738 0 0 0 0 21.951574
-4.8857894 -3.1672072 3.2603054 0 0 0 0 21.832983
-4.9535413 -3.313663 3.5822084 0 0 0 0 21.837931
-5.0575824 -3.4826279 3.9421294 0 0 0 0 21.842878
-5.0255299 -3.5735333 4.2319741 0 0 0 0 21.847822
-4.9417505 -3.3786528 3.3591299 0 0 0 0 21.85277
-5.0104737 -3.5241048 3.6880355 0 0 0 0 21.857718
-5.1074495 -3.6891789 4.0489526 0 0 0 0 21.862665
-4.9621949 -3.6926486 4.2477641 0 0 0 0 21.867613
-4.9826689 -3.5877993 3.4524906 0 0 0 0 21.872561
-5.0473418 -3.7312872 3.7864099 0 0 0 0 21.877504
-5.1452651 -3.89432 4.1533504 0 0 0 0 21.882452
-4.883635 -3.7983851 4.2531209 0 0 0 0 21.8874
-5.0277734 -3.8104057 3.5553102 0 0 0 0 21.892347
-5.1146479 -3.9695926 3.9122403 0 0 0 0 21.897295
-5.0953236 -4.042263 4.1901326 0 0 0 0 21.902239
-4.8041129 -3.9047208 4.2589154 0 0 0 0 21.907187
-5.090199 -4.0567794 3.6761243 0 0 0 0 21.912134
-5.1517878 -4.1963305 4.0220447 0 0 0 0 21.917082
-5.0119796 -4.1616688 4.2019062 0 0 0 0 21.922029
-4.7326779 -4.017942 4.2727137 0 0 0 0 21.926977
-4.992959 -4.1833916 3.6868706 0 0 0 0 21.931921
-4.9340525 -4.2146063 3.9327607 0 0 0 0 21.936869
-4.8800907 -4.2417412 4.1746635 0 0 0 0 21.941816
-4.6511421 -4.1243014 4.2805071 0 0 0 0 21.946764
-4.7742105 -4.201685 3.6065862 0 0 0 0 21.951712
-4.72225 -4.2287869 3.8474915 0 0 0 0 21.956659
-4.68537 -4.2616696 4.0934105 0 0 0 0 21.961603
-4.5746498 -4.2345905 4.2953033 0 0 0 0 21.966551
-4.5613971 -4.2158813 3.5283165 0 0 0 0 21.971498
-4.5164099 -4.2408724 3.7662342 0 0 0 0 21.976446
-4.484437 -4.2666678 4.0031686 0 0 0 0 21.981394
-4.4515767 -4.3025103 4.2670894 0 0 0 0 21.986341
-4.367723 -4.2408028 3.4660604 0 0 0 0 21.991285
-4.3205318 -4.2508054 3.6899941 0 0 0 0 21.996233
-4.3026423 -4.2823935 3.9299407 0 0 0 0 22.001181
-4.2736745 -4.3101635 4.1848774 0 0 0 0 22.006128
-4.1546149 -4.2349758 3.3848171 0 0 0 0 22.011076
-4.1367135 -4.2655602 3.6227651 0 0 0 0 22.01602
-4.1247716 -4.2930512 3.8567252 0 0 0 0 22.020967
-4.1048188 -4.3216844 4.1106725 0 0 0 0 22.025915
-3.9779077 -4.2586379 3.3325877 0 0 0 0 22.030863
-3.960886 -4.2801943 3.5605483 0 0 0 0 22.03581
-3.9457967 -4.2967153 3.7835176 0 0 0 0 22.040758
-3.9439692 -4.334084 4.0414791 0 0 0 0 22.045702
-3.8000569 -4.2723017 3.27637 0 0 0 0 22.05065
-3.7900369 -4.2937503 3.5023403 0 0 0 0 22.055597
-3.7849772 -4.31212 3.7243209 0 0 0 0 22.060545
-3.7881248 -4.3474092 3.978292 0 0 0 0 22.065493
-3.6332653 -4.2908039 3.2291622 0 0 0 0 22.07044
-3.6251523 -4.3052125 3.4471438 0 0 0 0 22.075384
-3.6352317 -4.3333654 3.6741331 0 0 0 0 22.080332
-3.6240313 -4.3428311 3.9031167 0 0 0 0 22.085279
-3.4673986 -4.3042841 3.181963 0 0 0 0 22.090227
-3.4662745 -4.317584 3.3969555 0 0 0 0 22.095175
-3.4732232 -4.3357663 3.6119525 0 0 0 0 22.100122
-3.4852688 -4.3629055 3.852946 0 0 0 0 22.105066
-3.3095531 -4.3196435 3.1397729 0 0 0 0 22.110014
-3.3093503 -4.3269196 3.347774 0 0 0 0 22.114962
-3.3304095 -4.3528991 3.5667808 0 0 0 0 22.119909
-3.3423638 -4.3730273 3.7987826 0 0 0 0 22.124857
-3.1607683 -4.3398724 3.1055899 0 0 0 0 22.129801
-3.1665702 -4.3470545 3.3095994 0 0 0 0 22.134748
-3.1844828 -4.3620644 3.5176153 0 0 0 0 22.139696
-3.2003746 -4.3771238 3.7416286 0 0 0 0 22.144644
-3.0098822 -4.3531203 3.0694132 0 0 0 0 22.149591
-3.0237288 -4.363183 3.2724299 0 0 0 0 22.154539
-3.0445776 -4.3731403 3.4734561 0 0 0 0 22.159483
-3.0715942 -4.3970423 3.7014737 0 0 0 0 22.164431
-2.8598962 -4.359345 3.0312474 0 0 0 0 22.169378
-2.8807871 -4.3723025 3.2332699 0 0 0 0 22.174326
-2.9086816 -4.3851547 3.432302 0 0 0 0 22.179274
-2.9386344 -4.4040041 3.6533296 0 0 0 0 22.184221
-2.719013 -4.3734403 3.0020845 0 0 0 0 22.189165
-2.7418139 -4.3793578 3.1951184 0 0 0 0 22.194113
-2.780874 -4.4040546 3.400151 0 0 0 0 22.19906
-2.8096838 -4.4119039 3.6081903 0 0 0 0 22.204008
-2.5770166 -4.3795395 2.9699309 0 0 0 0 22.208956
-2.6099291 -4.3933139 3.1659687 0 0 0 0 22.213903
-2.6488726 -4.408999 3.3600121 0 0 0 0 22.218847
-2.6847811 -4.4237471 3.5700526 0 0 0 0 22.223795
-2.4451926 -4.3984985 2.948776 0 0 0 0 22.228743
-2.4769588 -4.4012761 3.1348257 0 0 0 0 22.23369
-2.5240018 -4.4238453 3.3298714 0 0 0 0 22.238638
-2.565902 -4.4375 3.5349209 0 0 0 0 22.243582
-2.3060918 -4.3975415 2.9176364 0 0 0 0 22.248529
-2.3510797 -4.4161372 3.1106842 0 0 0 0 22.253477
-2.3970056 -4.4297099 3.2957394 0 0 0 0 22.258425
-2.4449508 -4.4462752 3.4987934 0 0 0 0 22.263372
-2.1843536 -4.4233532 2.9064877 0 0 0 0 22.26832
-2.2261693 -4.4289794 3.0875471 0 0 0 0 22.273264
-2.2719665 -4.4325385 3.2606142 0 0 0 0 22.278212
-2.3249283 -4.4500289 3.4616737 0 0 0 0 22.283159
-2.055352 -4.4302506 2.8863533 0 0 0 0 22.288107
-2.1001203 -4.4318237 3.0594215 0 0 0 0 22.293055
-2.1571488 -4.4522347 3.2424827 0 0 0 0 22.298002
-2.211024 -4.4626989 3.4325521 0 0 0 0 22.302946
-1.93183 -4.4404373 2.8696716 0 0 0 0 22.060648
-1.9847066 -4.4498844 3.0457425 0 0 0 0 22.065596
-2.0364537 -4.4493318 3.2088237 0 0 0 0 22.070543
-2.1005516 -4.4756417 3.4058888 0 0 0 0 22.075491
-1.8088804 -4.4512825 2.8555377 0 0 0 0 22.080439
-1.8626809 -4.4547043 3.0226169 0 0 0 0 22.085386
-1.9225423 -4.4620361 3.1876996 0 0 0 0 22.09033
-1.9865358 -4.4803352 3.374774 0 0 0 0 22.095278
-1.6879126 -4.4610939 2.8434079 0 0 0 0 22.100225
-1.7446769 -4.4614654 3.0044949 0 0 0 0 22.105173
-1.8116808 -4.4786973 3.1725748 0 0 0 0 22.110121
-1.8765712 -4.4889698 3.3486605 0 0 0 0 22.115068
-1.5679134 -4.4688859 2.832283 0 0 0 0 22.120012
-1.6328213 -4.4791417 2.9953687 0 0 0 0 22.12496
-1.69664 -4.4824014 3.1484613 0 0 0 0 22.129908
-1.7665621 -4.4945989 3.322551 0 0 0 0 22.134855
-1.4551195 -4.4915795 2.8311498 0 0 0 0 22.139803
-1.5178106 -4.4858513 2.981252 0 0 0 0 22.144747
-1.5866755 -4.4920359 3.1323476 0 0 0 0 22.149694
-1.6606598 -4.5081716 3.3034379 0 0 0 0 22.154642
-1.3350034 -4.4913588 2.8190358 0 0 0 0 22.15959
-1.4037833 -4.4915414 2.9681385 0 0 0 0 22.164537
-1.4777356 -4.503653 3.1192338 0 0 0 0 22.169485
-1.5526308 -4.5127635 3.2803338 0 0 0 0 22.174429
-1.2210907 -4.5060554 2.8179123 0 0 0 0 22.179377
-1.2949302 -4.5101643 2.966017 0 0 0 0 22.184324
-1.369738 -4.5112495 3.1051266 0 0 0 0 22.189272
-1.4486672 -4.5222974 3.2622294 0 0 0 0 22.19422
-1.1102711 -4.5277095 2.8227849 0 0 0 0 22.199167
-1.1849797 -4.5217924 2.959903 0 0 0 0 22.204111
-1.2628071 -4.5238295 3.0950153 0 0 0 0 22.209059
-1.346769 -4.5368018 3.2491224 0 0 0 0 22.214006
-0.99728274 -4.5373812 2.82267 0 0 0 0 22.218954
-1.0770123 -4.5323863 2.9547937 0 0 0 0 22.223902
-1.1578317 -4.5333753 3.0849109 0 0 0 0 22.228849
-1.2427592 -4.5433264 3.232023 0 0 0 0 22.233793
-0.88427931 -4.5460477 2.822557 0 0 0 0 22.238741
-0.96806818 -4.5449944 2.9536808 0 0 0 0 22.243689
-1.0528678 -4.5439181 3.0768061 0 0 0 0 22.248636
-1.1397198 -4.5478315 3.2149277 0 0 0 0 22.253584
-0.773395 -4.5636873 2.8304365 0 0 0 0 22.258528
-0.86116272 -4.5605707 2.9555681 0 0 0 0 22.263475
-0.94684529 -4.5504699 3.0687048 0 0 0 0 22.268423
-1.0387721 -4.5593095 3.2048273 0 0 0 0 22.273371
-0.66135746 -4.5703311 2.8333285 0 0 0 0 22.278318
-0.75094134 -4.5531712 2.944479 0 0 0 0 22.283266
-0.84607798 -4.5759587 3.0745885 0 0 0 0 22.28821
-0.93778163 -4.567781 3.1937308 0 0 0 0 22.293158
-0.55138499 -4.5819454 2.8412175 0 0 0 0 22.298105
-0.6461789 -4.5797191 2.9573567 0 0 0 0 22.303053
-0.74207765 -4.5844755 3.0704889 0 0 0 0 22.308001
-0.83674872 -4.573247 3.1816387 0 0 0 0 22.312948
-0.44045001 -4.5965729 2.8531027 0 0 0 0 22.317892
-0.53912854 -4.585278 2.9582577 0 0 0 0 22.32284
-0.63803506 -4.5899858 3.0653934 0 0 0 0 22.327787
-0.73682129 -4.5867004 3.1765389 0 0 0 0 22.332735
-0.33048543 -4.6091795 2.8649917 0 0 0 0 22.337683
-0.43213022 -4.5948358 2.9631541 0 0 0 0 22.34263
-0.53509647 -4.6034851 3.0682905 0 0 0 0 22.347574
-0.63783693 -4.5961332 3.1704457 0 0 0 0 22.352522
-0.21851787 -4.6218123 2.8788791 0 0 0 0 22.35747
-0.327319 -4.6183701 2.9780376 0 0 0 0 22.362417
-0.43107516 -4.61099 3.0681939 0 0 0 0 22.367365
-0.53786379 -4.6065774 3.1663506 0 0 0 0 22.372313
-0.10857424 -4.6364131 2.8957672 0 0 0 0 22.377256
-0.21927516 -4.6249318 2.9839375 0 0 0 0 22.382204
-0.32805204 -4.6184764 3.0690989 0 0 0 0 22.387152
-0.43791354 -4.6190214 3.1662536 0 0 0 0 22.392099
0.0013987032 -4.6490083 2.9126582 0 0 0 0 22.397047
-0.11326852 -4.6344643 2.9938374 0 0 0 0 22.401991
-0.22504021 -4.6269593 3.0720036 0 0 0 0 22.406939
-0.33897677 -4.6324453 3.1661575 0 0 0 0 22.411886
0.11345504 -4.6556249 2.9275546 0 0 0 0 22.416834
-0.0072458275 -4.642992 3.0047386 0 0 0 0 22.421782
-0.12213293 -4.6434445 3.0818994 0 0 0 0 22.426729
-0.23891631 -4.6368747 3.162071 0 0 0 0 22.431673
0.2262875 -4.6792645 2.9564297 0 0 0 0 22.436621
0.10068513 -4.6585493 3.0216298 0 0 0 0 22.441568
-0.019047594 -4.6469183 3.0858111 0 0 0 0 22.446516
-0.1379863 -4.6513224 3.1669719 0 0 0 0 22.451464
0.33934861 -4.6858864 2.9743261 0 0 0 0 22.456411
0.20868659 -4.6690998 3.0375276 0 0 0 0 22.461355
0.085878864 -4.6624246 3.0987067 0 0 0 0 22.466303
-0.038868185 -4.6517272 3.1628928 0 0 0 0 22.471251
0.45332208 -4.6995268 3.0012131 0 0 0 0 22.476198
0.31755561 -4.6896663 3.0604126 0 0 0 0 22.481146
0.19075452 -4.6819296 3.115598 0 0 0 0 22.486094
0.062065519 -4.6661663 3.169795 0 0 0 0 22.491037
0.56920326 -4.7201943 3.0330901 0 0 0 0 22.495985
0.42853609 -4.7022533 3.0813053 0 0 0 0 22.500933
0.2957778 -4.6904221 3.1255028 0 0 0 0 22.50588
0.16492261 -4.6866355 3.182688 0 0 0 0 22.510828
0.68515474 -4.7358551 3.0639737 0 0 0 0 22.515772
0.53851849 -4.7148213 3.1032 0 0 0 0 22.52072
0.4026998 -4.7069464 3.1443963 0 0 0 0 22.525667
0.26695538 -4.6940775 3.1885984 0 0 0 0 22.530615
0.8050307 -4.7452154 3.093642 0 0 0 0 22.834692
0.65325975 -4.7331729 3.1318574 0 0 0 0 22.839636
0.51153129 -4.7172594 3.1610646 0 0 0 0 22.844584
0.37180978 -4.7013817 3.1962693 0 0 0 0 22.849531
0.92494202 -4.7648787 3.1315222 0 0 0 0 22.854479
0.76627845 -4.7437291 3.1567564 0 0 0 0 22.859426
0.61961836 -4.7217379 3.1749766 0 0 0 0 22.864374
0.47672024 -4.718822 3.2111697 0 0 0 0 22.869318
1.0488067 -4.7885966 3.1753936 0 0 0 0 22.874266
0.88032472 -4.7522931 3.1816571 0 0 0 0 22.879213
0.73143727 -4.7472806 3.20386 0 0 0 0 22.884161
0.58274931 -4.7272668 3.2220798 0 0 0 0 22.889109
1.1698536 -4.7982593 3.2112854 0 0 0 0 22.894056
0.99820739 -4.7739172 3.2175386 0 0 0 0 22.899
0.84149027 -4.7547808 3.2227669 0 0 0 0 22.903948
0.68777883 -4.735692 3.2329915 0 0 0 0 22.908895
1.2967875 -4.8170047 3.2551599 0 0 0 0 22.913843
1.1161962 -4.7875319 3.2504299 0 0 0 0 22.918791
0.95257074 -4.7602878 3.2416759 0 0 0 0 22.923738
0.79578739 -4.7461586 3.248898 0 0 0 0 22.928682
1.422815 -4.8287282 3.2970448 0 0 0 0 22.93363
1.2361606 -4.8031697 3.2853167 0 0 0 0 22.938578
1.0703745 -4.7879033 3.2785513 0 0 0 0 22.943525
0.90661871 -4.7706699 3.2747853 0 0 0 0 22.948473
1.5527834 -4.8455067 3.3459194 0 0 0 0 22.953417
1.3600526 -4.8248625 3.3271928 0 0 0 0 22.958364
1.1853828 -4.7994604 3.3044496 0 0 0 0 22.963312
1.0166702 -4.7781529 3.2916939 0 0 0 0 22.96826
1.6857287 -4.8643222 3.3977888 0 0 0 0 22.973207
1.485039 -4.8395615 3.3680766 0 0 0 0 22.978155
1.3034221 -4.8090553 3.3333471 0 0 0 0 22.983099
1.1306087 -4.7946911 3.3155882 0 0 0 0 22.988047
1.8226794 -4.8831887 3.4536541 0 0 0 0 22.992994
1.6101301 -4.846251 3.4059696 0 0 0 0 22.997942
1.4291458 -4.84377 3.3802068 0 0 0 0 23.00289
1.2446265 -4.805222 3.3374894 0 0 0 0 23.007837
1.9635824 -4.9061069 3.5145104 0 0 0 0 23.012781
1.7439317 -4.8760724 3.4608264 0 0 0 0 23.017729
1.5492671 -4.8473797 3.4091098 0 0 0 0 23.022676
1.3625708 -4.821806 3.36538 0 0 0 0 23.027624
2.106528 -4.9260459 3.5763688 0 0 0 0 23.032572
1.8778639 -4.8958831 3.5116951 0 0 0 0 23.037519
1.6742363 -4.8630581 3.4459939 0 0 0 0 23.042463
1.4824924 -4.840414 3.3962662 0 0 0 0 23.047411
2.2554541 -4.9480643 3.6442184 0 0 0 0 23.052359
2.0118995 -4.9076824 3.558574 0 0 0 0 23.057306
1.8022243 -4.8777747 3.4868762 0 0 0 0 23.062254
1.6044807 -4.8540421 3.4261563 0 0 0 0 23.067198
2.4053967 -4.9690905 3.7140684 0 0 0 0 23.072145
2.1538031 -4.9305954 3.6184311 0 0 0 0 23.077093
1.9341758 -4.8955402 3.5307505 0 0 0 0 23.082041
1.7265472 -4.8616614 3.4540541 0 0 0 0 23.086988
2.5701199 -5.008328 3.8018811 0 0 0 0 23.091936
2.294822 -4.9444823 3.6733005 0 0 0 0 23.09688
2.069145 -4.9123425 3.5776236 0 0 0 0 23.101828
1.8564167 -4.885396 3.4959247 0 0 0 0 23.106775
2.7271607 -5.0224342 3.8747323 0 0 0 0 23.111723
2.4467094 -4.969522 3.7411447 0 0 0 0 23.116671
2.2090683 -4.9332108 3.6304865 0 0 0 0 23.121618
1.9864264 -4.8981166 3.5318084 0 0 0 0 23.126562
2.8960569 -5.0487056 3.9605563 0 0 0 0 23.13151
2.6094141 -5.0097141 3.8229597 0 0 0 0 23.136457
2.3520329 -4.9511132 3.68435 0 0 0 0 23.141405
2.1223273 -4.91992 3.5766752 0 0 0 0 23.146353
3.0689728 -5.0740266 4.0513773 0 0 0 0 23.1513
2.7653975 -5.0277915 3.8918087 0 0 0 0 23.156244
2.5028639 -4.9801235 3.7481923 0 0 0 0 23.161192
2.2602687 -4.9387431 3.6215439 0 0 0 0 23.16614
3.2518201 -5.1054802 4.1511812 0 0 0 0 23.171087
2.9273353 -5.0499468 3.9666471 0 0 0 0 23.176035
2.6587243 -5.0071945 3.8140316 0 0 0 0 23.180979
2.4042032 -4.9586434 3.6714051 0 0 0 0 23.185926
3.4338093 -5.1259074 4.2469988 0 0 0 0 23.190874
3.0992322 -5.0762362 4.0514693 0 0 0 0 23.195822
2.8146629 -5.0282555 3.8778784 0 0 0 0 23.200769
2.5570042 -4.989665 3.7312436 0 0 0 0 23.205717
3.6365607 -5.166626 4.3657703 0 0 0 0 23.210661
3.2780967 -5.1056151 4.1422815 0 0 0 0 23.215609
2.9766219 -5.0483937 3.9477198 0 0 0 0 23.220556
2.7079577 -5.0086465 3.7850993 0 0 0 0 23.225504
3.8335395 -5.1892447 4.4745703 0 0 0 0 23.230452
3.4619906 -5.1330523 4.2350903 0 0 0 0 23.235399
3.1474853 -5.0766501 4.0255432 0 0 0 0 23.240343
2.8639286 -5.0266886 3.8419507 0 0 0 0 23.245291
4.0473928 -5.2230935 4.6003385 0 0 0 0 23.250238
3.6548562 -5.1636076 4.3368864 0 0 0 0 23.255186
3.322428 -5.0989499 4.1033683 0 0 0 0 23.260134
3.0258672 -5.0478077 3.9047923 0 0 0 0 23.265081
4.2712545 -5.2570705 4.7330956 0 0 0 0 23.270025
3.8537388 -5.1932349 4.4416776 0 0 0 0 23.274973
3.5053279 -5.1253538 4.1891809 0 0 0 0 23.279921
3.1938095 -5.0689998 3.9706278 0 0 0 0 23.284868
4.5189085 -5.3093748 4.8898058 0 0 0 0 23.289816
4.0665579 -5.2290483 4.5594459 0 0 0 0 23.29476
3.7011242 -5.1609306 4.2869692 0 0 0 0 23.299707
3.3726602 -5.0983386 4.047442 0 0 0 0 23.304655
4.7591538 -5.3441901 5.0367632 0 0 0 0 23.063692
4.282814 -5.2613664 4.6794505 0 0 0 0 23.068636
3.8983934 -5.1908503 4.3840117 0 0 0 0 23.073584
3.5519845 -5.1228876 4.1235237 0 0 0 0 23.078531
5.0091281 -5.3715768 5.1894927 0 0 0 0 23.083479
4.5146284 -5.2984977 4.8101892 0 0 0 0 23.088427
4.1033335 -5.2155967 4.4847965 0 0 0 0 23.093374
3.7458141 -5.1544795 4.2103128 0 0 0 0 23.098318
5.2789879 -5.409235 5.3591876 0 0 0 0 23.103266
4.7594309 -5.3378029 4.9529119 0 0 0 0 23.108213
4.3251305 -5.2525744 4.6005478 0 0 0 0 23.113161
3.9447269 -5.1801291 4.2991037 0 0 0 0 23.118109
5.5638647 -5.447094 5.5428662 0 0 0 0 23.123056
5.0221701 -5.3833504 5.1096067 0 0 0 0 23.128
4.555975 -5.2866664 4.7212934 0 0 0 0 23.132948
4.1536064 -5.2089081 4.3938808 0 0 0 0 23.137896
5.8934011 -5.5145788 5.7664585 0 0 0 0 23.142843
5.2999105 -5.4300957 5.2782836 0 0 0 0 23.147791
4.802742 -5.3279734 4.8560123 0 0 0 0 23.152735
4.3764215 -5.2438745 4.5006347 0 0 0 0 23.157682
6.2350254 -5.576211 5.9960456 0 0 0 0 23.16263
5.5550609 -5.4434943 5.4210272 0 0 0 0 23.167578
5.0625062 -5.3704476 4.9987164 0 0 0 0 23.172525
4.6161585 -5.286068 4.6203618 0 0 0 0 23.177473
6.613503 -5.6523509 6.2585735 0 0 0 0 23.182417
5.8786178 -5.5078583 5.6256323 0 0 0 0 23.187365
5.3402328 -5.41716 5.1543951 0 0 0 0 23.192312
4.8609905 -5.3213162 4.7410922 0 0 0 0 23.19726
7.0130663 -5.7237659 6.5370841 0 0 0 0 23.202208
6.1974306 -5.5521293 5.8212681 0 0 0 0 23.207155
5.5963979 -5.428544 5.2871413 0 0 0 0 23.212099
5.126709 -5.3668456 4.8777866 0 0 0 0 23.217047
7.3355389 -5.7190518 6.7407746 0 0 0 0 23.221994
6.5629735 -5.6210465 6.0578222 0 0 0 0 23.226942
5.9189801 -5.4898582 5.4777536 0 0 0 0 23.23189
5.4025135 -5.4064975 5.0194783 0 0 0 0 23.236837
7.4886665 -5.5729027 6.786828 0 0 0 0 23.241781
6.9416575 -5.6801238 6.301374 0 0 0 0 23.246729
6.2506723 -5.5432763 5.6713657 0 0 0 0 23.251677
5.6705689 -5.4260182 5.1492028 0 0 0 0 23.256624
7.6408291 -5.4237361 6.835887 0 0 0 0 23.261572
7.3978367 -5.7842741 6.610785 0 0 0 0 23.26652
6.6063609 -5.5990124 5.8839488 0 0 0 0 23.271463
5.9922142 -5.4812794 5.3238249 0 0 0 0 23.276411
7.7681727 -5.2582135 6.865993 0 0 0 0 23.281359
7.744308 -5.7798357 6.8154511 0 0 0 0 23.286306
6.9800868 -5.6529756 6.105514 0 0 0 0 23.291254
6.3269467 -5.5307016 5.5054407 0 0 0 0 23.296198
7.8945246 -5.0916739 6.8991017 0 0 0 0 23.301146
7.9372001 -5.6532111 6.885437 0 0 0 0 23.306093
7.4085612 -5.7306838 6.3709912 0 0 0 0 23.311041
6.6915975 -5.5885196 5.7070131 0 0 0 0 23.315989
8.0298271 -4.9292574 6.9431958 0 0 0 0 23.320936
8.0894432 -5.4960074 6.9235063 0 0 0 0 23.32588
7.8819413 -5.8189902 6.6684055 0 0 0 0 23.330828
7.0970869 -5.6618834 5.9385223 0 0 0 0 23.335775
8.1452627 -4.7545586 6.9733267 0 0 0 0 23.340723
8.2397423 -5.3337693 6.9615836 0 0 0 0 23.345671
8.3208866 -5.8607807 6.9319153 0 0 0 0 23.350618
7.5286474 -5.7315817 6.1860075 0 0 0 0 23.355562
8.2765865 -4.589076 7.0174289 0 0 0 0 23.36051
8.3890619 -5.1695127 7.0016646 0 0 0 0 23.365458
8.5398026 -5.73247 7.0098753 0 0 0 0 23.370405
7.9931793 -5.8057065 6.4534512 0 0 0 0 23.375353
8.4158907 -4.4257059 7.0755196 0 0 0 0 23.380301
8.5443535 -5.0073333 7.0487366 0 0 0 0 23.385244
8.7160883 -5.5715532 7.0529227 0 0 0 0 23.390192
8.5383997 -5.9099188 6.7797699 0 0 0 0 23.39514
8.5532103 -4.2603002 7.1316152 0 0 0 0 23.400087
8.7096233 -4.8472886 7.1077948 0 0 0 0 23.405035
8.8904076 -5.4076037 7.0979762 0 0 0 0 23.409979
9.0462313 -5.963572 7.0691919 0 0 0 0 23.414927
8.5940485 -4.0465536 7.1128769 0 0 0 0 23.419874
7.2055564 -3.8041153 5.8167806 0 0 0 0 23.424822
9.0608225 -5.2355947 7.1440434 0 0 0 0 23.42977
9.3101034 -5.8398228 7.1650982 0 0 0 0 23.434717
8.7254009 -3.8770597 7.1699839 0 0 0 0 23.439661
9.2362061 -5.0656466 7.1951027 0 0 0 0 23.449556
9.5174532 -5.6742826 7.2201171 0 0 0 0 23.454504
8.7741299 -3.6714232 7.164227 0 0 0 0 23.459452
9.399703 -4.8855276 7.2391877 0 0 0 0 23.469343
9.713954 -5.4955831 7.2681646 0 0 0 0 23.474291
8.7530985 -3.4408274 7.104578 0 0 0 0 23.479239
9.1968327 -4.1006551 7.2303491 0 0 0 0 23.484186
7.9995985 -3.9309711 6.090939 0 0 0 0 23.489134
9.9144764 -5.3149304 7.321209 0 0 0 0 23.494081
8.8276558 -3.2495508 7.1267738 0 0 0 0 23.499025
9.3313398 -3.9171629 7.27847 0 0 0 0 23.503973
9.6651411 -4.4844308 7.2894745 0 0 0 0 23.508921
10.102135 -5.1220937 7.3672829 0 0 0 0 23.513868
8.8992023 -3.0582328 7.1499734 0 0 0 0 23.518816
9.3722782 -3.6923885 7.2577443 0 0 0 0 23.52376
9.87749 -4.3179626 7.3794885 0 0 0 0 23.528708
10.335578 -4.9488721 7.4492822 0 0 0 0 23.533655
8.9614639 -2.8600588 7.1699653 0 0 0 0 23.758276
9.4000616 -3.4635737 7.229835 0 0 0 0 23.76322
10.01531 -4.1084213 7.4164639 0 0 0 0 23.768167
10.445928 -4.7087903 7.4453483 0 0 0 0 23.773115
9.0568714 -2.6760361 7.2171278 0 0 0 0 23.778063
9.4887056 -3.2594256 7.2520294 0 0 0 0 23.78301
10.149032 -3.9008319 7.4536138 0 0 0 0 23.787958
10.528113 -4.4594836 7.4256034 0 0 0 0 23.792902
9.1093884 -2.4794426 7.2343526 0 0 0 0 23.79785
9.592267 -3.0624747 7.2891994 0 0 0 0 23.802797
10.154244 -3.643539 7.3979616 0 0 0 0 23.807745
10.66307 -4.2318749 7.4487762 0 0 0 0 23.812693
9.1788607 -2.2870739 7.2675529 0 0 0 0 23.81764
9.687891 -2.8594186 7.3253846 0 0 0 0 23.822584
10.255075 -3.4235137 7.4191613 0 0 0 0 23.827532
10.827936 -4.0126519 7.4929061 0 0 0 0 23.832479
9.2393589 -2.0915883 7.2987657 0 0 0 0 23.837427
9.7755251 -2.6542544 7.3575802 0 0 0 0 23.842375
10.36692 -3.202631 7.4513502 0 0 0 0 23.847322
11.00279 -3.7945561 7.5490246 0 0 0 0 23.852266
9.2788792 -1.8918234 7.3140073 0 0 0 0 23.857214
9.8591976 -2.4450362 7.3897848 0 0 0 0 23.862162
10.473763 -2.9806795 7.4825454 0 0 0 0 23.867109
11.159785 -3.5632217 7.5971766 0 0 0 0 23.872057
9.326376 -1.6941665 7.3402367 0 0 0 0 23.877001
9.9358711 -2.2347264 7.4209981 0 0 0 0 23.881948
10.601589 -2.7610021 7.5337143 0 0 0 0 23.886896
11.272913 -3.3173101 7.6183929 0 0 0 0 23.891844
9.3658714 -1.4954056 7.3634753 0 0 0 0 23.896791
10.010582 -2.0203881 7.4522176 0 0 0 0 23.901739
10.703485 -2.5329807 7.5679212 0 0 0 0 23.906683
11.438958 -3.0810843 7.6795411 0 0 0 0 23.911631
9.3973656 -1.2955402 7.3827243 0 0 0 0 23.916578
10.071263 -1.8068669 7.4764509 0 0 0 0 23.921526
10.819371 -2.3061404 7.6161108 0 0 0 0 23.926474
11.607019 -2.8428795 7.7456884 0 0 0 0 23.931421
9.4098473 -1.0944271 7.3889942 0 0 0 0 23.936365
10.128996 -1.5883092 7.5036926 0 0 0 0 23.941313
10.902335 -2.06987 7.6443467 0 0 0 0 23.94626
11.71625 -2.5859063 7.7739205 0 0 0 0 23.951208
9.4393368 -0.89353979 7.4132447 0 0 0 0 23.956156
10.194715 -1.3708544 7.5389247 0 0 0 0 23.961103
10.997326 -1.8317562 7.6865711 0 0 0 0 23.966047
11.86943 -2.3354998 7.8370976 0 0 0 0 23.970995
9.4557943 -0.693483 7.4285088 0 0 0 0 23.975943
10.235455 -1.1490761 7.5591874 0 0 0 0 23.98089
11.077319 -1.5914465 7.7208142 0 0 0 0 23.985838
12.007711 -2.0748982 7.8953013 0 0 0 0 23.990782
9.4692459 -0.49339202 7.4467754 0 0 0 0 23.995729
10.644116 -0.96005499 7.8550148 0 0 0 0 24.000677
11.116386 -1.3416091 7.7301111 0 0 0 0 24.005625
12.070079 -1.8013172 7.9056015 0 0 0 0 24.010572
9.4846897 -0.29332873 7.469039 0 0 0 0 24.01552
10.699937 -0.73146343 7.8932686 0 0 0 0 24.020464
11.578272 -1.1352059 8.0379028 0 0 0 0 24.025412
12.167447 -1.5291851 7.942862 0 0 0 0 24.030359
9.4820967 -0.094031967 7.4773207 0 0 0 0 24.035307
10.707787 -0.49625596 7.9005809 0 0 0 0 24.040255
11.676421 -0.88111758 8.0961399 0 0 0 0 24.045202
12.660672 -1.2941084 8.2456532 0 0 0 0 24.050146
9.4875174 0.10615639 7.496594 0 0 0 0 24.055094
10.739619 -0.26335865 7.9278646 0 0 0 0 24.060041
11.726613 -0.6194151 8.1254368 0 0 0 0 24.064989
12.781191 -1.0092579 8.3069019 0 0 0 0 24.069937
9.4689016 0.30564904 7.5018921 0 0 0 0 24.074884
10.761424 -0.031334914 7.9511566 0 0 0 0 24.079828
11.739793 -0.3552407 8.1317759 0 0 0 0 24.084776
12.885751 -0.71920377 8.3631744 0 0 0 0 24.089724
9.463273 0.50397295 7.5181737 0 0 0 0 24.094671
10.766246 0.20390138 7.9674706 0 0 0 0 24.099619
11.791966 -0.093568303 8.1710701 0 0 0 0 24.104563
12.937364 -0.42047915 8.391511 0 0 0 0 24.10951
9.4706612 0.70312583 7.5484419 0 0 0 0 24.114458
10.759026 0.43728927 7.9767942 0 0 0 0 24.119406
11.817147 0.17144701 8.1943951 0 0 0 0 24.124353
12.964948 -0.12144861 8.4048729 0 0 0 0 24.129301
9.4439754 0.89971459 7.551743 0 0 0 0 24.134245
10.764817 0.67150652 8.000104 0 0 0 0 24.139193
11.834339 0.43855807 8.2187309 0 0 0 0 24.14414
13.032584 0.18006974 8.4521942 0 0 0 0 24.149088
9.4213018 1.0972437 7.5650406 0 0 0 0 24.154036
10.753588 0.90593749 8.0134325 0 0 0 0 24.158983
11.866543 0.70647645 8.2570505 0 0 0 0 24.163927
13.073227 0.48492697 8.4865475 0 0 0 0 24.168875
9.3845711 1.29195 7.567349 0 0 0 0 24.173822
10.739362 1.1414003 8.0297632 0 0 0 0 24.17877
11.831653 0.97224104 8.2504387 0 0 0 0 24.183718
13.064806 0.78839743 8.4939508 0 0 0 0 24.188665
9.355854 1.4875466 7.5816493 0 0 0 0 24.193609
10.708065 1.3730751 8.0361071 0 0 0 0 24.198557
11.821809 1.2406807 8.2688017 0 0 0 0 24.203505
13.099458 1.0963236 8.5333109 0 0 0 0 24.208452
9.3271151 1.6821418 7.5959473 0 0 0 0 24.2134
10.664741 1.6038947 8.0384626 0 0 0 0 24.218348
11.78789 1.505419 8.2731857 0 0 0 0 24.223291
13.076032 1.4019685 8.5437298 0 0 0 0 24.228239
9.2576523 1.8742785 7.5837808 0 0 0 0 24.705317
10.632839 1.8424908 8.0533943 0 0 0 0 24.710264
11.768457 1.7816236 8.2962198 0 0 0 0 24.715208
13.069095 1.7188996 8.5678806 0 0 0 0 24.720156
9.1996861 2.0631931 7.5810909 0 0 0 0 24.725103
10.586326 2.0713081 8.0597382 0 0 0 0 24.730051
11.738364 2.0472815 8.3115854 0 0 0 0 24.734999
13.044448 2.0245323 8.5852852 0 0 0 0 24.739946
9.1467018 2.251045 7.5823941 0 0 0 0 24.74489
10.512729 2.2954409 8.0491009 0 0 0 0 24.749838
11.683201 2.3092282 8.3149729 0 0 0 0 24.754786
12.992763 2.3294756 8.5907145 0 0 0 0 24.759733
9.0957146 2.4388649 7.5906949 0 0 0 0 24.764681
9.9714489 2.4041135 7.6778102 0 0 0 0 24.769629
11.653132 2.5788732 8.3393412 0 0 0 0 24.774572
12.957097 2.636225 8.6101274 0 0 0 0 24.77952
9.0266514 2.6218939 7.5870075 0 0 0 0 24.784468
9.953887 2.6285579 7.7141156 0 0 0 0 24.789415
11.550797 2.8303618 8.316761 0 0 0 0 24.794363
12.406763 2.8269947 8.2909317 0 0 0 0 24.799307
8.9665966 2.8058116 7.5913115 0 0 0 0 24.804255
9.9574423 2.862747 7.7724094 0 0 0 0 24.809202
11.059962 2.9744046 8.0154543 0 0 0 0 24.81415
12.351924 3.1209385 8.3083487 0 0 0 0 24.819098
8.8854408 2.9829731 7.5806284 0 0 0 0 24.824045
9.887682 3.0747993 7.7737522 0 0 0 0 24.828989
11.015701 3.2301841 8.0408182 0 0 0 0 24.833937
12.285021 3.4110169 8.3207722 0 0 0 0 24.838884
8.8173466 3.1649711 7.5859365 0 0 0 0 24.843832
9.8239412 3.2887709 7.7860899 0 0 0 0 24.84878
10.915222 3.4706116 8.0322208 0 0 0 0 24.853727
12.179976 3.6915288 8.3142214 0 0 0 0 24.858671
8.7411709 3.3410594 7.5852451 0 0 0 0 24.863619
9.7401218 3.4979727 7.7844419 0 0 0 0 24.868567
10.824761 3.7129152 8.0326138 0 0 0 0 24.873514
11.91721 3.9178627 8.2027693 0 0 0 0 24.878462
