# .PCD v0.7 - Point Cloud Data file format
VERSION 0.7
FIELDS x y z normal_x normal_y normal_z intensity curvature
SIZE 4 4 4 4 4 4 4 4
TYPE F F F F F F F F
COUNT 1 1 1 1 1 1 1 1
WIDTH 976
HEIGHT 1
VIEWPOINT 0 0 0 1 0 0 0
POINTS 976
DATA ascii
2.9019957 6.7387443 6.2590766 0 0 0 0 53.184486
3.5701497 6.0405984 6.3922482 0 0 0 0 53.189438
3.2938564 6.3254247 6.3365998 0 0 0 0 53.194382
3.0227988 6.5572829 6.2900033 0 0 0 0 53.199333
2.7378175 6.7650738 6.2354712 0 0 0 0 53.204277
3.430752 6.1240344 6.37151 0 0 0 0 53.209221
3.1425488 6.381803 6.3089256 0 0 0 0 53.214172
2.8645639 6.5966334 6.2643671 0 0 0 0 53.219116
2.5716662 6.780385 6.2048845 0 0 0 0 53.224068
3.283386 6.1894174 6.334815 0 0 0 0 53.229012
2.9922395 6.4421906 6.2872438 0 0 0 0 53.233963
2.7033596 6.6239624 6.2317538 0 0 0 0 53.238907
2.4045391 6.7876868 6.1713109 0 0 0 0 53.243851
3.1430008 6.2718515 6.3180819 0 0 0 0 53.248802
2.8369691 6.4865446 6.2555957 0 0 0 0 53.253746
2.5421572 6.6512909 6.2001414 0 0 0 0 53.258698
2.2434082 6.8040276 6.1507125 0 0 0 0 53.263641
2.9996412 6.3452678 6.297368 0 0 0 0 53.268585
2.6817026 6.5298977 6.2239485 0 0 0 0 53.273537
2.3839726 6.6766353 6.1725245 0 0 0 0 53.278481
2.0773125 6.8023286 6.1151485 0 0 0 0 53.283432
2.8473189 6.400629 6.2626991 0 0 0 0 53.288376
2.5294373 6.580276 6.2042861 0 0 0 0 53.293327
2.2257969 6.7009807 6.1469092 0 0 0 0 53.298271
1.9182124 6.8096724 6.0925574 0 0 0 0 53.303215
2.696986 6.4640083 6.2370162 0 0 0 0 53.308167
2.3741984 6.6196322 6.1776457 0 0 0 0 53.31311
2.0666399 6.7193179 6.1193047 0 0 0 0 53.318062
1.7561495 6.8009892 6.0589933 0 0 0 0 53.323006
2.5456729 6.5223823 6.2113423 0 0 0 0 53.32795
2.2169855 6.6499739 6.1470213 0 0 0 0 53.332901
1.9085048 6.731657 6.0907054 0 0 0 0 53.337845
1.5960854 6.7963195 6.0314207 0 0 0 0 53.342796
2.3913836 6.5717406 6.1816897 0 0 0 0 53.351158
2.0607684 6.6833267 6.1203942 0 0 0 0 53.35611
1.7463981 6.7289667 6.0501385 0 0 0 0 53.361053
1.4370497 6.7816505 5.9998617 0 0 0 0 53.366005
2.2380829 6.6311116 6.1630211 0 0 0 0 53.370949
1.8995999 6.6956363 6.0788035 0 0 0 0 53.3759
1.5912719 6.7433233 6.0285311 0 0 0 0 53.380844
1.2810152 6.770997 5.9742875 0 0 0 0 53.385788
2.0798306 6.6684422 6.1283922 0 0 0 0 53.390739
1.7414174 6.7219772 6.0541892 0 0 0 0 53.395683
1.4371572 6.7566867 6.009923 0 0 0 0 53.400635
1.1259837 6.7613502 5.9517112 0 0 0 0 53.405579
1.9186006 6.6977544 6.0897818 0 0 0 0 53.410522
1.5862478 6.7463312 6.03157 0 0 0 0 53.415474
1.2800777 6.7570276 5.9843388 0 0 0 0 53.420418
0.97100413 6.7296834 5.9141617 0 0 0 0 53.425369
1.7623446 6.7451081 6.070137 0 0 0 0 53.430313
1.4290957 6.7656751 6.0079627 0 0 0 0 53.435257
1.1240225 6.7463622 5.9507666 0 0 0 0 53.440208
0.82000238 6.7140527 5.8935838 0 0 0 0 53.445152
1.6031333 6.7764392 6.0425205 0 0 0 0 53.450104
1.2709664 6.7750049 5.9773717 0 0 0 0 53.455048
0.9689647 6.7407079 5.9241867 0 0 0 0 53.459999
0.66904223 6.681407 5.8620272 0 0 0 0 53.464943
1.4409289 6.8047538 6.0129156 0 0 0 0 53.469887
1.1138465 6.786346 5.9537754 0 0 0 0 53.474838
0.81492615 6.7290535 5.8956118 0 0 0 0 53.479782
0.52008629 6.6477685 5.8304677 0 0 0 0 53.484734
1.279743 6.829072 5.9843144 0 0 0 0 53.489677
0.95375586 6.7836595 5.9192052 0 0 0 0 53.494621
0.6619184 6.7073975 5.8630476 0 0 0 0 53.499573
0.37312308 6.6221485 5.8088942 0 0 0 0 53.504517
1.1195596 6.856401 5.9617066 0 0 0 0 53.509468
0.79667777 6.7809906 5.8896279 0 0 0 0 53.514412
0.50989676 6.6947546 5.8394709 0 0 0 0 53.519363
0.22818978 6.5855289 5.7813296 0 0 0 0 53.524307
0.95442557 6.8616881 5.92314 0 0 0 0 53.529251
0.64060712 6.7783284 5.863049 0 0 0 0 53.534203
0.35990897 6.6701121 5.8099046 0 0 0 0 53.539146
0.084275201 6.5419068 5.7497721 0 0 0 0 53.544098
0.79228741 6.8760023 5.8975554 0 0 0 0 53.549042
0.48355183 6.770658 5.8344798 0 0 0 0 53.553986
0.20994702 6.6354599 5.7743511 0 0 0 0 53.558937
-0.053219043 6.2770743 5.5274711 0 0 0 0 53.563881
0.62916911 6.8823047 5.8669844 0 0 0 0 53.568832
0.32654083 6.7459736 5.7959323 0 0 0 0 53.573776
0.061961815 6.6158342 5.7537751 0 0 0 0 53.57872
-0.18710354 6.2244873 5.4929008 0 0 0 0 53.583672
0.46408731 6.8765912 5.8314333 0 0 0 0 53.588615
0.17249709 6.7423263 5.7783513 0 0 0 0 53.593567
-0.081732996 6.4490719 5.6103702 0 0 0 0 53.598511
-0.32099923 6.1809115 5.4683204 0 0 0 0 53.603462
0.30101508 6.8678837 5.7948823 0 0 0 0 53.608406
0.017483845 6.7256622 5.7517905 0 0 0 0 53.61335
-0.21944125 6.2913446 5.4759402 0 0 0 0 53.618301
-0.45291764 6.1553669 5.4637132 0 0 0 0 53.623245
0.13793021 6.8721938 5.7743154 0 0 0 0 53.628197
-0.13448028 6.6889939 5.7122474 0 0 0 0 53.633141
-0.35839644 6.2677579 5.4603486 0 0 0 0 53.638084
-0.57976067 6.0897989 5.4241433 0 0 0 0 53.643036
-0.024105627 6.8564911 5.7407722 0 0 0 0 53.64798
-0.28011578 6.4861774 5.5338941 0 0 0 0 53.652931
-0.49532464 6.2351727 5.4407635 0 0 0 0 53.657875
-0.70763457 6.04425 5.4045525 0 0 0 0 53.662819
-0.18613534 6.8417921 5.7112284 0 0 0 0 53.66777
-0.42295805 6.3964968 5.4563947 0 0 0 0 53.672714
-0.6312387 6.1985898 5.4201818 0 0 0 0 53.677666
-0.83249581 5.9957128 5.3849578 0 0 0 0 53.68261
-0.34916151 6.8280911 5.6846867 0 0 0 0 53.687561
-0.56688946 6.3558645 5.4228387 0 0 0 0 53.692505
-0.76613075 6.1530023 5.3936095 0 0 0 0 53.697449
-0.95634753 5.9461808 5.3673625 0 0 0 0 53.7024
-0.49167117 6.563221 5.4554043 0 0 0 0 53.707344
-0.71184266 6.3292437 5.4032683 0 0 0 0 53.712296
-0.89700711 6.1024275 5.3650336 0 0 0 0 53.717239
-1.076166 5.8806491 5.3367777 0 0 0 0 53.722183
-0.64462268 6.5235424 5.4158707 0 0 0 0 53.727135
-0.85578644 6.3016281 5.3856974 0 0 0 0 53.732079
-1.0278832 6.0568619 5.3444524 0 0 0 0 53.73703
-1.1929744 5.8121266 5.3051896 0 0 0 0 53.741974
-0.799595 6.4988742 5.3923244 0 0 0 0 53.746925
-0.99365509 6.2410073 5.3441529 0 0 0 0 53.751869
-1.1577413 6.0032916 5.3178792 0 0 0 0 53.756813
-1.3128216 5.7686219 5.2985787 0 0 0 0 53.761765
-0.95153391 6.4612069 5.3607879 0 0 0 0 53.766708
-1.1375804 6.2133985 5.3335838 0 0 0 0 53.77166
-1.2856051 5.9567399 5.3002934 0 0 0 0 53.776604
-1.4276221 5.7021136 5.2729845 0 0 0 0 53.781548
-1.1064953 6.4395471 5.3462396 0 0 0 0 53.786499
-1.2734357 6.1527896 5.2970357 0 0 0 0 53.791443
-1.4114302 5.8941817 5.2717223 0 0 0 0 53.796394
-1.5424325 5.6456189 5.2593789 0 0 0 0 53.801338
-1.2563958 6.3908815 5.3117127 0 0 0 0 53.806282
-1.4113204 6.1111946 5.27947 0 0 0 0 53.811234
-1.5372747 5.8456411 5.2581348 0 0 0 0 53.816177
-1.6532228 5.5781279 5.2357769 0 0 0 0 53.821129
-1.4046242 6.3392534 5.2809615 0 0 0 0 54.431076
-1.5474827 6.0546002 5.252717 0 0 0 0 54.436028
-1.6583672 5.7810955 5.2323732 0 0 0 0 54.440971
-1.7622515 5.509624 5.2150083 0 0 0 0 54.445923
-1.5555346 6.3055854 5.2654333 0 0 0 0 54.450867
-1.6823256 6.0029955 5.23317 0 0 0 0 54.455811
-1.7791669 5.7185469 5.210804 0 0 0 0 54.460762
-1.8730397 5.4521337 5.2054067 0 0 0 0 54.465706
-1.6983579 6.2349153 5.2229328 0 0 0 0 54.470657
-1.8131393 5.9403973 5.2066274 0 0 0 0 54.475601
-1.8999718 5.661006 5.1952286 0 0 0 0 54.480545
-1.9737756 5.3676548 5.1718135 0 0 0 0 54.485497
-1.8069549 6.0582805 5.0944781 0 0 0 0 54.49044
-1.936908 5.8568068 5.163094 0 0 0 0 54.495392
-2.0157444 5.5904732 5.1706572 0 0 0 0 54.500336
-2.0775332 5.3001866 5.1572065 0 0 0 0 54.505287
-1.8994766 5.8506851 4.9440212 0 0 0 0 54.510231
-2.0275044 5.6892653 5.0485811 0 0 0 0 54.515175
-2.1305172 5.5219483 5.1490817 0 0 0 0 54.520126
-2.1833005 5.2387166 5.1485982 0 0 0 0 54.52507
-1.9789715 5.632134 4.7855449 0 0 0 0 54.530022
-2.1010375 5.4897604 4.9060645 0 0 0 0 54.534966
-2.2081203 5.3644786 5.047523 0 0 0 0 54.539909
-2.2790258 5.1552625 5.1199927 0 0 0 0 54.544861
-2.0534844 5.423615 4.6360431 0 0 0 0 54.549805
-2.1695714 5.296288 4.7725282 0 0 0 0 54.554756
-2.275701 5.1970406 4.9379501 0 0 0 0 54.5597
-2.3747506 5.0768185 5.0993805 0 0 0 0 54.564651
-2.132055 5.2461143 4.514513 0 0 0 0 54.569595
-2.243175 5.1378312 4.6689606 0 0 0 0 54.574539
-2.3533463 5.0645995 4.8603601 0 0 0 0 54.579491
-2.467469 4.9963851 5.077764 0 0 0 0 54.584435
-2.2819886 5.2515106 4.5519381 0 0 0 0 54.589386
-2.3800409 5.1222715 4.6973777 0 0 0 0 54.59433
-2.4540825 4.9881315 4.8387604 0 0 0 0 54.599274
-2.5280917 4.8560109 4.9951396 0 0 0 0 54.604225
-2.678951 5.7794328 5.047349 0 0 0 0 54.609169
-2.6875374 5.4513893 5.0458074 0 0 0 0 54.61412
-2.4575012 4.7278514 4.6391377 0 0 0 0 54.619064
-2.5716751 4.6936817 4.891499 0 0 0 0 54.624008
-2.8036549 5.6838355 5.0078387 0 0 0 0 54.62896
-2.8132944 5.3888302 5.039258 0 0 0 0 54.633904
-2.5151269 4.5864849 4.5535073 0 0 0 0 54.638855
-2.6232979 4.5543461 4.8098497 0 0 0 0 54.643799
-2.9410369 5.3262677 5.0377145 0 0 0 0 54.653694
-2.5747662 4.4571271 4.4818678 0 0 0 0 54.658638
-2.6729314 4.4220276 4.7351875 0 0 0 0 54.663589
-3.0427055 5.2237687 4.9991536 0 0 0 0 54.673485
-2.6524656 4.3647385 4.4472294 0 0 0 0 54.678429
-2.7235732 4.2967143 4.6685195 0 0 0 0 54.683372
-3.1403525 5.1152844 4.9585905 0 0 0 0 54.693268
-2.7301662 4.2753544 4.4165874 0 0 0 0 54.698219
-2.7912612 4.203371 4.6358562 0 0 0 0 54.703163
-3.2359951 5.0058069 4.9180236 0 0 0 0 54.713058
-3.1727049 4.7341304 4.9582167 0 0 0 0 54.718002
-2.8639586 4.1210237 4.6171923 0 0 0 0 54.722954
-3.2807097 5.0223017 4.683146 0 0 0 0 54.727898
-3.2663741 4.6456909 4.9406185 0 0 0 0 54.737793
-3.0799162 4.2383456 4.8236561 0 0 0 0 54.742737
-3.3540323 4.5522723 4.9190111 0 0 0 0 54.757584
-3.2517486 4.2797599 4.9541006 0 0 0 0 54.762527
-3.4416902 4.4608564 4.9004016 0 0 0 0 54.777367
-3.0349765 3.8241117 4.5071425 0 0 0 0 54.782318
-3.5243294 4.3634582 4.8787875 0 0 0 0 54.797157
-3.0545986 3.6859109 4.4254098 0 0 0 0 54.802101
-3.5999553 4.2600827 4.8521624 0 0 0 0 54.816948
-3.1032679 3.5866418 4.3887062 0 0 0 0 54.821892
-3.6795921 4.1636982 4.83254 0 0 0 0 54.836731
-3.1499369 3.4893847 4.3549943 0 0 0 0 54.841682
-3.7782438 4.0882673 4.8409419 0 0 0 0 54.856522
-3.202615 3.4011157 4.3322883 0 0 0 0 54.861465
-3.2652996 3.3238215 4.324595 0 0 0 0 54.881256
-3.3519945 3.2694654 4.3499379 0 0 0 0 54.901047
-3.8219271 3.5742068 4.8603406 0 0 0 0 54.631294
-3.8785558 3.4759247 4.8406568 0 0 0 0 54.651085
-3.9351819 3.3796475 4.8249712 0 0 0 0 54.670868
-4.1346807 3.4502056 4.3854337 0 0 0 0 54.680763
-3.9888012 3.2813814 4.80828 0 0 0 0 54.690659
-4.0564251 3.1960785 4.8106108 0 0 0 0 54.710449
-4.118042 3.1057935 4.8069324 0 0 0 0 54.730232
-3.6826239 2.6569366 4.2383757 0 0 0 0 54.750023
-3.6992795 2.5527995 4.1975937 0 0 0 0 54.769814
-3.7389307 2.4645975 4.1838536 0 0 0 0 54.789597
-4.7461281 2.9496419 4.5269704 0 0 0 0 54.799492
-3.7905774 2.3853633 4.1861348 0 0 0 0 54.809387
-4.80265 2.8323629 4.514317 0 0 0 0 54.819283
-3.8682113 2.3220546 4.2184663 0 0 0 0 54.829178
-4.9071674 2.7429338 4.5477581 0 0 0 0 54.839066
-3.9378383 2.2517684 4.2417855 0 0 0 0 54.848961
-4.9686723 2.6276433 4.5441165 0 0 0 0 54.858856
-4.4562345 2.4241393 4.7410097 0 0 0 0 54.868752
-5.0341678 2.5143428 4.5464845 0 0 0 0 54.878647
-4.4938183 2.3219438 4.7282853 0 0 0 0 54.888542
-5.1146522 2.4079957 4.5638843 0 0 0 0 54.89843
-4.5334005 2.2227459 4.7205634 0 0 0 0 54.908325
-4.5719795 2.1235535 4.7138391 0 0 0 0 54.928116
-4.5196271 1.9836407 4.6159201 0 0 0 0 54.947906
-4.8980145 1.8670599 3.9241166 0 0 0 0 54.95285
-4.9862595 1.9371789 4.3122768 0 0 0 0 54.957794
-4.9505925 1.976735 4.6181378 0 0 0 0 54.962746
-4.1765513 1.7276281 4.2293582 0 0 0 0 54.96769
-4.986114 1.8635509 4.6094255 0 0 0 0 54.982529
-4.183187 1.6275464 4.1995473 0 0 0 0 54.98748
-5.0266232 1.7523538 4.6077251 0 0 0 0 55.002319
-4.2427607 1.5483052 4.2258549 0 0 0 0 55.007263
-5.0651274 1.640165 4.6060205 0 0 0 0 55.02211
-4.2833505 1.461122 4.2331214 0 0 0 0 55.027054
-5.1026225 1.5279844 4.6073141 0 0 0 0 55.041893
-4.3269243 1.3729306 4.2443981 0 0 0 0 55.046844
-5.137115 1.4148155 4.6076012 0 0 0 0 55.061684
-4.3694959 1.2857461 4.2576709 0 0 0 0 55.066628
-5.1596193 1.2976848 4.5968609 0 0 0 0 55.081474
-4.430028 1.2015069 4.2899899 0 0 0 0 55.086418
-5.1862125 1.18275 4.5945935 0 0 0 0 54.847099
-4.501637 1.1184018 4.3318233 0 0 0 0 54.852043
-5.2067056 1.0646342 4.5878472 0 0 0 0 54.866882
-4.6190653 1.043987 4.4192824 0 0 0 0 54.871834
-4.8906984 0.72882307 3.6824462 0 0 0 0 54.876778
-4.904181 0.8031643 3.9903967 0 0 0 0 54.881729
-5.2391815 0.95148402 4.5951276 0 0 0 0 54.886673
-4.7075162 0.95866454 4.4806771 0 0 0 0 54.891624
-4.8003321 0.59809917 3.6034138 0 0 0 0 54.896568
-4.9775887 0.69688219 4.0337791 0 0 0 0 54.901512
-4.7355332 0.75108057 4.1390576 0 0 0 0 54.906464
-4.6971259 0.85265464 4.4498301 0 0 0 0 54.911407
-4.8877029 0.48976856 3.6568377 0 0 0 0 54.916359
-4.7430806 0.64401883 4.1292615 0 0 0 0 54.926247
-4.7655926 0.76139808 4.4951792 0 0 0 0 54.931198
-0.52447003 0.047736466 0.45253101 0 0 0 0 54.941093
-4.8290448 0.66515917 4.5375218 0 0 0 0 54.950981
-0.53045219 0.026671756 0.42459875 0 0 0 0 54.955933
-0.52042842 0.035745747 0.44756722 0 0 0 0 54.960876
-0.50840908 0.045828573 0.4705289 0 0 0 0 54.965828
-0.52041173 0.013704772 0.41761988 0 0 0 0 54.975723
-0.50739616 0.022788076 0.43758011 0 0 0 0 54.980667
-0.49737951 0.032860849 0.45954719 0 0 0 0 54.985611
-0.49833754 0.04590375 0.4955405 0 0 0 0 54.990562
-0.52335078 0.0016924946 0.41967535 0 0 0 0 54.995506
-0.48735598 0.021890081 0.44956562 0 0 0 0 55.005402
-0.49030843 0.034926873 0.48756436 0 0 0 0 55.010345
-0.50429779 -0.0002059461 0.43466493 0 0 0 0 55.020241
-0.48431304 0.01089779 0.44660318 0 0 0 0 55.025192
-0.4842765 0.023942539 0.48059371 0 0 0 0 55.030136
-0.52423674 -0.022314027 0.42077264 0 0 0 0 55.03508
-0.46328318 0.013005875 0.45958182 0 0 0 0 55.049927
-0.49422005 -0.022176988 0.4257293 0 0 0 0 55.059822
-0.48421484 -0.010105283 0.4466936 0 0 0 0 55.064766
-0.52012897 -0.047303762 0.41785765 0 0 0 0 55.074661
-0.46519095 -0.0060045295 0.460675 0 0 0 0 55.0895
-0.50208604 -0.046204913 0.43384594 0 0 0 0 55.099396
-0.48311466 -0.032105245 0.44578272 0 0 0 0 55.10434
-0.5299803 -0.073338106 0.42798269 0 0 0 0 55.114235
-0.46809113 -0.026018046 0.46277243 0 0 0 0 55.129074
-0.54288024 -0.088382773 0.43907005 0 0 0 0 55.134026
-0.51293886 -0.071242213 0.4449724 0 0 0 0 55.138969
-0.49198636 -0.054136198 0.45489955 0 0 0 0 55.143921
-0.6026355 -0.11358793 0.48630065 0 0 0 0 55.153809
-0.47597265 -0.047047108 0.46988514 0 0 0 0 55.168655
-5.8676672 -1.2427441 4.4634194 0 0 0 0 55.173599
-0.53973716 -0.1003333 0.46914864 0 0 0 0 55.178543
-0.50683033 -0.079187192 0.46903718 0 0 0 0 55.183495
-5.8240633 -1.3785794 4.4565277 0 0 0 0 55.19339
-0.57157147 -0.11943977 0.49729416 0 0 0 0 55.198334
-0.48683095 -0.070082881 0.48200902 0 0 0 0 55.208229
-5.7993937 -1.518476 4.4666944 0 0 0 0 55.213173
-5.5232382 -1.2871615 4.5306301 0 0 0 0 55.218124
-0.58146811 -0.11743432 0.53635871 0 0 0 0 55.223068
-5.7677441 -1.6553453 4.4738374 0 0 0 0 55.232964
-5.4896636 -1.4130329 4.5287528 0 0 0 0 55.237907
-0.59634709 -0.13448279 0.55145478 0 0 0 0 55.242859
-0.50964743 -0.096158803 0.50417042 0 0 0 0 55.247803
-5.7271118 -1.791181 4.475955 0 0 0 0 55.252754
-5.4700379 -1.5419489 4.5399175 0 0 0 0 55.257698
-5.2239728 -1.3007869 4.5879216 0 0 0 0 55.262642
-0.56539077 -0.11933752 0.55838817 0 0 0 0 55.267593
-5.6914592 -1.927029 4.485086 0 0 0 0 55.272537
-5.4364529 -1.6678157 4.5410404 0 0 0 0 55.277489
-5.1994209 -1.4186915 4.5900574 0 0 0 0 55.282433
-0.57927662 -0.13538288 0.5724802 0 0 0 0 55.287384
-5.6478224 -2.0608451 4.4911928 0 0 0 0 55.292328
-5.3988681 -1.792663 4.5431504 0 0 0 0 55.297272
-5.1718788 -1.5355852 4.5901837 0 0 0 0 55.302223
-4.9439158 -1.2684931 4.6442008 0 0 0 0 55.307167
-5.6003313 -2.1945298 4.4959803 0 0 0 0 55.182999
-5.3733683 -1.9214394 4.5569978 0 0 0 0 55.187943
-5.1404662 -1.6523594 4.5900035 0 0 0 0 55.192886
-4.918551 -1.3763064 4.6390305 0 0 0 0 55.197838
-5.5118666 -2.3091879 4.4709368 0 0 0 0 55.202782
-5.332787 -2.0452724 4.5600986 0 0 0 0 55.207733
-5.108922 -1.7692342 4.5911188 0 0 0 0 55.212677
-4.8990216 -1.4882298 4.6431708 0 0 0 0 55.217628
-5.3546958 -2.3916106 4.3916588 0 0 0 0 55.222572
-5.2852235 -2.1660767 4.5611753 0 0 0 0 55.227516
-5.087326 -1.8901372 4.6042671 0 0 0 0 55.232468
-4.8834786 -1.6011666 4.6503248 0 0 0 0 55.237411
-5.1905751 -2.4650068 4.3083487 0 0 0 0 55.242363
-5.2495942 -2.2939179 4.574295 0 0 0 0 55.247307
-5.0537691 -2.0069971 4.6093769 0 0 0 0 55.252251
-4.857965 -1.711067 4.6514468 0 0 0 0 55.257202
-5.0593324 -2.5495141 4.2511449 0 0 0 0 55.262146
-5.2010174 -2.4147115 4.5793695 0 0 0 0 55.267097
-5.0172133 -2.1238449 4.6134791 0 0 0 0 55.272041
-4.8294506 -1.8209535 4.6525602 0 0 0 0 55.276985
-4.9111857 -2.6199605 4.1818743 0 0 0 0 55.281937
-5.119585 -2.520395 4.5563326 0 0 0 0 55.28688
-4.9856291 -2.2427051 4.6245971 0 0 0 0 55.291832
-4.8108816 -1.9358697 4.6647091 0 0 0 0 55.296776
-4.7670479 -2.68642 4.1156092 0 0 0 0 55.301727
-4.9933677 -2.6009269 4.4961362 0 0 0 0 55.306671
-4.9460711 -2.358536 4.6306891 0 0 0 0 55.311615
-4.7773695 -2.0447335 4.6658077 0 0 0 0 55.316566
-4.6388416 -2.7589295 4.0643954 0 0 0 0 55.32151
-4.8482618 -2.6663947 4.4198666 0 0 0 0 55.326462
-4.9045038 -2.4753563 4.6377773 0 0 0 0 55.331406
-4.7547913 -2.16063 4.6789465 0 0 0 0 55.336349
-4.5096688 -2.8244352 4.0121698 0 0 0 0 55.341301
-4.7061558 -2.7298706 4.346602 0 0 0 0 55.346245
-4.8639212 -2.5931752 4.6488695 0 0 0 0 55.351196
-4.7232456 -2.2734954 4.6850567 0 0 0 0 55.35614
-4.3785167 -2.8859324 3.9589326 0 0 0 0 55.361084
-4.5829759 -2.799408 4.2903986 0 0 0 0 55.366035
-4.8024325 -2.7009242 4.64189 0 0 0 0 55.370979
-4.6827312 -2.3823271 4.6861362 0 0 0 0 55.375931
-4.2652879 -2.9544876 3.9217544 0 0 0 0 55.380875
-4.4538379 -2.8619227 4.2301679 0 0 0 0 55.385826
-4.701159 -2.7835431 4.597765 0 0 0 0 55.39077
-4.6451907 -2.4941664 4.6912284 0 0 0 0 55.395714
-4.1500797 -3.0190346 3.8835649 0 0 0 0 55.400665
-4.3346672 -2.9254684 4.179966 0 0 0 0 55.405609
-4.5700512 -2.8460639 4.5265293 0 0 0 0 55.410561
-4.6086311 -2.607003 4.7013245 0 0 0 0 55.415504
-4.0309086 -3.0765653 3.8433542 0 0 0 0 55.420448
-4.2174907 -2.9890192 4.1317697 0 0 0 0 55.4254
-4.4349828 -2.9015694 4.4522715 0 0 0 0 55.430344
-4.5650988 -2.7178173 4.7043986 0 0 0 0 55.435295
-3.9177208 -3.1351166 3.8071613 0 0 0 0 55.440239
-4.1033235 -3.0485787 4.0865755 0 0 0 0 55.44519
-4.3178277 -2.9651306 4.3960752 0 0 0 0 55.450134
-4.5235343 -2.8306293 4.7154808 0 0 0 0 55.455078
-3.8144722 -3.1996961 3.783004 0 0 0 0 55.46003
-3.994127 -3.1101501 4.048398 0 0 0 0 55.464973
-4.1996965 -3.0246892 4.3378701 0 0 0 0 55.469925
-4.4451723 -2.9213247 4.6894298 0 0 0 0 55.474869
-3.7003171 -3.2502398 3.747797 0 0 0 0 55.479813
-3.8819571 -3.1677117 4.007206 0 0 0 0 55.484764
-4.0855474 -3.0842571 4.2856755 0 0 0 0 55.489708
-4.3240767 -2.9808872 4.618216 0 0 0 0 55.494659
-3.6010628 -3.312829 3.7286475 0 0 0 0 55.499603
-3.776767 -3.2252944 3.9730332 0 0 0 0 55.504547
-3.9733965 -3.1418276 4.2374835 0 0 0 0 55.509499
-4.2049737 -3.0394526 4.5510063 0 0 0 0 55.514442
-3.4928875 -3.3633888 3.7004564 0 0 0 0 55.519394
-3.6666062 -3.2788591 3.9348409 0 0 0 0 55.524338
-3.8692122 -3.2024238 4.1963177 0 0 0 0 55.529289
-4.0898571 -3.0980282 4.4888077 0 0 0 0 55.534233
-3.3857157 -3.4119496 3.6742647 0 0 0 0 55.539177
-3.5654104 -3.3344514 3.9056759 0 0 0 0 55.544128
-3.7570906 -3.2539942 4.1471167 0 0 0 0 55.549072
-3.9767382 -3.1546066 4.4306111 0 0 0 0 55.554024
-3.2914538 -3.4715493 3.6621242 0 0 0 0 55.558968
-3.4632161 -3.3890371 3.8775063 0 0 0 0 55.563911
-3.6499372 -3.3075755 4.1059322 0 0 0 0 55.568863
-3.8745649 -3.2162192 4.3834519 0 0 0 0 55.573807
-3.1892595 -3.5211229 3.641947 0 0 0 0 55.578758
-3.3570647 -3.4366097 3.8453159 0 0 0 0 55.583702
-3.551728 -3.367183 4.0747809 0 0 0 0 55.588646
-3.7654326 -3.271806 4.3312645 0 0 0 0 55.593597
-3.0930316 -3.5737133 3.6287909 0 0 0 0 55.598541
-3.2628279 -3.4942162 3.827172 0 0 0 0 55.603493
-3.4446013 -3.4147627 4.0335875 0 0 0 0 55.608437
-3.6543336 -3.3213859 4.2770629 0 0 0 0 55.613388
-2.9987829 -3.6283066 3.6196425 0 0 0 0 55.618332
-3.165622 -3.5468128 3.8060129 0 0 0 0 55.623276
-3.3434319 -3.4673593 3.9994173 0 0 0 0 55.628227
-3.5501885 -3.3759859 4.2308874 0 0 0 0 55.633171
-2.9055328 -3.6819012 3.6124952 0 0 0 0 55.638123
-3.0674338 -3.5954039 3.7848451 0 0 0 0 55.643066
-3.2502055 -3.5249751 3.9772763 0 0 0 0 55.64801
-3.4470441 -3.4285853 4.1877117 0 0 0 0 55.652962
-2.8083596 -3.7307456 3.6038694 0 0 0 0 56.380165
-2.9762108 -3.6542933 3.776262 0 0 0 0 56.385109
-3.1510651 -3.5758712 3.9506726 0 0 0 0 56.390053
-3.3409581 -3.4774933 4.1440988 0 0 0 0 56.395004
-2.7141199 -3.7803202 3.5967071 0 0 0 0 56.399948
-2.8770401 -3.6978645 3.7550769 0 0 0 0 56.4049
-3.0449479 -3.6174314 3.9144642 0 0 0 0 56.409843
-3.2467504 -3.5351031 4.1129489 0 0 0 0 56.414787
-2.6248376 -3.8339057 3.5975645 0 0 0 0 56.419739
-2.7828205 -3.7474487 3.7409143 0 0 0 0 56.424683
-2.9556932 -3.6750405 3.8993282 0 0 0 0 56.429634
-3.1455979 -3.5846877 4.0757661 0 0 0 0 56.434578
-2.5246687 -3.8714578 3.5853667 0 0 0 0 56.439529
-2.6935506 -3.8020425 3.7357731 0 0 0 0 56.444473
-2.8614888 -3.7256343 3.8781667 0 0 0 0 56.449417
-3.0494132 -3.6372864 4.0446024 0 0 0 0 56.454369
-2.4363797 -3.9250438 3.5882261 0 0 0 0 56.459312
-2.6033003 -3.8536336 3.7286243 0 0 0 0 56.464264
-2.7652984 -3.7732179 3.8569953 0 0 0 0 56.469208
-2.9532225 -3.6898818 4.0154381 0 0 0 0 56.474152
-2.3471014 -3.9756231 3.5920784 0 0 0 0 56.479103
-2.5071051 -3.8972049 3.7154465 0 0 0 0 56.484047
-2.6720836 -3.8228076 3.8408349 0 0 0 0 56.488998
-2.8510995 -3.7324581 3.9792418 0 0 0 0 56.493942
-2.2568123 -4.0271935 3.5979288 0 0 0 0 56.498886
-2.418824 -3.950794 3.7153056 0 0 0 0 56.503838
-2.5768962 -3.8683915 3.8216624 0 0 0 0 56.508781
-2.756906 -3.783056 3.9540799 0 0 0 0 56.513733
-2.166532 -4.0767641 3.6037757 0 0 0 0 56.518677
-2.3265884 -3.9983723 3.7091444 0 0 0 0 56.523628
-2.4846611 -3.9189773 3.8105059 0 0 0 0 56.528572
-2.668637 -3.8426654 3.9399481 0 0 0 0 56.533516
-2.0831535 -4.1383462 3.6236601 0 0 0 0 56.538467
-2.2373147 -4.0489526 3.7109959 0 0 0 0 56.543411
-2.3983643 -3.9775791 3.8073778 0 0 0 0 56.548363
-2.570482 -3.8862455 3.9127638 0 0 0 0 56.553307
-1.983996 -4.1698909 3.6164546 0 0 0 0 56.55825
-2.1470435 -4.0995288 3.711844 0 0 0 0 56.563202
-2.3031676 -4.021152 3.7942016 0 0 0 0 56.568146
-2.4772575 -3.9388356 3.8946066 0 0 0 0 56.573097
-1.8986229 -4.2294607 3.6373298 0 0 0 0 56.578041
-2.0577555 -4.151103 3.7166963 0 0 0 0 56.582985
-2.2109323 -4.0697317 3.786041 0 0 0 0 56.587936
-2.3850362 -3.9894271 3.8784492 0 0 0 0 56.59288
-1.8083124 -4.2800164 3.6511769 0 0 0 0 56.597832
-1.9664919 -4.1986699 3.7195365 0 0 0 0 56.602776
-2.123621 -4.1273184 3.7889078 0 0 0 0 56.607727
-2.2898347 -4.0370064 3.8602784 0 0 0 0 56.612671
-1.7170236 -4.3265681 3.6640151 0 0 0 0 56.617615
-1.8781711 -4.2532392 3.7303953 0 0 0 0 56.622566
-2.0333424 -4.179894 3.788758 0 0 0 0 56.62751
-2.1916673 -4.0785732 3.8400898 0 0 0 0 56.632462
-1.6306294 -4.3871236 3.6898878 0 0 0 0 56.637405
-1.7898313 -4.3098035 3.7442565 0 0 0 0 56.642349
-1.9391063 -4.2264571 3.7835875 0 0 0 0 56.647301
-2.1023762 -4.1361594 3.8359501 0 0 0 0 56.652245
-1.5402611 -4.4426608 3.7147408 0 0 0 0 56.657196
-1.6945999 -4.3503489 3.7470739 0 0 0 0 56.66214
-1.8478274 -4.2770224 3.7864313 0 0 0 0 56.667091
-2.009136 -4.1867347 3.8257883 0 0 0 0 56.672035
-1.4498954 -4.4981985 3.7385941 0 0 0 0 56.676979
-1.6052502 -4.4069023 3.7639315 0 0 0 0 56.681931
-1.7545587 -4.32658 3.7872674 0 0 0 0 56.686874
-1.9158632 -4.2403002 3.8216305 0 0 0 0 56.691826
-1.3604767 -4.5597291 3.770458 0 0 0 0 56.69677
-1.5139078 -4.4624467 3.7797816 0 0 0 0 56.701714
-1.6612777 -4.3761315 3.7921033 0 0 0 0 56.706665
-1.8215995 -4.2918601 3.8174663 0 0 0 0 56.711609
-1.2671261 -4.6112494 3.795296 0 0 0 0 56.71656
-1.4215732 -4.5149827 3.7976241 0 0 0 0 56.721504
-1.569945 -4.4326825 3.8029547 0 0 0 0 56.726448
-1.7273325 -4.3434181 3.814302 0 0 0 0 56.7314
-1.1708122 -4.6567593 3.8171158 0 0 0 0 56.736343
-1.3282198 -4.5695086 3.8184662 0 0 0 0 56.741295
-1.475634 -4.4852204 3.8127911 0 0 0 0 56.746239
-1.6340233 -4.3999705 3.8171473 0 0 0 0 56.75119
-1.0764253 -4.7112632 3.8489542 0 0 0 0 56.756134
-1.2338783 -4.6220303 3.8383019 0 0 0 0 56.761078
-1.3832556 -4.5467553 3.830646 0 0 0 0 56.766029
-1.5387232 -4.454514 3.8199835 0 0 0 0 56.770973
-0.98002523 -4.7677555 3.881789 0 0 0 0 56.775925
-1.137538 -4.6735406 3.8591299 0 0 0 0 56.780869
-1.2849735 -4.594275 3.8384626 0 0 0 0 56.785812
-1.4424168 -4.509048 3.8248167 0 0 0 0 56.790764
-0.88457197 -4.8302393 3.9226353 0 0 0 0 56.795708
-1.044076 -4.7410421 3.8949895 0 0 0 0 56.800659
-1.1896228 -4.6497941 3.8562994 0 0 0 0 56.805603
-1.3431351 -4.5595698 3.8276346 0 0 0 0 56.810547
-0.78516054 -4.8857083 3.960459 0 0 0 0 56.815498
-0.94571316 -4.7945352 3.9198136 0 0 0 0 56.820442
-1.0922434 -4.7092981 3.8771355 0 0 0 0 56.825394
-1.245783 -4.6190877 3.8394709 0 0 0 0 56.830338
-0.68572509 -4.9441714 4.001287 0 0 0 0 56.835289
-0.84436417 -4.8450131 3.9446244 0 0 0 0 56.840233
-0.99287021 -4.7667904 3.8989625 0 0 0 0 56.845177
-1.1444602 -4.6735878 3.8492877 0 0 0 0 56.850128
-0.58478713 -5.0026641 4.0425205 0 0 0 0 56.550201
-0.74638134 -4.9125118 3.983876 0 0 0 0 56.555153
-0.89200902 -4.8202953 3.917181 0 0 0 0 56.560097
-1.0436057 -4.729095 3.8595057 0 0 0 0 56.565048
-0.48230079 -5.0671058 4.09235 0 0 0 0 56.569992
-0.64491242 -4.9789715 4.0247111 0 0 0 0 56.574936
-0.78864282 -4.8757706 3.9409955 0 0 0 0 56.579887
-0.94221079 -4.7925844 3.8803375 0 0 0 0 56.584831
-0.37681845 -5.1305318 4.142169 0 0 0 0 56.589783
-0.53855115 -5.0294223 4.0545092 0 0 0 0 56.594727
-0.6861819 -4.9442339 3.9758306 0 0 0 0 56.59967
-0.83687872 -4.847064 3.8941443 0 0 0 0 56.604622
-0.27035731 -5.1899533 4.1909785 0 0 0 0 56.609566
-0.43406904 -5.09586 4.0993352 0 0 0 0 56.614517
-0.57977593 -5.0046859 4.0046425 0 0 0 0 56.619461
-0.73048919 -4.9085264 3.9159577 0 0 0 0 56.624405
-0.16168673 -5.2783303 4.2638235 0 0 0 0 56.629356
-0.32555538 -5.1662722 4.1481543 0 0 0 0 56.6343
-0.47136533 -5.0641227 4.0364466 0 0 0 0 56.639252
-0.62305582 -4.9759765 3.9427762 0 0 0 0 56.644196
-0.049158212 -5.3447056 4.3236246 0 0 0 0 56.649147
-0.21411398 -5.2256789 4.1899486 0 0 0 0 56.654091
-0.36089528 -5.1315398 4.0752554 0 0 0 0 56.659035
-0.51263601 -5.040411 3.9695816 0 0 0 0 56.663986
0.065375887 -5.4120708 4.3834209 0 0 0 0 56.66893
-0.10163511 -5.2890716 4.2377458 0 0 0 0 56.673882
-0.24841863 -5.1989427 4.1160583 0 0 0 0 56.678825
-0.39923763 -5.1008315 3.9953713 0 0 0 0 56.683769
0.18194288 -5.4824157 4.4492149 0 0 0 0 56.688721
0.014946746 -5.3664265 4.2975502 0 0 0 0 56.693665
-0.13293533 -5.2663274 4.1588521 0 0 0 0 56.698616
-0.28376427 -5.1712289 4.0301695 0 0 0 0 56.70356
0.30351663 -5.5527334 4.516994 0 0 0 0 56.708511
0.13254319 -5.4447708 4.3603525 0 0 0 0 56.713455
-0.014420356 -5.3376908 4.2056417 0 0 0 0 56.718399
-0.16628431 -5.241612 4.0669613 0 0 0 0 56.723351
0.42714065 -5.6290302 4.5917754 0 0 0 0 56.728294
0.25618216 -5.5280766 4.4291444 0 0 0 0 56.733246
0.10604534 -5.4010501 4.2484136 0 0 0 0 56.73819
-0.043853734 -5.3039765 4.0997262 0 0 0 0 56.743134
0.5547871 -5.7073011 4.670547 0 0 0 0 56.748085
0.38172373 -5.5963855 4.4889078 0 0 0 0 56.753029
0.23172456 -5.4933472 4.3162122 0 0 0 0 56.75798
0.079779692 -5.3943019 4.1555276 0 0 0 0 56.762924
0.68646365 -5.7885437 4.7543106 0 0 0 0 56.767868
0.51130968 -5.6706662 4.5536675 0 0 0 0 56.77282
0.36028782 -5.5686469 4.3719764 0 0 0 0 56.777763
0.20828451 -5.4656205 4.198287 0 0 0 0 56.782715
0.82319373 -5.8757501 4.8460674 0 0 0 0 56.787659
0.64598775 -5.7559028 4.6314282 0 0 0 0 56.79261
0.49388891 -5.647912 4.4337316 0 0 0 0 56.797554
0.34081632 -5.5399132 4.2450376 0 0 0 0 56.802498
0.96390289 -5.9589367 4.9368062 0 0 0 0 56.807449
0.78571945 -5.8471026 4.7171817 0 0 0 0 56.812393
0.63147652 -5.7241569 4.4954696 0 0 0 0 56.817345
0.47846547 -5.629159 4.3067946 0 0 0 0 56.822289
1.1086781 -6.0500898 5.0365438 0 0 0 0 56.827232
0.92943972 -5.9362831 4.8019199 0 0 0 0 56.832184
0.77417868 -5.8153563 4.5712137 0 0 0 0 56.837128
0.62004197 -5.7073946 4.3615236 0 0 0 0 56.842079
1.2594637 -6.1412082 5.1392632 0 0 0 0 56.847023
1.0781699 -6.0254345 4.8896422 0 0 0 0 56.851974
0.92297524 -5.9185076 4.658957 0 0 0 0 56.856918
0.76672232 -5.7995868 4.428257 0 0 0 0 56.861862
1.4163058 -6.2382836 5.2509727 0 0 0 0 56.866814
1.2319025 -6.1135569 4.9793482 0 0 0 0 56.871758
1.0756352 -6.0016594 4.7326584 0 0 0 0 56.876709
0.92045158 -5.8967328 4.5029764 0 0 0 0 56.881653
1.5822741 -6.3512907 5.3786778 0 0 0 0 56.886597
1.3937482 -6.2156172 5.0840497 0 0 0 0 56.891548
1.2374616 -6.1067367 4.8263645 0 0 0 0 56.896492
1.0801802 -5.992847 4.5786757 0 0 0 0 56.901443
1.7542322 -6.4612656 5.50736 0 0 0 0 56.906387
1.5616089 -6.3186431 5.1917338 0 0 0 0 56.911331
1.403229 -6.2017989 4.9160438 0 0 0 0 56.916283
1.2438827 -6.0839415 4.6533551 0 0 0 0 56.921227
1.933235 -6.5751929 5.6440263 0 0 0 0 56.926178
1.7416143 -6.4395809 5.3184075 0 0 0 0 56.931122
1.5760663 -6.304811 5.0157127 0 0 0 0 56.936073
1.419749 -6.196949 4.7470298 0 0 0 0 56.941017
2.1223264 -6.6990514 5.7936764 0 0 0 0 56.945961
1.923533 -6.5465188 5.438055 0 0 0 0 56.950912
1.7651113 -6.43571 5.1393738 0 0 0 0 56.955856
1.5975156 -6.2939568 4.832675 0 0 0 0 56.960808
2.3204439 -6.8248572 5.9483018 0 0 0 0 56.965752
2.1196299 -6.6763535 5.5796919 0 0 0 0 56.970695
1.9540033 -6.5426254 5.249999 0 0 0 0 56.975647
1.7904825 -6.4178567 4.9413133 0 0 0 0 56.980591
2.5153947 -6.9256992 6.0868993 0 0 0 0 56.985542
2.3227038 -6.8011537 5.7213011 0 0 0 0 56.990486
2.1570599 -6.6714435 5.3796139 0 0 0 0 56.99543
1.9945302 -6.5506835 5.0619307 0 0 0 0 57.000381
2.6775403 -6.9168301 6.1334338 0 0 0 0 57.005325
2.5378797 -6.9378729 5.8768902 0 0 0 0 57.010277
2.3701484 -6.8022008 5.5162005 0 0 0 0 57.015221
2.2065887 -6.683466 5.1855235 0 0 0 0 57.020172
2.8258915 -6.878305 6.1555586 0 0 0 0 56.774994
2.7716284 -7.0927067 6.055038 0 0 0 0 56.779945
2.5947275 -6.9391136 5.660347 0 0 0 0 56.784889
2.4290931 -6.8134027 5.3106623 0 0 0 0 56.789833
2.9849529 -6.8564668 6.1950865 0 0 0 0 56.794785
2.9895329 -7.189456 6.186564 0 0 0 0 56.799728
2.8237739 -7.0607991 5.7998757 0 0 0 0 56.80468
2.6611502 -6.9430876 5.4411945 0 0 0 0 56.809624
3.1368973 -6.8176785 6.22261 0 0 0 0 56.814575
3.1696708 -7.1795068 6.2320461 0 0 0 0 56.819519
3.0862548 -7.2402482 5.9913888 0 0 0 0 56.824463
2.9093361 -7.0886693 5.5887012 0 0 0 0 56.829414
3.2756166 -6.7469859 6.2261262 0 0 0 0 56.834358
3.3426743 -7.1496081 6.2645197 0 0 0 0 56.83931
3.3759785 -7.45052 6.2138648 0 0 0 0 56.844254
3.1797101 -7.2581077 5.7601752 0 0 0 0 56.849197
3.4356811 -6.7221303 6.2716441 0 0 0 0 56.854149
3.5166659 -7.1167026 6.2979846 0 0 0 0 56.859093
3.606565 -7.5012507 6.3112836 0 0 0 0 56.864044
3.4742711 -7.4503908 5.9566097 0 0 0 0 56.868988
3.5875816 -6.6743374 6.2991524 0 0 0 0 56.873932
3.6825202 -7.0638542 6.3174438 0 0 0 0 56.878883
3.8056395 -7.4802108 6.3526902 0 0 0 0 56.883827
3.7959838 -7.660511 6.1739883 0 0 0 0 56.888779
3.7313955 -6.6135941 6.3186646 0 0 0 0 56.893723
3.8544312 -7.0179634 6.3448939 0 0 0 0 56.898674
4.0026231 -7.4451904 6.3860822 0 0 0 0 56.903618
4.1286507 -7.8605752 6.3913188 0 0 0 0 56.908562
3.8670669 -6.5339127 6.3211732 0 0 0 0 56.913513
4.0374756 -6.9879904 6.3913336 0 0 0 0 56.918457
4.2087035 -7.4211025 6.4344616 0 0 0 0 56.923409
4.3760028 -7.8762512 6.4656329 0 0 0 0 56.928352
4.0371852 -6.5109816 6.3816605 0 0 0 0 56.933296
4.1962013 -6.9141846 6.4017806 0 0 0 0 56.938248
4.376267 -7.3262839 6.423851 0 0 0 0 56.943192
4.5838022 -7.8131986 6.4819489 0 0 0 0 56.948143
4.2386742 -6.5338259 6.4921203 0 0 0 0 56.953087
4.3478222 -6.8264294 6.4002275 0 0 0 0 56.958038
4.5995011 -7.3190756 6.496202 0 0 0 0 56.962982
4.8128119 -7.7770033 6.5252399 0 0 0 0 56.967926
4.5510631 -6.8173084 6.4786344 0 0 0 0 56.977821
4.7893114 -7.2540956 6.5205665 0 0 0 0 56.982773
5.0286288 -7.7128963 6.5495281 0 0 0 0 56.987717
4.7208729 -6.7514215 6.5050564 0 0 0 0 56.997612
4.9730306 -7.1751552 6.5369282 0 0 0 0 57.002556
5.2707119 -7.6826124 6.6077857 0 0 0 0 57.007507
4.6669149 -6.3095875 6.5525918 0 0 0 0 57.012451
4.8967352 -6.6894884 6.5424657 0 0 0 0 57.017395
5.1910844 -7.1379833 6.5972466 0 0 0 0 57.022346
5.5006161 -7.6254077 6.6500392 0 0 0 0 57.02729
5.1119838 -6.676291 6.629827 0 0 0 0 57.037186
5.7355404 -7.5691695 6.697278 0 0 0 0 57.047081
5.9582953 -7.4880114 6.7285147 0 0 0 0 57.066872
5.0577388 -6.0245752 6.5740786 0 0 0 0 57.071815
5.1671734 -5.907033 6.5606017 0 0 0 0 57.091606
5.5748062 -6.3808994 6.6660786 0 0 0 0 57.09655
5.9267497 -6.7701702 6.6785975 0 0 0 0 57.101501
5.2786345 -5.791472 6.5531211 0 0 0 0 57.111389
5.744535 -6.2949953 6.6984653 0 0 0 0 57.116341
6.1668711 -6.7318459 6.7638421 0 0 0 0 57.121284
6.6234374 -7.2145267 6.831183 0 0 0 0 57.126236
5.3759708 -5.6610026 6.5286598 0 0 0 0 57.13118
5.9082074 -6.2001252 6.7268562 0 0 0 0 57.136124
6.3766842 -6.6517172 6.8141155 0 0 0 0 57.141075
6.8743358 -7.1421742 6.8963432 0 0 0 0 57.146019
5.5257797 -5.5861802 6.5711222 0 0 0 0 57.15097
5.9659867 -5.9959402 6.636404 0 0 0 0 57.155914
6.4645057 -6.4453597 6.7405686 0 0 0 0 57.160858
7.1050296 -7.0409489 6.9405198 0 0 0 0 57.16581
5.6604443 -5.492455 6.596601 0 0 0 0 57.170753
6.1367145 -5.9060173 6.6757793 0 0 0 0 57.175705
6.6491022 -6.3353839 6.7678714 0 0 0 0 57.180649
7.1936255 -6.7986078 6.849916 0 0 0 0 57.1856
5.7860374 -5.3897858 6.6130929 0 0 0 0 57.190544
6.2893009 -5.797204 6.6991796 0 0 0 0 57.195488
6.8367152 -6.2253833 6.8011632 0 0 0 0 57.200439
7.4162607 -6.6864195 6.8930979 0 0 0 0 57.205383
5.9136348 -5.2861013 6.6325765 0 0 0 0 57.210335
6.4469147 -5.6903563 6.7285671 0 0 0 0 57.215279
7.030376 -6.1183352 6.8454404 0 0 0 0 57.220222
7.6418829 -6.5692086 6.9402628 0 0 0 0 57.225174
6.0493026 -5.1903605 6.6630468 0 0 0 0 57.230118
6.6105633 -5.5864673 6.7649398 0 0 0 0 57.235069
7.1847196 -5.9715352 6.8497767 0 0 0 0 57.240013
7.843327 -6.4281425 6.9674635 0 0 0 0 57.244957
6.1435847 -5.0569444 6.6515455 0 0 0 0 57.213165
6.7318177 -5.4439135 6.7593441 0 0 0 0 57.218109
7.3692036 -5.8496122 6.8870211 0 0 0 0 57.223053
8.0607615 -6.2940545 7.0085907 0 0 0 0 57.228004
6.2681775 -4.9502664 6.6750321 0 0 0 0 57.232948
6.9035091 -5.3409648 6.8086925 0 0 0 0 57.2379
7.5476995 -5.7166519 6.9193029 0 0 0 0 57.242844
8.2782707 -6.1558833 7.0527458 0 0 0 0 57.247787
6.4018106 -4.8465304 6.7074947 0 0 0 0 57.252739
7.0369134 -5.2042603 6.8181057 0 0 0 0 57.257683
7.723176 -5.5807066 6.9505887 0 0 0 0 57.262634
8.4917288 -6.0087328 7.0948987 0 0 0 0 57.267578
6.5163112 -4.7269125 6.7219906 0 0 0 0 57.272522
7.1824126 -5.0764704 6.8444943 0 0 0 0 57.277473
7.9026494 -5.4417343 6.9858565 0 0 0 0 57.282417
8.6900797 -5.8456669 7.1280718 0 0 0 0 57.287369
6.6418791 -4.6132212 6.7494617 0 0 0 0 57.292313
7.3238792 -4.9437017 6.8688869 0 0 0 0 57.297264
8.0740814 -5.2958026 7.0191374 0 0 0 0 57.302208
8.9085236 -5.6914783 7.1771955 0 0 0 0 57.307152
6.7614145 -4.495563 6.772943 0 0 0 0 57.312103
7.5045762 -4.833683 6.9321933 0 0 0 0 57.317047
8.2465019 -5.1458602 7.0554075 0 0 0 0 57.321999
9.0968151 -5.5174599 7.2093801 0 0 0 0 57.326942
6.8789296 -4.3739142 6.7964244 0 0 0 0 57.331886
7.6108041 -4.6711283 6.9266462 0 0 0 0 57.336838
8.4138918 -4.9909434 7.0896845 0 0 0 0 57.341782
9.3011484 -5.3443432 7.2535157 0 0 0 0 57.346733
6.9954343 -4.2502694 6.8199043 0 0 0 0 57.351677
7.7472224 -4.5283794 6.9520359 0 0 0 0 57.356628
8.5521069 -4.8152022 7.101018 0 0 0 0 57.361572
9.4582376 -5.1425052 7.264751 0 0 0 0 57.366516
7.1119223 -4.1236238 6.8433795 0 0 0 0 57.371468
7.8987179 -4.3915315 6.9933877 0 0 0 0 57.376411
9.0019112 -4.8035545 7.3676472 0 0 0 0 57.381363
10.039381 -5.1571083 7.5990171 0 0 0 0 57.386307
7.2143359 -3.9880602 6.8568835 0 0 0 0 57.391251
8.0089703 -4.2279377 6.9988236 0 0 0 0 57.396202
9.1993666 -4.6444416 7.4308219 0 0 0 0 57.401146
10.198391 -4.9382524 7.6122179 0 0 0 0 57.406097
7.3338342 -3.8593872 6.8873444 0 0 0 0 57.411041
8.1373234 -4.0732265 7.0232172 0 0 0 0 57.415985
9.341526 -4.4536653 7.4491167 0 0 0 0 57.420937
10.394584 -4.7351613 7.6603274 0 0 0 0 57.42588
7.4312229 -3.7198484 6.8998556 0 0 0 0 57.430832
8.2616444 -3.9135363 7.0456142 0 0 0 0 57.435776
9.4897175 -4.2638445 7.4763932 0 0 0 0 57.440727
10.545564 -4.5083365 7.6775374 0 0 0 0 57.445671
7.5366535 -3.5822527 6.9233446 0 0 0 0 57.450615
8.3839722 -3.7528489 7.0720153 0 0 0 0 57.455566
9.6469526 -4.0759597 7.5156441 0 0 0 0 57.46051
10.708588 -4.283433 7.7067127 0 0 0 0 57.465462
7.6480956 -3.4446208 6.9508142 0 0 0 0 57.470406
8.4962397 -3.5852222 7.090435 0 0 0 0 57.475349
9.7730417 -3.8722599 7.5329647 0 0 0 0 57.480301
10.865567 -4.050559 7.7348928 0 0 0 0 57.485245
7.742456 -3.2980895 6.9663215 0 0 0 0 57.490196
8.6024694 -3.4126296 7.1048656 0 0 0 0 57.49514
9.9001284 -3.6665497 7.5532784 0 0 0 0 57.500084
11.011517 -3.8137429 7.7600994 0 0 0 0 57.505035
7.8197265 -3.1416612 6.9688659 0 0 0 0 57.509979
8.7097044 -3.2390256 7.1232901 0 0 0 0 57.514931
10.038231 -3.4587703 7.5825543 0 0 0 0 57.519875
11.132352 -3.5640733 7.7693629 0 0 0 0 57.524826
7.9160781 -2.9921141 6.987361 0 0 0 0 57.52977
8.8119097 -3.060447 7.1407213 0 0 0 0 57.534714
10.148245 -3.2421491 7.5979013 0 0 0 0 57.539665
11.300363 -3.3261111 7.8174973 0 0 0 0 57.544609
8.0074224 -2.8405895 7.0068679 0 0 0 0 57.549561
8.9110975 -2.8788836 7.1571565 0 0 0 0 57.554504
10.267294 -3.0274692 7.6222229 0 0 0 0 57.559448
11.405151 -3.0685198 7.8257952 0 0 0 0 57.5644
8.0856924 -2.681145 7.0154014 0 0 0 0 57.569344
9.0243635 -2.7022231 7.191555 0 0 0 0 57.574295
10.3753 -2.8068485 7.6425681 0 0 0 0 57.579239
11.524003 -2.8148355 7.8490543 0 0 0 0 57.58419
8.1750288 -2.5266242 7.0379081 0 0 0 0 57.589134
9.1155148 -2.514699 7.2070041 0 0 0 0 57.594078
10.467248 -2.5793169 7.655951 0 0 0 0 57.59903
11.646838 -2.5551233 7.8772912 0 0 0 0 57.603973
8.2613297 -2.3671222 7.057416 0 0 0 0 57.608925
9.1906147 -2.3222659 7.2144942 0 0 0 0 57.613869
10.569216 -2.3517244 7.6763024 0 0 0 0 57.618813
11.748624 -2.2905259 7.897584 0 0 0 0 57.623764
8.3395977 -2.2036653 7.0729413 0 0 0 0 57.628708
9.2807722 -2.1327362 7.2359409 0 0 0 0 57.633659
10.653139 -2.1192296 7.6907001 0 0 0 0 57.638603
11.838363 -2.0209963 7.9119048 0 0 0 0 57.643547
8.4158459 -2.0372188 7.0874677 0 0 0 0 57.648499
9.3398085 -1.9323918 7.2364664 0 0 0 0 57.653442
10.744072 -1.8846884 7.7120724 0 0 0 0 57.658394
11.607208 -1.7013686 7.7201371 0 0 0 0 57.663338
8.4890966 -1.8707851 7.1030025 0 0 0 0 57.668289
9.4199219 -1.7359136 7.2559323 0 0 0 0 57.673233
10.813957 -1.6472661 7.7235045 0 0 0 0 57.678177
11.533562 -1.415796 7.6379361 0 0 0 0 57.683128
8.5515823 -1.6962641 7.1130805 0 0 0 0 58.644119
9.4882641 -1.533157 7.2688222 0 0 0 0 58.649071
10.820937 -1.3945812 7.6913328 0 0 0 0 58.654015
11.604578 -1.1495582 7.6564326 0 0 0 0 58.658958
8.6227884 -1.5258192 7.1315947 0 0 0 0 58.66391
9.5593252 -1.3337052 7.2892885 0 0 0 0 58.668854
10.528769 -1.1174027 7.4568377 0 0 0 0 58.673805
11.672272 -0.88011521 7.6757932 0 0 0 0 58.678749
8.6769285 -1.3504809 7.1381545 0 0 0 0 58.683693
9.6113033 -1.1273735 7.2958045 0 0 0 0 58.688644
10.596654 -0.88396055 7.4782567 0 0 0 0 58.693588
11.686853 -0.60699052 7.6673174 0 0 0 0 58.69854
8.7260389 -1.1711712 7.142724 0 0 0 0 58.703484
9.6622896 -0.92104173 7.3053222 0 0 0 0 58.708435
10.664527 -0.64651304 7.5026684 0 0 0 0 58.713379
11.607236 -0.33244669 7.6001415 0 0 0 0 58.718323
8.7781773 -0.99283439 7.1542845 0 0 0 0 58.723274
9.6942139 -0.70982569 7.3038926 0 0 0 0 58.728218
10.677263 -0.40440419 7.4932489 0 0 0 0 58.73317
12.219121 -0.063600175 7.9867506 0 0 0 0 58.738113
8.8252754 -0.81053108 7.1608543 0 0 0 0 58.743057
9.7441969 -0.50049043 7.3184075 0 0 0 0 58.748009
10.708066 -0.16417332 7.5017738 0 0 0 0 58.752953
12.20761 0.2223825 7.9723349 0 0 0 0 58.757904
8.866374 -0.62825853 7.1674423 0 0 0 0 58.762848
9.7640982 -0.28734088 7.314013 0 0 0 0 58.767799
10.736865 0.077049039 7.5113025 0 0 0 0 58.772743
12.13301 0.50398362 7.9241285 0 0 0 0 58.777687
8.9204931 -0.44289908 7.1859832 0 0 0 0 58.782639
9.8070774 -0.076036662 7.3315454 0 0 0 0 58.787582
10.744621 0.31914493 7.5098972 0 0 0 0 58.792534
12.269816 0.79490542 8.0162258 0 0 0 0 58.797478
8.9515667 -0.25768104 7.190598 0 0 0 0 58.802422
9.8159609 0.13905443 7.3261819 0 0 0 0 58.807373
10.75038 0.56223518 7.5114961 0 0 0 0 58.812317
11.658347 1.0281709 7.6268263 0 0 0 0 58.817268
8.981617 -0.06846799 7.1952085 0 0 0 0 58.822212
9.8358784 0.35422033 7.3317814 0 0 0 0 58.827156
10.695022 0.80294573 7.4742956 0 0 0 0 58.832108
11.63795 1.2991261 7.626462 0 0 0 0 58.837051
9.0096693 0.12073648 7.2008252 0 0 0 0 58.842003
9.8347416 0.57125628 7.3244452 0 0 0 0 58.846947
10.672757 1.0428724 7.4649882 0 0 0 0 58.851898
9.0216894 0.31084496 7.1984921 0 0 0 0 58.861786
9.8496571 0.78840268 7.3340569 0 0 0 0 58.866737
10.829778 1.3069346 7.5820632 0 0 0 0 58.871681
9.0457191 0.50503206 7.2061124 0 0 0 0 58.881577
9.841527 1.0054069 7.3297424 0 0 0 0 58.88652
10.743409 1.5434701 7.5369678 0 0 0 0 58.891472
11.705947 2.141839 7.7348995 0 0 0 0 58.896416
9.0447063 0.69706327 7.1978168 0 0 0 0 58.901367
9.8143606 1.2212925 7.3134909 0 0 0 0 58.906311
10.641041 1.7739069 7.4829335 0 0 0 0 58.911255
11.51939 2.3847816 7.6441145 0 0 0 0 58.916206
9.0557232 0.89117789 7.2024789 0 0 0 0 58.92115
9.7701826 1.4340762 7.289299 0 0 0 0 58.926102
8.685276 1.6495862 6.1324687 0 0 0 0 58.931046
11.440975 2.6464052 7.6269507 0 0 0 0 58.935997
9.0667353 1.0872959 7.209137 0 0 0 0 58.940941
9.8361902 1.665574 7.3517199 0 0 0 0 58.945885
10.522479 2.2453425 7.446569 0 0 0 0 58.950836
11.360578 2.9060225 7.6127954 0 0 0 0 58.95578
9.1288309 1.2937495 7.2586117 0 0 0 0 58.960732
8.5983 1.6506978 6.4437618 0 0 0 0 58.965675
10.728498 2.5447586 7.6224236 0 0 0 0 58.970619
11.239174 3.1533906 7.5777926 0 0 0 0 58.975571
9.3271561 1.5260952 7.4196029 0 0 0 0 58.980515
9.768878 2.1003001 7.3342509 0 0 0 0 58.985466
10.494045 2.7403755 7.4898725 0 0 0 0 58.99041
11.164805 3.414057 7.5756159 0 0 0 0 58.995361
9.4042406 1.7466612 7.4890051 0 0 0 0 59.000305
8.07973 1.9235078 6.0910234 0 0 0 0 59.005249
10.365722 2.9596708 7.4349394 0 0 0 0 59.010201
11.039428 3.6574073 7.543632 0 0 0 0 59.015144
9.3791475 1.9515665 7.479763 0 0 0 0 59.020096
9.9238396 2.5964842 7.4999599 0 0 0 0 59.02504
10.270467 3.184186 7.4098907 0 0 0 0 59.029984
8.0689993 2.8816996 5.5675335 0 0 0 0 59.034935
9.294982 2.1430926 7.4277344 0 0 0 0 59.039879
7.5773993 2.1624258 5.7592907 0 0 0 0 59.04483
10.399373 3.481143 7.5499964 0 0 0 0 59.049774
10.768764 4.1260009 7.4807591 0 0 0 0 59.054718
9.382061 2.3757427 7.5160828 0 0 0 0 59.059669
7.5725427 2.3414791 5.7830281 0 0 0 0 59.064613
10.493203 3.7798851 7.6702118 0 0 0 0 59.069565
7.8190584 3.2033472 5.4908447 0 0 0 0 59.074509
9.3369398 2.5805309 7.4999046 0 0 0 0 59.07946
9.8333902 3.2802291 7.5371637 0 0 0 0 59.084404
7.7879357 3.0046115 5.7442718 0 0 0 0 59.089348
7.5761056 3.3109212 5.3734713 0 0 0 0 59.094299
7.5479736 2.2629037 6.0902505 0 0 0 0 59.099243
9.8272448 3.5223107 7.5747972 0 0 0 0 59.104195
7.6449809 3.1488044 5.6845136 0 0 0 0 59.109138
7.7901659 3.6194234 5.5812845 0 0 0 0 59.114082
9.1845417 2.9720204 7.4297357 0 0 0 0 58.829285
9.6589251 3.7066162 7.4920387 0 0 0 0 58.834236
7.4850106 3.2823284 5.6137266 0 0 0 0 58.83918
7.8701854 3.8794937 5.7005358 0 0 0 0 58.844131
9.0773935 3.1584234 7.3737888 0 0 0 0 58.849075
7.8800907 3.2252784 6.1605482 0 0 0 0 58.854019
7.4961181 3.4915233 5.674366 0 0 0 0 58.858971
7.7862487 4.0631089 5.7075214 0 0 0 0 58.863914
9.2374668 3.4405706 7.5388265 0 0 0 0 58.868866
9.4926186 4.1348147 7.4678979 0 0 0 0 58.87381
9.9079895 4.8901582 7.5623541 0 0 0 0 58.878754
10.276103 5.6671867 7.612927 0 0 0 0 58.883705
9.0182638 3.5852566 7.4003081 0 0 0 0 58.888649
7.7312117 3.5715497 6.1374917 0 0 0 0 58.8936
9.7378149 5.0822401 7.5105982 0 0 0 0 58.898544
8.8046923 5.1199622 6.6155558 0 0 0 0 58.903488
9.0432205 3.8255377 7.4638481 0 0 0 0 58.90844
7.8062782 3.8211646 6.2508578 0 0 0 0 58.913383
9.6036606 5.2905612 7.4917002 0 0 0 0 58.918335
8.673645 5.314311 6.6076727 0 0 0 0 58.923279
8.9030924 3.998745 7.3950291 0 0 0 0 58.92823
8.2832947 4.2844038 6.6905804 0 0 0 0 58.933174
8.7538404 5.0842423 6.9127817 0 0 0 0 58.938118
9.7156239 6.262248 7.5067873 0 0 0 0 58.943069
7.8087568 3.7166965 6.5360274 0 0 0 0 58.948013
9.0921097 4.9628363 7.4128814 0 0 0 0 58.952965
8.6168098 5.2665372 6.8909373 0 0 0 0 58.957909
9.4995432 6.4340849 7.4542122 0 0 0 0 58.962852
8.1488428 4.1000528 6.869319 0 0 0 0 58.967804
8.9330111 5.1389685 7.3601179 0 0 0 0 58.972748
9.1422987 5.8771639 7.4072599 0 0 0 0 58.977699
8.6541882 6.1558237 6.9043984 0 0 0 0 58.982643
7.9928255 4.2461572 6.7925968 0 0 0 0 58.987587
8.7109709 5.2726893 7.2576265 0 0 0 0 58.992538
8.9862213 6.0663567 7.3834643 0 0 0 0 58.997482
8.315402 6.2068448 6.7494183 0 0 0 0 59.002434
7.8388386 4.3892789 6.7208734 0 0 0 0 59.007378
8.7587996 5.5741906 7.3839908 0 0 0 0 59.012329
8.8131695 6.2434421 7.3487439 0 0 0 0 59.017273
8.9463387 6.998229 7.3891039 0 0 0 0 59.022217
7.7118831 4.5435858 6.6770439 0 0 0 0 59.027168
7.7153974 5.1534877 6.5910578 0 0 0 0 59.032112
7.8360572 5.8202209 6.6405993 0 0 0 0 59.037064
8.6954165 7.1268444 7.3177137 0 0 0 0 59.042007
7.6098995 4.7160559 6.6541047 0 0 0 0 59.046951
7.6064425 5.3299465 6.5841341 0 0 0 0 59.051903
7.7470608 6.0288491 6.6735587 0 0 0 0 59.056847
8.5004435 7.2958312 7.2960777 0 0 0 0 59.061798
7.5479226 4.9117994 6.6709986 0 0 0 0 59.066742
7.5544252 5.5507884 6.6299543 0 0 0 0 59.071693
8.2821712 6.7496409 7.2546644 0 0 0 0 59.076637
8.2755337 7.4376206 7.2505832 0 0 0 0 59.081581
7.5079169 5.1276965 6.7117877 0 0 0 0 59.086533
8.1067209 6.2416849 7.2190514 0 0 0 0 59.091476
8.0902185 6.9036121 7.215044 0 0 0 0 59.096428
8.0616322 7.5844841 7.2160454 0 0 0 0 59.101372
7.9704819 5.7109761 7.2103486 0 0 0 0 59.106316
7.9367452 6.3997688 7.1783543 0 0 0 0 59.111267
7.9062886 7.0606427 7.1873932 0 0 0 0 59.116211
7.8298101 7.7072282 7.1676054 0 0 0 0 59.121162
7.8284731 5.8782134 7.1735468 0 0 0 0 59.126106
7.7757754 6.5639176 7.1496181 0 0 0 0 59.13105
7.7053957 7.20156 7.1458249 0 0 0 0 59.136002
7.5690923 7.7957807 7.0963159 0 0 0 0 59.140945
7.6984544 6.057539 7.1536865 0 0 0 0 59.145897
7.6178236 6.7280908 7.126873 0 0 0 0 59.150841
7.51054 7.3395185 7.1112418 0 0 0 0 59.155792
7.0740027 7.6227255 6.7972136 0 0 0 0 59.160736
7.5734515 6.2379012 7.1408086 0 0 0 0 59.16568
7.4498944 6.8852034 7.100172 0 0 0 0 59.170631
7.1291046 7.2882066 6.9015737 0 0 0 0 59.175575
6.8662615 7.7426229 6.7697029 0 0 0 0 59.180527
7.4254684 6.4031129 7.1100297 0 0 0 0 59.185471
7.2700076 7.0272341 7.0625353 0 0 0 0 59.190414
6.8475041 7.3245654 6.7824397 0 0 0 0 59.195366
6.6705108 7.8736057 6.7571363 0 0 0 0 59.20031
7.2785001 6.568336 7.0842485 0 0 0 0 59.205261
6.8625946 6.9407001 6.8030114 0 0 0 0 59.210205
6.6527472 7.444521 6.7498884 0 0 0 0 59.215149
6.421937 7.9372206 6.6908522 0 0 0 0 59.2201
7.1265478 6.7295299 7.0574903 0 0 0 0 59.225044
6.6697984 7.0596428 6.7564559 0 0 0 0 59.229996
6.4599929 7.5654898 6.7203298 0 0 0 0 59.23494
6.1993098 8.0270119 6.6504416 0 0 0 0 59.239891
6.7540178 6.6752028 6.8138032 0 0 0 0 59.244835
6.4910002 7.1866794 6.7228422 0 0 0 0 59.249779
6.2532978 7.6683655 6.6798463 0 0 0 0 59.25473
5.9936705 8.1319256 6.6309519 0 0 0 0 59.259674
6.5442257 6.7709956 6.7313414 0 0 0 0 59.264626
6.3142047 7.3167338 6.6952176 0 0 0 0 59.269569
6.0476346 7.7662482 6.6413684 0 0 0 0 59.274513
5.7601433 8.1976414 6.5826178 0 0 0 0 59.279465
6.3913579 6.9191885 6.7106094 0 0 0 0 59.284409
6.1244693 7.4297042 6.6586633 0 0 0 0 59.28936
5.8420091 7.8581319 6.6049008 0 0 0 0 59.294304
5.537631 8.2664318 6.5442433 0 0 0 0 59.299255
6.2216692 7.0498252 6.6748958 0 0 0 0 59.050873
5.9408894 7.5482907 6.629014 0 0 0 0 59.055817
5.6315899 7.943574 6.5643902 0 0 0 0 59.060768
5.3073883 8.3187752 6.4978476 0 0 0 0 59.065712
6.04985 7.1819034 6.6412492 0 0 0 0 59.070656
