# .PCD v0.7 - Point Cloud Data file format
VERSION 0.7
FIELDS x y z normal_x normal_y normal_z intensity curvature
SIZE 4 4 4 4 4 4 4 4
TYPE F F F F F F F F
COUNT 1 1 1 1 1 1 1 1
WIDTH 974
HEIGHT 1
VIEWPOINT 0 0 0 1 0 0 0
POINTS 974
DATA ascii
-6.3132586 6.9073377 4.9674554 0 0 0 0 52.832264
-6.0409555 6.4381161 4.9786606 0 0 0 0 52.837212
-7.055625 7.7854891 4.9170437 0 0 0 0 52.842159
-6.7466531 7.2264752 4.9366107 0 0 0 0 52.847103
-6.4512305 6.7443895 4.9526157 0 0 0 0 52.852051
-6.1549835 6.2813473 4.9607019 0 0 0 0 52.856998
-7.2093797 7.5735154 4.8830776 0 0 0 0 52.861946
-6.8945317 7.0444832 4.9157448 0 0 0 0 52.866894
-6.5751586 6.5675774 4.9286265 0 0 0 0 52.871841
-6.2740211 6.1305199 4.9478016 0 0 0 0 52.876785
-7.3922057 7.392231 4.8724298 0 0 0 0 52.881733
-7.0474076 6.8694162 4.9029422 0 0 0 0 52.886681
-6.697093 6.3937688 4.9066401 0 0 0 0 52.891628
-6.3850322 5.9727645 4.9308209 0 0 0 0 52.896576
-7.5459294 7.1842113 4.8474827 0 0 0 0 52.901524
-7.1701913 6.6646442 4.8708196 0 0 0 0 52.906467
-6.8290286 6.2308326 4.8967643 0 0 0 0 52.911415
-6.500041 5.8219423 4.921896 0 0 0 0 52.916363
-7.7026625 6.9806571 4.8258915 0 0 0 0 52.791981
-7.3110533 6.4821572 4.8552585 0 0 0 0 52.796928
-6.9459734 6.0535197 4.8761067 0 0 0 0 52.801876
-6.6031017 5.6616988 4.9042578 0 0 0 0 52.806824
-7.6178112 6.5709085 4.6635747 0 0 0 0 52.811768
-7.4508681 6.2971859 4.841331 0 0 0 0 52.816715
-7.059864 5.8767476 4.8580585 0 0 0 0 52.821663
-6.7050805 5.5000019 4.8882041 0 0 0 0 52.826611
-7.6102123 6.2463751 4.5571141 0 0 0 0 52.831558
-7.5796509 6.1053028 4.824306 0 0 0 0 52.836502
-7.1727362 5.7009625 4.8440084 0 0 0 0 52.84145
-6.8000369 5.335351 4.8720951 0 0 0 0 52.846397
-7.5746098 5.9130816 4.4404411 0 0 0 0 52.851345
-7.6272926 5.8531914 4.7605114 0 0 0 0 52.856293
-7.2866111 5.5251732 4.8289642 0 0 0 0 52.86124
-6.8980017 5.1756597 4.8600264 0 0 0 0 52.866184
-7.5660906 5.6114998 4.3460765 0 0 0 0 52.871132
-7.6048408 5.5567322 4.6600866 0 0 0 0 52.87608
-7.3854537 5.3415046 4.809793 0 0 0 0 52.881027
-6.9879456 5.0080504 4.8418727 0 0 0 0 52.885975
-7.8821201 5.5518069 4.440794 0 0 0 0 52.890923
-7.9078369 5.4951134 4.7577167 0 0 0 0 52.895866
-7.4872708 5.1587911 4.7956433 0 0 0 0 52.900814
-7.0748773 4.842442 4.8277102 0 0 0 0 52.905762
-8.2491322 5.5106449 4.5599084 0 0 0 0 52.910709
-8.0325565 5.3051996 4.7516761 0 0 0 0 52.915657
-7.5810843 4.9741406 4.7794361 0 0 0 0 52.920605
-7.1577988 4.6748652 4.8125138 0 0 0 0 52.925549
-8.2395868 5.2170095 4.4775734 0 0 0 0 52.930496
-8.1322374 5.0985184 4.7324047 0 0 0 0 52.935444
-7.6688938 4.78754 4.7611837 0 0 0 0 52.940392
-7.2397051 4.5052938 4.7973018 0 0 0 0 52.945339
-8.2160587 4.9244814 4.3931565 0 0 0 0 52.950283
-8.20189 4.8771048 4.6998825 0 0 0 0 52.955231
-7.7566814 4.5999289 4.7449255 0 0 0 0 52.960178
-7.3246136 4.3416724 4.7881346 0 0 0 0 52.965126
-8.1965666 4.6419024 4.313808 0 0 0 0 52.970074
-8.2505283 4.6468744 4.6591911 0 0 0 0 52.975021
-7.8384614 4.412353 4.7296309 0 0 0 0 52.979965
-7.3915052 4.1672225 4.7688084 0 0 0 0 52.984913
-8.2041273 4.3850431 4.2547412 0 0 0 0 52.989861
-8.2361412 4.3872218 4.5879788 0 0 0 0 52.994808
-7.9232273 4.2257419 4.7173586 0 0 0 0 52.999756
-7.4663868 3.9976826 4.7565522 0 0 0 0 53.004704
-8.1906891 4.1233582 4.1895232 0 0 0 0 53.009647
-8.2207718 4.1315722 4.517777 0 0 0 0 53.014595
-7.9959879 4.0352316 4.7009945 0 0 0 0 53.019543
-7.5402608 3.8291395 4.746294 0 0 0 0 53.02449
-8.2214193 3.8927364 4.4637494 0 0 0 0 53.034386
-8.0757236 3.8476391 4.6916852 0 0 0 0 53.03933
-7.603128 3.6547 4.7299409 0 0 0 0 53.044277
-0.44778976 0.20536511 0.25426641 0 0 0 0 53.049225
-8.0824747 3.6287379 4.6427851 0 0 0 0 53.05912
-7.6739793 3.4861617 4.7226639 0 0 0 0 53.064064
-0.39659739 0.17176627 0.24283177 0 0 0 0 53.073959
-7.7018447 3.2990358 4.6910367 0 0 0 0 53.083855
-0.39560702 0.15885967 0.22378455 0 0 0 0 53.088802
-0.42441434 0.17343251 0.27104315 0 0 0 0 53.098694
-0.40042225 0.15073852 0.24080971 0 0 0 0 53.113537
-0.439228 0.1712077 0.29515746 0 0 0 0 53.123428
-0.4114157 0.14071986 0.22784899 0 0 0 0 53.128376
-0.41724783 0.14850943 0.26293591 0 0 0 0 53.138271
-0.41423658 0.13261704 0.24386206 0 0 0 0 53.153111
-0.43007323 0.14630775 0.28503814 0 0 0 0 53.163006
-0.39724764 0.11385599 0.21768916 0 0 0 0 53.167953
-0.41308245 0.12555616 0.25685576 0 0 0 0 53.177845
-0.38709733 0.10387747 0.22661373 0 0 0 0 53.192688
-0.42091891 0.12240349 0.27592292 0 0 0 0 53.202583
-0.38208696 0.088994876 0.20853196 0 0 0 0 53.207527
-0.39693975 0.10071582 0.24469277 0 0 0 0 53.217422
-0.37693781 0.080971964 0.219496 0 0 0 0 53.232265
-0.41776043 0.10143838 0.27085778 0 0 0 0 53.242157
-0.37392816 0.067070842 0.20243084 0 0 0 0 53.247105
-0.38778675 0.078803077 0.2375858 0 0 0 0 53.257
-0.3700918 0.060875282 0.21527512 0 0 0 0 53.918221
-0.40091765 0.077425927 0.26056641 0 0 0 0 53.928112
-0.3730568 0.046914376 0.20224473 0 0 0 0 53.93306
-0.37594813 0.057752144 0.23033044 0 0 0 0 53.942955
-0.36693078 0.041903201 0.21221453 0 0 0 0 53.957794
-0.39776257 0.058457948 0.25650632 0 0 0 0 53.96769
-0.36490133 0.026988698 0.19714747 0 0 0 0 53.972637
-0.37877464 0.039721362 0.23031253 0 0 0 0 53.982533
-0.36376932 0.02293127 0.20915349 0 0 0 0 53.997372
-0.38463843 0.038592696 0.24637778 0 0 0 0 54.007267
-0.37071478 0.0089265881 0.19914797 0 0 0 0 54.012215
-0.37262654 0.021775939 0.22623752 0 0 0 0 54.022106
-0.35662121 0.0049936031 0.20507172 0 0 0 0 54.036949
-0.37948993 0.020639816 0.24230903 0 0 0 0 54.046841
-0.37253425 -0.0091015352 0.20012292 0 0 0 0 54.051788
-0.37345856 0.0037647351 0.22520633 0 0 0 0 54.061684
-0.36642173 -0.012112777 0.21010202 0 0 0 0 54.076523
-0.38729569 0.0025573117 0.24532214 0 0 0 0 54.086418
-0.37533939 -0.028141964 0.20209895 0 0 0 0 54.091366
-0.38225865 -0.013334853 0.23023047 0 0 0 0 54.101257
-0.37222734 -0.03018024 0.21310191 0 0 0 0 54.1161
-0.38713509 -0.013451973 0.24529432 0 0 0 0 54.125996
-0.37813669 -0.048182465 0.2040697 0 0 0 0 54.130939
-0.3800889 -0.032319203 0.2281747 0 0 0 0 54.140835
-0.38200468 -0.050287165 0.21811701 0 0 0 0 54.155678
-0.38497227 -0.031436533 0.24324352 0 0 0 0 54.165569
-0.38590655 -0.069274716 0.20906693 0 0 0 0 54.170517
-0.3819001 -0.050352801 0.23014894 0 0 0 0 54.180412
-0.37982136 -0.06928128 0.21806057 0 0 0 0 54.195251
-0.40769586 -0.052674688 0.25533649 0 0 0 0 54.205147
-0.37475643 -0.087182611 0.20495793 0 0 0 0 54.210094
-0.38470334 -0.069393814 0.23212427 0 0 0 0 54.219986
-0.38361055 -0.089334495 0.22103699 0 0 0 0 54.234829
-0.40750518 -0.071689211 0.25629285 0 0 0 0 54.24472
-0.37554556 -0.10721352 0.20791486 0 0 0 0 54.249668
-0.38649869 -0.089427516 0.23408788 0 0 0 0 54.259563
-0.37644017 -0.10728668 0.21995282 0 0 0 0 54.274403
-0.39537436 -0.088580124 0.25018224 0 0 0 0 54.284298
-0.37532675 -0.12823707 0.21086 0 0 0 0 54.289246
-0.38530743 -0.10843415 0.235037 0 0 0 0 54.299137
-0.37822089 -0.12832518 0.22291069 0 0 0 0 54.31398
-0.40412778 -0.110686 0.25618032 0 0 0 0 54.323875
-0.38803834 -0.15338686 0.2198679 0 0 0 0 54.328819
-0.39404675 -0.13154478 0.24202964 0 0 0 0 54.338715
-0.39391151 -0.15450752 0.23393278 0 0 0 0 54.353558
-0.41288042 -0.13279223 0.26217821 0 0 0 0 54.363449
-0.39972034 -0.18153465 0.229854 0 0 0 0 54.368397
-0.41172278 -0.15874755 0.25405964 0 0 0 0 54.378292
-0.40298823 -0.18054333 0.24150667 0 0 0 0 54.079136
-0.40905282 -0.15268989 0.26169673 0 0 0 0 54.089031
-0.41772306 -0.21366067 0.24245608 0 0 0 0 54.093975
-0.41483548 -0.18272172 0.25860414 0 0 0 0 54.10387
-0.41763806 -0.21172172 0.25349739 0 0 0 0 54.118713
-0.42571715 -0.18188336 0.27371049 0 0 0 0 54.128605
-0.43233654 -0.24884419 0.25542662 0 0 0 0 54.133553
-0.43148458 -0.21391532 0.27060768 0 0 0 0 54.143448
-5.5321107 -3.1984625 2.8875768 0 0 0 0 54.153339
-0.43226567 -0.24490561 0.26647788 0 0 0 0 54.158287
-0.4364008 -0.21002354 0.28369099 0 0 0 0 54.168182
-5.5354772 -3.3757596 2.929764 0 0 0 0 54.17313
-5.5404725 -3.1532931 3.027916 0 0 0 0 54.178078
-0.44412538 -0.24608012 0.28258055 0 0 0 0 54.183022
-5.4842167 -3.5235288 2.9467449 0 0 0 0 54.192917
-5.5438776 -3.3275764 3.0671175 0 0 0 0 54.197865
-5.5559988 -3.1010878 3.150336 0 0 0 0 54.202812
-0.43515095 -0.23504107 0.28660986 0 0 0 0 54.207756
-5.2484598 -3.5494537 2.8671412 0 0 0 0 54.212704
-5.4748154 -3.4601443 3.0700581 0 0 0 0 54.217651
-5.5455613 -3.2632143 3.1785083 0 0 0 0 54.222599
-5.5906444 -3.0300398 3.275974 0 0 0 0 54.227547
-5.0236917 -3.5734758 2.7916148 0 0 0 0 54.232494
-5.3541703 -3.5591941 3.045831 0 0 0 0 54.237438
-5.5311079 -3.4263165 3.207648 0 0 0 0 54.242386
-5.5584393 -3.175916 3.2860858 0 0 0 0 54.247334
-4.863431 -3.6341472 2.7513187 0 0 0 0 54.252281
-5.0977249 -3.5618501 2.9442048 0 0 0 0 54.257229
-5.3797708 -3.5050132 3.1583228 0 0 0 0 54.262177
-5.5658717 -3.3472207 3.3233259 0 0 0 0 54.26712
-4.8240786 -3.7840531 2.7793567 0 0 0 0 54.272068
-4.9127398 -3.6032321 2.882844 0 0 0 0 54.277016
-5.1908059 -3.5513229 3.087913 0 0 0 0 54.281963
-5.4810238 -3.4665754 3.3072262 0 0 0 0 54.286911
-4.852622 -3.7349043 2.8948379 0 0 0 0 54.296803
-4.9830475 -3.5784397 3.0074749 0 0 0 0 54.30175
-5.3605032 -3.5595584 3.2700255 0 0 0 0 54.306698
-4.8853316 -3.679692 2.9913764 0 0 0 0 54.321537
-5.1170802 -3.5662634 3.1604571 0 0 0 0 54.326485
-5.5888219 -4.4093752 3.4683287 0 0 0 0 54.341328
-4.9401231 -3.6106601 3.0911283 0 0 0 0 54.346275
-4.8761306 -3.7352426 3.0911288 0 0 0 0 54.366062
-4.208333 -4.1773438 2.6975825 0 0 0 0 54.37101
-4.0601134 -4.2231393 2.667423 0 0 0 0 54.390797
-3.467422 -3.7801175 2.3408206 0 0 0 0 54.410583
-3.29878 -3.7686343 2.2878098 0 0 0 0 54.430374
-3.9399159 -4.1945424 2.7068567 0 0 0 0 54.435318
-3.1539133 -3.7753968 2.2488604 0 0 0 0 54.450161
-3.3682227 -3.7576382 2.375355 0 0 0 0 54.455109
-3.0288136 -3.8013759 2.2239416 0 0 0 0 54.469948
-3.2204025 -3.7633476 2.3303909 0 0 0 0 54.474895
-3.8476241 -4.1880951 2.7353575 0 0 0 0 54.479843
-2.9096651 -3.8304176 2.2030444 0 0 0 0 54.489738
-3.0756195 -3.7640767 2.2854698 0 0 0 0 54.494682
-3.704565 -4.2208691 2.6952879 0 0 0 0 54.49963
-2.8161895 -3.8877418 2.200171 0 0 0 0 54.509525
-2.9486175 -3.7830031 2.2535713 0 0 0 0 54.514473
-3.1521022 -3.7640376 2.3540049 0 0 0 0 54.519421
-2.717756 -3.9410169 2.1952834 0 0 0 0 54.529312
-2.8275666 -3.8049924 2.2256947 0 0 0 0 54.53426
-3.0073683 -3.7617438 2.3050966 0 0 0 0 54.539207
-3.6483159 -4.2156448 2.7160122 0 0 0 0 54.544155
-2.7320268 -3.8548431 2.2155147 0 0 0 0 54.285763
-2.8802707 -3.7761986 2.2668722 0 0 0 0 54.290707
-3.1136134 -3.7694776 2.3764215 0 0 0 0 54.295654
-2.6376173 -3.9071457 2.2086678 0 0 0 0 54.30555
-2.7681623 -3.8042748 2.2410321 0 0 0 0 54.310497
-2.9659643 -3.7621357 2.3195295 0 0 0 0 54.315441
-2.6678777 -3.8474879 2.2251916 0 0 0 0 54.330284
-2.8439925 -3.7820778 2.2816658 0 0 0 0 54.335232
-2.5784156 -3.9068253 2.2183392 0 0 0 0 54.350071
-2.7259951 -3.802068 2.2478259 0 0 0 0 54.355019
-2.2050571 -4.1357837 2.1577837 0 0 0 0 54.359966
-2.6267154 -3.846276 2.2299848 0 0 0 0 54.374805
-2.0919995 -4.14889 2.1410041 0 0 0 0 54.379753
-2.5451515 -3.9166858 2.2261257 0 0 0 0 54.394596
-1.9858284 -4.1720762 2.1302173 0 0 0 0 54.399544
-2.1557722 -4.1375799 2.1774995 0 0 0 0 54.404488
-1.8640785 -4.1540532 2.1015344 0 0 0 0 54.419331
-2.0368824 -4.1375842 2.1497455 0 0 0 0 54.424278
-1.7980046 -4.2597647 2.1355917 0 0 0 0 54.439117
-1.9258738 -4.1466861 2.1299958 0 0 0 0 54.444065
-2.101629 -4.1402206 2.1741772 0 0 0 0 54.449013
-1.8383522 -4.2030897 2.1351602 0 0 0 0 54.463852
-1.9876816 -4.1462698 2.1484232 0 0 0 0 54.4688
-1.7497946 -4.2624941 2.1423011 0 0 0 0 54.483643
-1.8679061 -4.1362329 2.1147101 0 0 0 0 54.488586
-2.066443 -4.1529765 2.165926 0 0 0 0 54.493534
-1.8028243 -4.2469254 2.1437457 0 0 0 0 54.508377
-1.9554011 -4.1700559 2.142133 0 0 0 0 54.513325
-1.8395669 -4.1670504 2.1094084 0 0 0 0 54.533112
-0.69808334 -3.5063281 1.668329 0 0 0 0 54.61721
-0.60286957 -3.4304094 1.6261003 0 0 0 0 54.636997
-0.73919231 -3.4955781 1.6536689 0 0 0 0 54.641945
-0.51734191 -3.3826447 1.5997925 0 0 0 0 54.656784
-0.64861101 -3.455771 1.6262877 0 0 0 0 54.661732
-0.44598594 -3.4131763 1.6101804 0 0 0 0 54.676575
-0.55732721 -3.3868949 1.5870486 0 0 0 0 54.681522
-0.69031751 -3.490077 1.6214033 0 0 0 0 54.686466
-0.36528644 -3.3814864 1.5918212 0 0 0 0 54.696362
-0.48032263 -3.3862906 1.5795566 0 0 0 0 54.701309
-0.5950976 -3.417145 1.5771586 0 0 0 0 54.706257
-0.72949648 -3.4832356 1.5917112 0 0 0 0 54.711205
-0.29111907 -3.3929584 1.5952853 0 0 0 0 54.716148
-0.4050585 -3.4097602 1.583953 0 0 0 0 54.721096
-0.50854683 -3.3753541 1.5478121 0 0 0 0 54.726044
-0.63886368 -3.4514203 1.5632876 0 0 0 0 54.730991
-0.21705972 -3.3944042 1.5937999 0 0 0 0 54.735939
-0.32538816 -3.3760662 1.5636096 0 0 0 0 54.740887
-0.43417263 -3.4108455 1.5551528 0 0 0 0 54.745831
-0.5456028 -3.3825107 1.5210344 0 0 0 0 54.750778
-0.1426298 -3.4027452 1.5971506 0 0 0 0 54.496983
-0.25100836 -3.382369 1.5609611 0 0 0 0 54.501926
-0.35319474 -3.3799927 1.5336412 0 0 0 0 54.506874
-0.4643594 -3.3796892 1.50737 0 0 0 0 54.511822
-0.067736149 -3.3871591 1.5897497 0 0 0 0 54.516769
-0.17571931 -3.406857 1.5683568 0 0 0 0 54.521717
-0.27608204 -3.3904116 1.5300962 0 0 0 0 54.526665
-0.38814428 -3.4021256 1.5057707 0 0 0 0 54.531609
0.0069353529 -3.3505218 1.5724556 0 0 0 0 54.536556
-0.099781349 -3.3972626 1.5609187 0 0 0 0 54.541504
-0.19902797 -3.3938243 1.5255858 0 0 0 0 54.546452
-0.30628178 -3.3894467 1.4903103 0 0 0 0 54.551399
0.078977585 -3.3479955 1.5730064 0 0 0 0 54.556343
-0.023131052 -3.3595996 1.5416164 0 0 0 0 54.561291
-0.12195989 -3.3982413 1.5220691 0 0 0 0 54.566238
-0.22543451 -3.374774 1.4748657 0 0 0 0 54.571186
0.15211314 -3.3544807 1.5775034 0 0 0 0 54.576134
0.050869819 -3.3550377 1.538164 0 0 0 0 54.581081
-0.04324412 -3.3685672 1.5037128 0 0 0 0 54.586025
-0.14809871 -3.4072344 1.4802052 0 0 0 0 54.590973
0.2251834 -3.353955 1.5800354 0 0 0 0 54.595921
0.12487058 -3.3504748 1.5347106 0 0 0 0 54.600868
0.032649789 -3.3549595 1.494293 0 0 0 0 54.605816
-0.068152562 -3.4005969 1.4707241 0 0 0 0 54.610764
0.29720321 -3.3484259 1.5805987 0 0 0 0 54.615707
0.19998536 -3.3559332 1.5371985 0 0 0 0 54.620655
0.10857987 -3.3453555 1.4858521 0 0 0 0 54.625603
0.01027472 -3.3438561 1.4395052 0 0 0 0 54.63055
0.37131563 -3.3509057 1.5861069 0 0 0 0 54.635498
0.27402067 -3.3533831 1.536733 0 0 0 0 54.640446
0.18460906 -3.3437805 1.4833689 0 0 0 0 54.64539
0.088312827 -3.3452561 1.4349943 0 0 0 0 54.650337
0.44539154 -3.3493795 1.5906347 0 0 0 0 54.655285
0.3489978 -3.3448145 1.5342909 0 0 0 0 54.660233
0.26171783 -3.3502119 1.4838371 0 0 0 0 54.66518
0.16632931 -3.3446498 1.4294926 0 0 0 0 54.670124
0.51841033 -3.3428447 1.5921938 0 0 0 0 54.675072
0.42413336 -3.3512797 1.5387707 0 0 0 0 54.680019
0.33551523 -3.3256049 1.4724835 0 0 0 0 54.684967
0.24534476 -3.3430402 1.4249884 0 0 0 0 54.689915
0.59148538 -3.3403294 1.5977315 0 0 0 0 54.694862
0.50016659 -3.3467219 1.5402994 0 0 0 0 54.699806
0.39398983 -3.1738229 1.4058754 0 0 0 0 54.704754
0.32228786 -3.3344295 1.4175326 0 0 0 0 54.709702
0.66660368 -3.3418078 1.6052343 0 0 0 0 54.714649
0.57521498 -3.3441701 1.5418235 0 0 0 0 54.719597
0.48859924 -3.3224599 1.4715041 0 0 0 0 54.724545
0.3793897 -3.1455841 1.3371221 0 0 0 0 54.729488
0.74067128 -3.3382831 1.6107687 0 0 0 0 54.734436
0.65128392 -3.3426201 1.5453351 0 0 0 0 54.739384
0.56882179 -3.3378994 1.4789022 0 0 0 0 54.744331
0.81894022 -3.352777 1.6261828 0 0 0 0 54.754227
0.72628707 -3.3340664 1.5468882 0 0 0 0 54.759171
0.6468845 -3.337323 1.4803948 0 0 0 0 54.764118
0.56251031 -3.342628 1.4159243 0 0 0 0 54.769066
0.90544021 -3.3882647 1.6524346 0 0 0 0 54.774014
0.80544925 -3.3405166 1.5553367 0 0 0 0 54.778961
0.72492468 -3.3337457 1.4819021 0 0 0 0 54.783905
0.64145756 -3.3320129 1.4114615 0 0 0 0 54.788853
0.97421056 -3.3557146 1.6461488 0 0 0 0 54.7938
0.89918292 -3.3999906 1.5894177 0 0 0 0 54.798748
0.80605155 -3.3381646 1.4873471 0 0 0 0 54.803696
0.72252733 -3.3324115 1.4129279 0 0 0 0 54.808643
1.0450662 -3.3301735 1.6448128 0 0 0 0 54.813587
0.97094578 -3.3674114 1.5821117 0 0 0 0 54.818535
0.89859849 -3.3815944 1.5115166 0 0 0 0 54.823483
0.80461121 -3.3338068 1.4153812 0 0 0 0 54.82843
1.1356089 -3.3676481 1.6750244 0 0 0 0 54.833378
1.0437592 -3.339834 1.5767726 0 0 0 0 54.838326
0.97341228 -3.3549964 1.5051595 0 0 0 0 54.843269
0.9022336 -3.387197 1.439465 0 0 0 0 54.848217
1.2167611 -3.3690996 1.6874806 0 0 0 0 54.853165
1.1280071 -3.3522725 1.5911527 0 0 0 0 54.858112
1.0533996 -3.3443999 1.5066856 0 0 0 0 54.86306
0.97899634 -3.3565676 1.4301151 0 0 0 0 54.868008
1.2793688 -3.319566 1.6763195 0 0 0 0 54.872952
1.2162682 -3.3646898 1.607505 0 0 0 0 54.877899
1.1333791 -3.3328021 1.508216 0 0 0 0 54.882847
1.0588675 -3.3359396 1.4256927 0 0 0 0 54.887794
1.3533306 -3.3020337 1.6819189 0 0 0 0 54.892742
1.2808681 -3.3151348 1.5953305 0 0 0 0 54.897686
1.2257071 -3.3531926 1.5254997 0 0 0 0 54.902634
1.1480366 -3.3433073 1.4340641 0 0 0 0 54.907581
1.4682868 -3.3754277 1.7327794 0 0 0 0 54.912529
1.3608887 -3.3045604 1.6018534 0 0 0 0 54.917477
1.2953359 -3.3075984 1.5132711 0 0 0 0 54.922424
1.2422854 -3.3576558 1.446365 0 0 0 0 54.927368
1.5524217 -3.3718677 1.7482374 0 0 0 0 54.932316
1.4808908 -3.3839149 1.6526483 0 0 0 0 54.937263
1.3752836 -3.2910025 1.5158248 0 0 0 0 54.942211
1.3108107 -3.3020477 1.4301946 0 0 0 0 54.947159
1.5710562 -3.3853028 1.6670399 0 0 0 0 54.95705
1.5064263 -3.3852918 1.5704672 0 0 0 0 54.961998
1.3978174 -3.2924023 1.4336648 0 0 0 0 54.966946
1.6130041 -3.4114892 1.5935559 0 0 0 0 55.763874
1.5299342 -3.3755221 1.4783185 0 0 0 0 55.768822
1.9730641 -4.105814 1.8053617 0 0 0 0 55.788609
2.0983291 -4.1149163 1.8234371 0 0 0 0 55.808399
2.4788966 -4.168335 2.2735245 0 0 0 0 55.813343
2.2153654 -4.1020398 1.8336852 0 0 0 0 55.828186
2.5329101 -4.0617356 2.2437069 0 0 0 0 55.833134
2.5089447 -4.1513863 2.1433878 0 0 0 0 55.838081
2.3384924 -4.0971351 1.8478469 0 0 0 0 55.847973
2.5679858 -4.0467567 2.115525 0 0 0 0 55.857868
2.5264301 -4.0794377 1.9956321 0 0 0 0 55.862816
2.4574885 -4.0792389 1.8581053 0 0 0 0 55.867764
2.5713692 -4.0493665 1.8654621 0 0 0 0 55.88755
2.712683 -4.0583711 1.8904185 0 0 0 0 55.907337
2.8600099 -4.0663424 1.9183367 0 0 0 0 55.927124
2.9950922 -4.0513606 1.9374615 0 0 0 0 55.946915
3.1453638 -4.0523043 1.9653933 0 0 0 0 55.966702
3.2945423 -4.0432439 1.9913845 0 0 0 0 55.986488
3.4507577 -4.0361414 2.0203142 0 0 0 0 56.006279
3.6160247 -4.0319862 2.0531626 0 0 0 0 56.026066
3.8136406 -4.0556679 2.1036325 0 0 0 0 56.045853
4.2396641 -4.2149382 2.7778044 0 0 0 0 56.0508
4.264236 -4.0654879 2.7354145 0 0 0 0 56.070587
4.2804365 -4.1084485 2.569057 0 0 0 0 56.075535
4.2925286 -4.1334691 2.4078252 0 0 0 0 56.080482
4.4912529 -4.1071253 2.8215749 0 0 0 0 56.090378
4.357379 -4.0208845 2.2179422 0 0 0 0 56.105217
4.6301541 -4.0591574 2.8518343 0 0 0 0 56.110165
4.7983494 -4.0330448 2.8987687 0 0 0 0 56.129951
5.0251398 -4.0486608 2.9820631 0 0 0 0 56.149742
5.3602672 -4.1224961 2.9002607 0 0 0 0 56.174477
5.5220513 -4.0573502 2.9334431 0 0 0 0 56.194263
5.7342877 -4.0239477 2.9940963 0 0 0 0 56.21405
6.0405397 -4.0473561 3.1021438 0 0 0 0 56.010052
6.1102552 -4.0024695 2.6768639 0 0 0 0 56.019947
5.7724032 -3.7307479 3.154707 0 0 0 0 56.024895
6.4985557 -4.0913138 3.0376503 0 0 0 0 56.034786
5.9412799 -3.666616 3.1998396 0 0 0 0 56.044682
6.7284842 -4.0237451 3.0933664 0 0 0 0 56.054577
6.155468 -3.6222379 3.2665465 0 0 0 0 56.064468
6.4939928 -3.7560701 3.1824343 0 0 0 0 56.069416
7.0944142 -4.0254302 3.2117529 0 0 0 0 56.074364
7.8295407 -4.3668032 3.2577338 0 0 0 0 56.079311
6.4442139 -3.6124766 3.3725417 0 0 0 0 56.084259
6.7099481 -3.6886339 3.2422478 0 0 0 0 56.089207
7.7977433 -4.194222 3.4778645 0 0 0 0 56.094151
7.7396755 -4.0779963 3.1708777 0 0 0 0 56.099098
6.8407335 -3.6501508 3.53352 0 0 0 0 56.104046
6.9651079 -3.6309776 3.3197308 0 0 0 0 56.108994
6.927362 -3.5237858 3.0485561 0 0 0 0 56.113941
7.0075459 -3.4829557 2.8331947 0 0 0 0 56.118885
6.900496 -3.4985642 3.5208826 0 0 0 0 56.123833
6.99858 -3.4565187 3.2924008 0 0 0 0 56.12878
7.0453887 -3.3838632 3.0604458 0 0 0 0 56.133728
7.1556573 -3.3458381 2.853857 0 0 0 0 56.138676
7.0368323 -3.3845732 3.5465033 0 0 0 0 56.143623
7.1156697 -3.3226147 3.3062642 0 0 0 0 56.148567
7.3083644 -3.3071151 3.1339731 0 0 0 0 56.153515
7.4859209 -3.2876546 2.9468088 0 0 0 0 56.158463
7.3030825 -3.3258989 3.6379099 0 0 0 0 56.16341
7.4582958 -3.2864757 3.42501 0 0 0 0 56.168358
7.7765765 -3.3071897 3.2936356 0 0 0 0 56.173306
7.9488664 -3.2686808 3.0906096 0 0 0 0 56.178249
7.7344093 -3.3293383 3.8098137 0 0 0 0 56.183197
7.8984156 -3.2747753 3.5849319 0 0 0 0 56.188145
8.1721573 -3.25667 3.4220786 0 0 0 0 56.193092
8.4699745 -3.2503521 3.2559905 0 0 0 0 56.19804
8.0467443 -3.264389 3.9199219 0 0 0 0 56.202988
8.3745937 -3.2578549 3.7586222 0 0 0 0 56.207932
8.797987 -3.2768104 3.6445086 0 0 0 0 56.212879
9.1708612 -3.2709253 3.4858844 0 0 0 0 56.217827
8.5844879 -3.2762275 4.1400189 0 0 0 0 56.222775
9.0367613 -3.2898858 4.0147271 0 0 0 0 56.227722
12.106935 -4.1973457 4.9570861 0 0 0 0 56.232666
12.10247 -3.998117 4.5491662 0 0 0 0 56.237614
9.1753397 -3.2827451 4.3807626 0 0 0 0 56.242561
12.029404 -4.084733 5.2872066 0 0 0 0 56.247509
14.922764 -4.7996078 6.0508294 0 0 0 0 56.252457
15.052869 -4.5820618 5.6020489 0 0 0 0 56.257404
11.990541 -4.011085 5.6668444 0 0 0 0 56.262348
14.814605 -4.6726074 6.4492335 0 0 0 0 56.267296
13.809547 -4.093739 5.5514536 0 0 0 0 56.272243
15.634368 -4.3582053 5.7710562 0 0 0 0 56.277191
14.792467 -4.6043377 6.9237127 0 0 0 0 56.282139
13.763687 -4.0111966 5.9411821 0 0 0 0 56.287086
15.598618 -4.2398796 6.2169013 0 0 0 0 56.29203
15.578662 -3.9481921 5.7055879 0 0 0 0 56.296978
13.773637 -3.9715631 6.3952847 0 0 0 0 56.301926
15.542099 -4.1586719 6.6526918 0 0 0 0 56.306873
15.568145 -3.8527033 6.1581316 0 0 0 0 56.311821
14.866068 -3.3921947 5.4055781 0 0 0 0 56.316769
15.465049 -4.1078067 7.1194654 0 0 0 0 56.321712
15.507668 -3.7834866 6.585887 0 0 0 0 56.32666
14.88668 -3.3223972 5.8467655 0 0 0 0 56.331608
15.485518 -3.1471238 5.5934305 0 0 0 0 56.336555
13.630292 -3.3146453 6.2297196 0 0 0 0 56.341503
14.92067 -3.2945218 6.2926297 0 0 0 0 56.346447
15.691144 -3.1253057 6.1210408 0 0 0 0 56.351395
17.638994 -3.1526649 6.3320088 0 0 0 0 56.356342
14.532134 -3.2092619 6.5918097 0 0 0 0 56.36129
16.174488 -3.2009456 6.7761436 0 0 0 0 56.366238
17.587025 -3.0917161 6.8216548 0 0 0 0 56.371185
17.633341 -2.7234092 6.2982912 0 0 0 0 56.376129
15.624612 -3.1067901 7.038518 0 0 0 0 56.381077
17.356514 -3.0397465 7.225522 0 0 0 0 56.386024
17.577412 -2.6744514 6.779902 0 0 0 0 56.390972
17.631748 -2.2971532 6.2705321 0 0 0 0 56.39592
15.808467 -2.7984164 7.0768056 0 0 0 0 56.400867
13.286861 -2.0241365 5.5029497 0 0 0 0 56.405811
17.584957 -2.2661178 6.7509813 0 0 0 0 56.410759
17.634178 -1.8718809 6.2457433 0 0 0 0 56.415707
13.143521 -2.041182 5.8518419 0 0 0 0 56.420654
17.508341 -2.2742147 7.2104292 0 0 0 0 56.425602
17.589504 -1.8568199 6.7240915 0 0 0 0 56.43055
17.630663 -1.4506789 6.224978 0 0 0 0 56.435493
16.229248 -2.1683786 7.1800766 0 0 0 0 56.440441
17.517021 -1.8838691 7.1804075 0 0 0 0 56.445389
17.583071 -1.4506112 6.6972666 0 0 0 0 56.450336
17.629171 -1.0294824 6.2082024 0 0 0 0 56.455284
16.242268 -1.8210013 7.148798 0 0 0 0 56.460232
17.533722 -1.4924849 7.1553378 0 0 0 0 56.465176
17.589725 -1.0483453 6.6793308 0 0 0 0 56.470123
17.616703 -0.61138117 6.1924925 0 0 0 0 56.475071
16.378805 -1.4870151 7.1767011 0 0 0 0 56.222229
17.528479 -1.1054596 7.1306124 0 0 0 0 56.227177
17.581438 -0.64339745 6.6587057 0 0 0 0 56.232124
17.607489 -0.19653034 6.1829081 0 0 0 0 56.237072
16.457087 -1.1402922 7.1779437 0 0 0 0 56.24202
17.536266 -0.71717775 7.1105747 0 0 0 0 56.246967
17.565123 -0.24131918 6.6409159 0 0 0 0 56.251911
17.604145 0.21858977 6.1770997 0 0 0 0 56.256859
16.626719 -0.79807478 7.2235188 0 0 0 0 56.261806
17.519007 -0.33006027 7.0837111 0 0 0 0 56.266754
17.561863 0.15982102 6.6310325 0 0 0 0 56.271702
17.599838 0.63366914 6.1773019 0 0 0 0 56.276649
16.727079 -0.44726339 7.2416315 0 0 0 0 56.281593
17.519789 0.06014869 7.0667405 0 0 0 0 56.286541
17.556622 0.55993414 6.6231613 0 0 0 0 56.291489
17.589493 1.051705 6.1765676 0 0 0 0 56.296436
16.832438 -0.092437521 7.2647328 0 0 0 0 56.301384
17.508596 0.44725505 7.0508413 0 0 0 0 56.306332
17.547346 0.96500361 6.6173491 0 0 0 0 56.311275
17.634293 1.4720569 6.1994581 0 0 0 0 56.316223
16.932711 0.27035949 7.2859154 0 0 0 0 56.321171
17.491362 0.83732337 7.0330048 0 0 0 0 56.326118
17.554115 1.3711594 6.6194334 0 0 0 0 56.331066
17.60895 1.8919487 6.2028475 0 0 0 0 56.336014
17.363884 0.65103465 7.4528494 0 0 0 0 56.340958
17.498234 1.226505 7.0299959 0 0 0 0 56.345905
17.555923 1.7752531 6.6255445 0 0 0 0 56.350853
17.596666 2.3109026 6.2141428 0 0 0 0 56.355801
17.412949 1.0255018 7.4594617 0 0 0 0 56.360748
17.489054 1.6185728 7.0241213 0 0 0 0 56.365692
17.554737 2.1812999 6.6356926 0 0 0 0 56.37064
17.592392 2.7328882 6.2314024 0 0 0 0 56.375587
17.410873 1.3996577 7.4474382 0 0 0 0 56.380535
17.509998 2.0097923 7.0350308 0 0 0 0 56.385483
17.544531 2.588279 6.6449127 0 0 0 0 56.39043
17.571123 3.1537349 6.2487807 0 0 0 0 56.395374
17.414829 1.7748299 7.4413815 0 0 0 0 56.400322
17.47978 2.402705 7.0263176 0 0 0 0 56.40527
17.536325 2.9972575 6.6571336 0 0 0 0 56.410217
17.571829 3.585706 6.2760673 0 0 0 0 56.415165
17.414762 2.1529636 7.4363732 0 0 0 0 56.420113
17.522722 2.8060215 7.0521436 0 0 0 0 56.425056
17.541109 3.4162815 6.6803207 0 0 0 0 56.430004
17.580563 4.0197034 6.3103118 0 0 0 0 56.434952
17.42868 2.5391679 7.4393125 0 0 0 0 56.439899
17.496538 3.2019114 7.0534253 0 0 0 0 56.444847
17.527885 3.8311856 6.6986179 0 0 0 0 56.449795
17.559248 4.4544826 6.3397794 0 0 0 0 56.454739
16.717396 2.8031442 7.1387606 0 0 0 0 56.459686
15.653078 3.2280326 6.3246551 0 0 0 0 56.464634
17.527678 4.25214 6.7268596 0 0 0 0 56.469582
17.511929 4.8830872 6.3624024 0 0 0 0 56.474529
16.752447 3.1844349 7.1565328 0 0 0 0 56.479473
17.502186 4.0179887 7.0877199 0 0 0 0 56.484421
17.513395 4.6789966 6.7522378 0 0 0 0 56.489368
17.50662 5.3269248 6.4048138 0 0 0 0 56.494316
17.456413 3.7105782 7.4643221 0 0 0 0 56.499264
17.43693 4.4165859 7.0843077 0 0 0 0 56.504211
17.502157 5.106833 6.785604 0 0 0 0 56.509155
17.501295 5.7767334 6.4522624 0 0 0 0 56.514103
17.44327 4.10355 7.4695063 0 0 0 0 56.519051
17.476809 4.8397779 7.1282825 0 0 0 0 56.523998
17.470879 5.5335379 6.8131113 0 0 0 0 56.528946
17.48296 6.2284241 6.5018187 0 0 0 0 56.533894
17.427124 4.499475 7.4787321 0 0 0 0 56.538837
17.43754 5.2534928 7.1417761 0 0 0 0 56.543785
17.460594 5.9723368 6.8545394 0 0 0 0 56.548733
17.469536 6.6931376 6.5544157 0 0 0 0 56.55368
17.439974 4.9085546 7.5028262 0 0 0 0 56.558628
17.43931 5.6814165 7.1780577 0 0 0 0 56.563576
17.435249 6.4160228 6.8941064 0 0 0 0 56.56852
17.441139 7.153728 6.6071024 0 0 0 0 56.573467
17.402716 5.3123331 7.5072536 0 0 0 0 56.578415
17.397997 6.1040802 7.1976237 0 0 0 0 56.583363
17.409866 6.8666911 6.9367166 0 0 0 0 56.58831
17.437662 7.637434 6.6757417 0 0 0 0 56.593254
17.391478 5.7272363 7.5275607 0 0 0 0 56.598202
17.396704 6.5439448 7.2400012 0 0 0 0 56.603149
17.402485 7.3274345 6.9922576 0 0 0 0 56.608097
17.42717 8.1230755 6.7454472 0 0 0 0 56.613045
17.400227 6.154232 7.5607948 0 0 0 0 56.617992
17.371338 6.9856501 7.2755666 0 0 0 0 56.622936
17.438026 7.8164096 7.0696507 0 0 0 0 56.627884
17.402607 8.6166 6.8153019 0 0 0 0 56.632832
17.360981 6.5659208 7.5782928 0 0 0 0 56.637779
17.359028 7.4313893 7.3240643 0 0 0 0 56.642727
17.386641 8.2718172 7.1204877 0 0 0 0 56.647675
17.38707 9.1161375 6.8961301 0 0 0 0 56.652618
17.33563 6.9966793 7.6038013 0 0 0 0 56.657566
17.368599 7.9012423 7.3845425 0 0 0 0 56.662514
17.364098 8.7573891 7.184289 0 0 0 0 56.667461
17.373444 9.6316519 6.9840374 0 0 0 0 56.672409
17.330284 7.4395189 7.6442361 0 0 0 0 56.677357
17.348103 8.3699026 7.435235 0 0 0 0 56.682301
17.380487 9.270154 7.2709646 0 0 0 0 56.687248
17.435556 10.20959 7.1077499 0 0 0 0 56.692196
17.299883 7.8801489 7.6768718 0 0 0 0 56.686565
17.371565 8.8667212 7.5137959 0 0 0 0 56.691509
17.325893 9.7604122 7.3350554 0 0 0 0 56.696457
17.339891 10.708503 7.1731882 0 0 0 0 56.701405
17.243429 8.3206539 7.7016702 0 0 0 0 56.706352
17.349957 9.3573103 7.5756259 0 0 0 0 56.7113
17.327171 10.290023 7.4269423 0 0 0 0 56.716248
17.367962 11.292147 7.2991867 0 0 0 0 56.721191
15.402635 7.8558726 6.9313388 0 0 0 0 56.726139
17.289391 9.8316422 7.6256523 0 0 0 0 56.731087
17.314369 10.829511 7.5199909 0 0 0 0 56.736034
17.304144 11.832213 7.392612 0 0 0 0 56.740982
17.286695 10.351257 7.7105165 0 0 0 0 56.750874
17.302519 11.379968 7.6200976 0 0 0 0 56.755821
17.272173 12.40942 7.5080199 0 0 0 0 56.760769
17.099251 10.768792 7.7151551 0 0 0 0 56.770664
17.272631 11.935267 7.7213683 0 0 0 0 56.775608
17.271023 13.026757 7.6454334 0 0 0 0 56.780556
15.454784 9.2214727 7.1324401 0 0 0 0 56.785503
17.044178 12.362393 7.7383695 0 0 0 0 56.795399
16.980642 13.442379 7.6608267 0 0 0 0 56.800346
16.333805 10.244171 7.6117291 0 0 0 0 56.80529
16.518787 11.479599 7.6442504 0 0 0 0 56.810238
16.482708 12.539581 7.6074018 0 0 0 0 56.815186
16.54883 13.736156 7.6165743 0 0 0 0 56.820133
16.226292 10.690227 7.6399608 0 0 0 0 56.825081
16.250593 11.844582 7.6262021 0 0 0 0 56.830029
16.014076 12.775283 7.5210943 0 0 0 0 56.834972
16.107088 14.017864 7.569335 0 0 0 0 56.83992
15.004296 10.36996 7.1450171 0 0 0 0 56.844868
15.98735 12.219574 7.6131802 0 0 0 0 56.849815
15.696003 13.125834 7.505342 0 0 0 0 56.854763
15.676459 14.293605 7.5309906 0 0 0 0 56.859711
15.741847 11.411715 7.5854459 0 0 0 0 56.864655
15.572624 12.470689 7.5315752 0 0 0 0 56.869602
15.355115 13.448224 7.4836059 0 0 0 0 56.87455
15.192088 14.514045 7.4657359 0 0 0 0 56.879498
15.492677 11.766886 7.5602179 0 0 0 0 56.884445
15.121136 12.679575 7.43501 0 0 0 0 56.889389
14.968493 13.721334 7.4429345 0 0 0 0 56.894337
14.795519 14.798946 7.4472103 0 0 0 0 56.899284
15.221617 12.102904 7.5290484 0 0 0 0 56.904232
14.815205 13.00526 7.4110451 0 0 0 0 56.90918
14.594797 14.011491 7.4122725 0 0 0 0 56.914127
14.346238 15.027537 7.4047623 0 0 0 0 56.919071
14.778054 12.304951 7.4143934 0 0 0 0 56.924019
14.473433 13.297726 7.3721623 0 0 0 0 56.928967
14.229157 14.298681 7.3865414 0 0 0 0 56.933914
13.921913 15.273252 7.3762355 0 0 0 0 56.938862
14.523982 12.656007 7.400198 0 0 0 0 56.94381
14.176472 13.636409 7.360219 0 0 0 0 56.948753
13.833702 14.552685 7.3488503 0 0 0 0 56.953701
13.443916 15.454669 7.3197484 0 0 0 0 56.958649
14.248974 12.991929 7.378077 0 0 0 0 56.963596
13.853656 13.949918 7.3403296 0 0 0 0 56.968544
13.421325 14.791576 7.3052049 0 0 0 0 56.973492
12.992864 15.656216 7.2791843 0 0 0 0 56.978436
13.948981 13.315701 7.345077 0 0 0 0 56.983383
13.477157 14.201124 7.2934904 0 0 0 0 56.988331
13.03993 15.048615 7.2804432 0 0 0 0 56.993279
12.554881 15.857808 7.2485337 0 0 0 0 56.998226
13.702868 13.684717 7.3479447 0 0 0 0 57.00317
13.130507 14.487463 7.2666373 0 0 0 0 57.008118
12.63572 15.273517 7.2446747 0 0 0 0 57.013065
12.108977 16.044361 7.2118635 0 0 0 0 57.018013
13.410981 14.008459 7.3308992 0 0 0 0 57.022961
12.791945 14.769819 7.2477102 0 0 0 0 57.027908
12.236584 15.493427 7.2138486 0 0 0 0 57.032852
11.600719 16.12159 7.1390429 0 0 0 0 57.0378
13.091188 14.31003 7.30194 0 0 0 0 57.042747
12.409617 15.005918 7.2088504 0 0 0 0 57.047695
11.839414 15.722317 7.1890655 0 0 0 0 57.052643
11.096517 16.191845 7.0661602 0 0 0 0 57.05759
12.746493 14.590445 7.2630515 0 0 0 0 57.062534
12.056158 15.273149 7.1879616 0 0 0 0 57.067482
11.414534 15.901063 7.1472106 0 0 0 0 57.07243
10.506162 16.110689 6.9360647 0 0 0 0 57.077377
12.416803 14.881901 7.2381225 0 0 0 0 57.082325
11.686783 15.526267 7.1631165 0 0 0 0 57.087273
10.972855 16.047712 7.0963054 0 0 0 0 57.092216
9.990365 16.119913 6.848938 0 0 0 0 57.097164
12.087048 15.183335 7.2162566 0 0 0 0 57.102112
11.295575 15.749257 7.1272697 0 0 0 0 57.107059
10.47667 16.105091 7.0113044 0 0 0 0 57.112007
9.4598656 16.082077 6.7486601 0 0 0 0 57.116951
11.727547 15.441594 7.1803732 0 0 0 0 57.121899
10.923325 15.989323 7.1053867 0 0 0 0 57.126846
9.9806643 16.137484 6.9221678 0 0 0 0 57.131794
8.9900484 16.114536 6.6853395 0 0 0 0 57.136742
11.391844 15.740935 7.1645536 0 0 0 0 57.141689
10.47968 16.118029 7.0394073 0 0 0 0 57.146633
9.4471073 16.090721 6.8038678 0 0 0 0 57.151581
8.4708776 16.033808 6.580749 0 0 0 0 57.156528
11.035819 16.010588 7.1435208 0 0 0 0 57.790939
9.9769526 16.151693 6.9363651 0 0 0 0 57.795887
8.9735746 16.120272 6.7277942 0 0 0 0 57.800835
8.0095634 16.047182 6.5196872 0 0 0 0 57.805779
10.56617 16.109144 7.0486765 0 0 0 0 57.810726
9.4463043 16.106892 6.8101611 0 0 0 0 57.815674
8.454258 16.046495 6.6123438 0 0 0 0 57.820621
7.5609646 16.056675 6.4621906 0 0 0 0 57.825569
10.050985 16.126478 6.9227133 0 0 0 0 57.830513
8.9742851 16.136383 6.7199497 0 0 0 0 57.835461
7.9896154 16.040985 6.5318809 0 0 0 0 57.840408
7.1165028 16.051191 6.405582 0 0 0 0 57.845356
9.5142574 16.076714 6.7805305 0 0 0 0 57.850304
8.4548664 16.065659 6.5945225 0 0 0 0 57.855251
7.5399446 16.046545 6.4603748 0 0 0 0 57.860195
6.6780477 16.044754 6.348928 0 0 0 0 57.865143
9.0460367 16.123274 6.683394 0 0 0 0 57.87009
7.9811883 16.049164 6.4970689 0 0 0 0 57.875038
7.0933561 16.045109 6.3918104 0 0 0 0 57.879986
6.2496796 16.034359 6.29918 0 0 0 0 57.884933
8.5275517 16.049625 6.5459466 0 0 0 0 57.889877
7.5294852 16.048765 6.4145484 0 0 0 0 57.894825
6.6638007 16.04677 6.33114 0 0 0 0 57.899773
5.8402281 16.044052 6.2614102 0 0 0 0 57.90472
8.044776 16.032127 6.4345613 0 0 0 0 57.909668
7.0818558 16.041388 6.3339615 0 0 0 0 57.914616
6.2333341 16.035431 6.2674065 0 0 0 0 57.919559
5.4248781 16.036724 6.2175918 0 0 0 0 57.924507
7.5849485 16.032743 6.3371115 0 0 0 0 57.929455
6.6441584 16.047054 6.2593813 0 0 0 0 57.934402
5.8109212 16.022131 6.2086062 0 0 0 0 57.93935
5.022542 16.036446 6.1837206 0 0 0 0 57.944298
7.1341133 16.039398 6.2456355 0 0 0 0 57.949242
6.2175026 16.054764 6.1927347 0 0 0 0 57.954189
5.4043179 16.044868 6.1659007 0 0 0 0 57.959137
4.621314 16.020193 6.1457529 0 0 0 0 57.964085
6.6834779 16.021059 6.1520176 0 0 0 0 57.969032
5.7939525 16.048506 6.1239877 0 0 0 0 57.973976
4.9969196 16.037634 6.1160316 0 0 0 0 57.978924
4.2299514 16.028955 6.1188607 0 0 0 0 57.983871
6.27144 16.077858 6.0915499 0 0 0 0 57.988819
5.3724499 16.039244 6.0582132 0 0 0 0 57.993767
4.5945072 16.036409 6.0711646 0 0 0 0 57.998714
3.8348336 16.001734 6.0827928 0 0 0 0 58.003658
5.8260002 16.038542 5.9997811 0 0 0 0 58.008606
4.9687791 16.065027 6.0105133 0 0 0 0 58.013554
4.1923251 16.00421 6.0211201 0 0 0 0 58.018501
3.4555387 16.010542 6.0648189 0 0 0 0 58.023449
5.399395 16.031296 5.9230618 0 0 0 0 58.028397
4.5554814 16.033813 5.9465585 0 0 0 0 58.03334
3.8058493 16.025013 5.9932709 0 0 0 0 58.038288
3.0773947 15.999371 6.0437245 0 0 0 0 58.043236
5.2673302 16.946644 6.1874952 0 0 0 0 58.048183
4.1492229 16.000639 5.8855438 0 0 0 0 58.053131
3.416647 16.003857 5.9532018 0 0 0 0 58.058079
2.6992583 15.988187 6.0236354 0 0 0 0 58.063023
4.5860105 16.068918 5.8066397 0 0 0 0 58.06797
3.7830276 16.127457 5.8851647 0 0 0 0 58.072918
3.0334647 15.98472 5.9181032 0 0 0 0 58.077866
2.3320019 16.003012 6.0176196 0 0 0 0 58.082813
4.168642 16.037714 5.7337255 0 0 0 0 58.087757
3.3653591 16.007301 5.8017378 0 0 0 0 58.092705
2.6561093 15.99854 5.8981586 0 0 0 0 58.097652
1.9619912 15.980866 6.0014133 0 0 0 0 58.1026
2.972266 15.961185 5.747561 0 0 0 0 58.112495
2.2789812 15.97841 5.8690171 0 0 0 0 58.117439
1.5958 15.991667 5.9993753 0 0 0 0 58.122387
2.6023307 16.056961 5.7460451 0 0 0 0 58.132282
1.9049128 15.952295 5.8408222 0 0 0 0 58.13723
1.2318169 15.972523 5.9901495 0 0 0 0 58.142178
2.9781156 16.053196 5.5851817 0 0 0 0 58.147121
2.2152982 16.010839 5.6998315 0 0 0 0 58.152069
1.5327259 15.951116 5.8257647 0 0 0 0 58.157017
0.86891359 15.943388 5.9798608 0 0 0 0 58.161964
1.8283565 15.951733 5.6505451 0 0 0 0 58.17186
1.1673955 15.975926 5.8218112 0 0 0 0 58.176804
0.5060631 15.908249 5.9695415 0 0 0 0 58.181751
1.454959 15.973544 5.6346364 0 0 0 0 58.191647
0.79947889 15.936821 5.7985067 0 0 0 0 58.196594
0.14770345 15.795292 5.933733 0 0 0 0 58.201538
1.8042285 16.003717 5.4461737 0 0 0 0 58.206486
1.0798181 15.9564 5.6075163 0 0 0 0 58.211433
0.43145677 15.917657 5.7843246 0 0 0 0 58.216381
-0.20367834 15.689362 5.9029155 0 0 0 0 58.221329
0.70368195 15.942219 5.5844259 0 0 0 0 58.23122
0.068360418 15.917459 5.7822218 0 0 0 0 58.236168
-0.55269784 15.526553 5.8537483 0 0 0 0 58.241116
0.33169878 15.907092 5.5571847 0 0 0 0 58.251011
-0.29792407 15.949158 5.792336 0 0 0 0 58.255959
-0.89174902 15.372793 5.8105602 0 0 0 0 58.260902
0.65151244 15.958486 5.3406301 0 0 0 0 57.95248
-0.037631359 15.922256 5.5517144 0 0 0 0 57.957428
-0.6621244 15.954401 5.7947073 0 0 0 0 57.962376
-1.2218316 15.1967 5.7595944 0 0 0 0 57.967323
0.26950285 15.917366 5.3033991 0 0 0 0 57.972267
-0.41304713 15.963948 5.5559225 0 0 0 0 57.977215
-1.0238662 15.907282 5.7852974 0 0 0 0 57.982162
-1.5476309 15.00414 5.7060609 0 0 0 0 57.98711
-0.1098154 15.930143 5.2874675 0 0 0 0 57.992058
-0.77944827 15.846 5.5101337 0 0 0 0 57.997005
-1.3886245 15.86213 5.7759266 0 0 0 0 58.001949
-1.8843886 14.977112 5.7165818 0 0 0 0 58.006897
-0.49301758 15.926899 5.268477 0 0 0 0 58.011845
-1.1548215 15.890629 5.5233688 0 0 0 0 58.016792
-1.743039 15.76614 5.7531829 0 0 0 0 58.02174
-2.2376552 15.042706 5.7667756 0 0 0 0 58.026688
-0.87859404 15.988481 5.274889 0 0 0 0 58.031631
-1.5340505 15.914248 5.5315151 0 0 0 0 58.036579
-2.0839276 15.585426 5.7018433 0 0 0 0 58.041527
-2.5804884 15.037526 5.7924805 0 0 0 0 58.046474
-1.2572219 15.904364 5.2384 0 0 0 0 58.051422
-1.909019 15.900945 5.5314183 0 0 0 0 58.05637
-2.4217982 15.403729 5.6514778 0 0 0 0 58.061314
-2.9139254 14.968547 5.7967434 0 0 0 0 58.066261
-1.6432911 15.891042 5.2253876 0 0 0 0 58.071209
-2.286001 15.893589 5.536376 0 0 0 0 58.076157
-2.7526865 15.23303 5.6111264 0 0 0 0 58.081104
-3.217489 14.754128 5.7479272 0 0 0 0 58.086048
-2.0514269 16.054157 5.2755842 0 0 0 0 58.090996
-2.6689768 15.888158 5.5443964 0 0 0 0 58.095943
-3.0682943 15.015561 5.5533853 0 0 0 0 58.100891
-3.512044 14.540773 5.7010503 0 0 0 0 58.105839
-2.4194882 15.891211 5.2225652 0 0 0 0 58.110786
-3.0508578 15.872725 5.5533547 0 0 0 0 58.11573
-3.4291499 15.010226 5.5762405 0 0 0 0 58.120678
-3.8036923 14.345394 5.6622581 0 0 0 0 58.125626
-2.8155363 15.887702 5.2237024 0 0 0 0 58.130573
-3.4275289 15.82638 5.5540957 0 0 0 0 58.135521
-3.7930241 15.0158 5.6091881 0 0 0 0 58.140469
-4.0933137 14.148023 5.6244411 0 0 0 0 58.145412
-3.2115624 15.885164 5.2288499 0 0 0 0 58.15036
-3.8019619 15.744106 5.5446129 0 0 0 0 58.155308
-4.1537228 14.99345 5.6329517 0 0 0 0 58.160255
-4.3790054 13.968616 5.5977015 0 0 0 0 58.165203
-3.6094842 15.871598 5.2349524 0 0 0 0 58.170151
-4.1478062 15.570245 5.5063748 0 0 0 0 58.175095
-4.5040684 14.914296 5.6373062 0 0 0 0 58.180042
-4.6423674 13.732533 5.5484576 0 0 0 0 58.18499
-4.0215554 15.883842 5.2513213 0 0 0 0 58.189938
-4.4640446 15.30479 5.4413719 0 0 0 0 58.194885
-4.8004494 14.678926 5.5873265 0 0 0 0 58.199829
-4.907814 13.514374 5.5083375 0 0 0 0 58.204777
-4.4335403 15.887075 5.2686415 0 0 0 0 58.209724
-4.778326 15.046339 5.3783965 0 0 0 0 58.214672
-4.9097929 13.933308 5.3448954 0 0 0 0 58.21962
-4.9825792 12.830972 5.2810006 0 0 0 0 58.224567
-4.8463655 15.871301 5.284862 0 0 0 0 58.229511
-5.1141768 14.88448 5.35216 0 0 0 0 58.234459
-5.1851702 13.700105 5.2967663 0 0 0 0 58.239407
-5.2432957 12.662727 5.2621379 0 0 0 0 58.244354
-5.2640991 15.842494 5.2980485 0 0 0 0 58.249302
-5.445941 14.715634 5.3288531 0 0 0 0 58.25425
-5.4738431 13.523627 5.2750773 0 0 0 0 58.259193
-5.4837403 12.449751 5.2268558 0 0 0 0 58.264141
-5.6848121 15.81662 5.3172812 0 0 0 0 58.269089
-5.7543221 14.485116 5.2840042 0 0 0 0 58.274036
-5.746335 13.31636 5.2410827 0 0 0 0 58.278984
-5.7232342 12.249734 5.1996446 0 0 0 0 58.283932
-6.0545182 15.634473 5.2872 0 0 0 0 58.288876
-6.0546865 14.255646 5.2421007 0 0 0 0 58.293823
-6.0117164 13.09417 5.2039471 0 0 0 0 58.298771
-5.9557009 12.047769 5.1733685 0 0 0 0 58.303719
-6.0120611 14.473851 4.9291382 0 0 0 0 58.308666
-6.0277381 13.316558 4.9414616 0 0 0 0 58.31361
-6.0059457 12.3336 4.9545217 0 0 0 0 58.318558
-5.9981413 11.482389 4.9904671 0 0 0 0 58.323505
-5.9663587 13.437014 4.6137733 0 0 0 0 58.328453
-5.9800692 12.422574 4.6549206 0 0 0 0 58.333401
-5.9591365 11.563439 4.6977143 0 0 0 0 58.338348
-5.9519925 10.808087 4.7572274 0 0 0 0 58.343292
-5.9324698 12.526852 4.3372402 0 0 0 0 58.34824
-5.9349623 11.621382 4.4009404 0 0 0 0 58.353188
-5.9177346 10.863078 4.4673557 0 0 0 0 58.358135
-6.2372789 10.756269 4.7962494 0 0 0 0 58.363083
-5.894115 11.704553 4.0911856 0 0 0 0 58.368031
-5.8903151 10.89504 4.1724 0 0 0 0 58.372974
-6.1878133 10.766539 4.4819946 0 0 0 0 58.377922
-6.5527349 10.742056 4.8567328 0 0 0 0 58.38287
-5.85219 10.95116 3.8675039 0 0 0 0 58.387817
-6.1562467 10.767632 4.1708241 0 0 0 0 58.392765
-6.5123515 10.755285 4.5355668 0 0 0 0 58.397713
-6.8913269 10.755548 4.9315648 0 0 0 0 58.402657
-6.1139603 10.794861 3.853725 0 0 0 0 58.407604
-6.4948616 10.762272 4.2215428 0 0 0 0 58.412552
-6.85291 10.750855 4.5943089 0 0 0 0 58.4175
-7.2035899 10.715382 4.9868774 0 0 0 0 58.422447
-6.4612288 10.785278 3.8920934 0 0 0 0 58.184441
-6.8451219 10.761622 4.2749615 0 0 0 0 58.189384
-7.204124 10.753168 4.6607285 0 0 0 0 58.194332
-7.4086599 10.509529 4.9659185 0 0 0 0 58.19928
-6.8269343 10.788713 3.9420516 0 0 0 0 58.204227
-7.213757 10.766961 4.3359566 0 0 0 0 58.209175
-7.5656438 10.75351 4.7306428 0 0 0 0 58.214123
-7.5959234 10.285953 4.940167 0 0 0 0 58.219067
-7.1975226 10.777109 3.9899638 0 0 0 0 58.224014
-7.5762286 10.749377 4.3917742 0 0 0 0 58.228962
-7.931047 10.739817 4.799509 0 0 0 0 58.23391
-7.7721367 10.053494 4.9102783 0 0 0 0 58.238857
-7.5952287 10.791179 4.0522418 0 0 0 0 58.243801
-7.9536533 10.732613 4.4547172 0 0 0 0 58.248749
-8.2913046 10.706187 4.8642225 0 0 0 0 58.253696
-7.947341 9.822031 4.8823872 0 0 0 0 58.258644
-7.9877439 10.779316 4.1093316 0 0 0 0 58.263592
-8.3481178 10.726651 4.5248604 0 0 0 0 58.268539
-8.3625431 10.305039 4.7665305 0 0 0 0 58.273483
-8.1316242 9.6104136 4.8666844 0 0 0 0 58.278431
-8.2984791 10.64043 4.1210427 0 0 0 0 58.283379
-8.3165064 10.181732 4.371521 0 0 0 0 58.288326
-8.3362751 9.8040447 4.6184893 0 0 0 0 58.293274
-8.3028374 9.3859453 4.8448052 0 0 0 0 58.298222
-8.2576342 10.071578 3.9704878 0 0 0 0 58.303165
-8.2921333 9.6776638 4.2334738 0 0 0 0 58.308113
-8.3101797 9.3339787 4.4826274 0 0 0 0 58.313061
-8.3634653 9.0428085 4.7613649 0 0 0 0 58.318008
-8.2310982 9.5525074 3.836333 0 0 0 0 58.322956
-8.2870255 9.2183313 4.1118364 0 0 0 0 58.327904
-8.2973013 8.9036961 4.3640995 0 0 0 0 58.332848
-8.3397551 8.6296396 4.6398525 0 0 0 0 58.337795
-8.2148056 9.0722761 3.7144825 0 0 0 0 58.342743
-8.2549305 8.7592506 3.9879866 0 0 0 0 58.347691
-8.2825184 8.488409 4.2496414 0 0 0 0 58.352638
-8.309124 8.2295094 4.5223594 0 0 0 0 58.357582
-8.1825686 8.6041517 3.5985758 0 0 0 0 58.36253
-8.2390461 8.3359509 3.8774705 0 0 0 0 58.367477
-8.2578154 8.0861864 4.1391802 0 0 0 0 58.372425
-8.2916422 7.8561974 4.4161239 0 0 0 0 58.377373
-8.1857071 8.1965971 3.503299 0 0 0 0 58.38232
-8.2122173 7.9247141 3.7729371 0 0 0 0 58.387264
-8.2372417 7.7068748 4.0378828 0 0 0 0 58.392212
-8.2702503 7.4988871 4.3159494 0 0 0 0 58.39716
-8.1658039 7.7822647 3.4047987 0 0 0 0 58.402107
-8.1935768 7.5423584 3.6766348 0 0 0 0 58.407055
-7.5187325 6.7186604 3.6095264 0 0 0 0 58.412003
-7.540216 6.5429249 3.86269 0 0 0 0 58.416946
-8.1530828 7.3978109 3.3165278 0 0 0 0 58.421894
-7.4748631 6.5609484 3.2823107 0 0 0 0 58.426842
-7.4884996 6.3913612 3.5224483 0 0 0 0 58.431789
-7.5151405 6.2355676 3.7777696 0 0 0 0 58.436737
-7.4281116 6.4172592 2.9561543 0 0 0 0 58.441685
-7.455595 6.2384939 3.2053452 0 0 0 0 58.446629
-7.477407 6.0908213 3.4476757 0 0 0 0 58.451576
-7.5122271 5.9599242 3.7082081 0 0 0 0 58.456524
-7.4188137 6.096683 2.8852758 0 0 0 0 58.461472
-7.4344072 5.92804 3.131433 0 0 0 0 58.466419
-7.4683976 5.8052282 3.3790057 0 0 0 0 58.471363
-7.5013385 5.6883464 3.6396055 0 0 0 0 58.476311
-7.394515 5.7782283 2.8162901 0 0 0 0 58.481258
-7.4323421 5.642345 3.0698147 0 0 0 0 58.486206
-7.5066028 5.5660653 3.3359785 0 0 0 0 58.491154
-7.662982 5.5477471 3.6541307 0 0 0 0 58.496101
-7.5208931 5.5860906 2.8062322 0 0 0 0 58.501045
-7.7102962 5.5704775 3.1246588 0 0 0 0 58.505993
-7.864789 5.5572286 3.4338272 0 0 0 0 58.510941
-8.0221243 5.5438323 3.7630184 0 0 0 0 58.515888
-7.9252224 5.586885 2.8974998 0 0 0 0 58.520836
-8.0884762 5.5564895 3.2176361 0 0 0 0 58.525784
-8.1315985 5.4694524 3.4884937 0 0 0 0 58.530727
-8.1605959 5.3764868 3.7682059 0 0 0 0 58.535675
-8.0635223 5.3925929 2.8945251 0 0 0 0 58.540623
-8.0964308 5.2826405 3.1661658 0 0 0 0 58.54557
-8.1176138 5.1958461 3.4288523 0 0 0 0 58.550518
-8.14674 5.1158905 3.7066426 0 0 0 0 58.555466
-8.0533686 5.1049194 2.8408287 0 0 0 0 58.56041
-8.0833883 5.0060034 3.110512 0 0 0 0 58.565357
-8.1126842 4.9331298 3.3743446 0 0 0 0 58.570305
-8.1439333 4.8681483 3.6532402 0 0 0 0 58.575253
-8.0562897 4.8320875 2.7943211 0 0 0 0 58.5802
-8.0724001 4.739325 3.0589314 0 0 0 0 58.585144
-8.0997982 4.6764793 3.3208082 0 0 0 0 58.590092
-8.1361418 4.6224504 3.5998087 0 0 0 0 58.595039
-8.0241585 4.5486059 2.7414722 0 0 0 0 58.599987
-8.0604372 4.4776435 3.0093703 0 0 0 0 58.604935
-8.0939589 4.4307303 3.2733903 0 0 0 0 58.609882
-8.1193848 4.3808341 3.546329 0 0 0 0 58.614826
-8.0351973 4.2976484 2.7041543 0 0 0 0 58.619774
-8.0545311 4.2288671 2.9669318 0 0 0 0 58.624722
-8.0761337 4.1851015 3.2238762 0 0 0 0 58.629669
-8.1196775 4.1540055 3.5030696 0 0 0 0 58.634617
-0.41095763 0.20473091 0.17043057 0 0 0 0 58.400604
-0.42082852 0.20554017 0.18751982 0 0 0 0 58.405552
-0.42870831 0.20736706 0.20459965 0 0 0 0 58.4105
-0.41056162 0.19748488 0.21140701 0 0 0 0 58.415447
-0.4077014 0.17677353 0.16629384 0 0 0 0 58.440182
-0.40757734 0.17469537 0.17928797 0 0 0 0 58.445129
-0.41347265 0.1765517 0.19435246 0 0 0 0 58.450077
-0.41034868 0.17450018 0.20732334 0 0 0 0 58.455025
-0.40447107 0.15181616 0.16217457 0 0 0 0 58.479759
-0.37533042 0.14005038 0.16588409 0 0 0 0 58.484703
-0.37123868 0.13902558 0.17585324 0 0 0 0 58.489651
-0.38313541 0.14281625 0.19297619 0 0 0 0 58.494598
-0.34421831 0.1104638 0.14151059 0 0 0 0 58.519333
-0.36512426 0.1161679 0.1597155 0 0 0 0 58.524281
-0.37402782 0.11899704 0.17480938 0 0 0 0 58.529228
-0.38594106 0.12379325 0.19093859 0 0 0 0 58.534176
-0.35001701 0.092403032 0.14150137 0 0 0 0 58.55891
-0.36492109 0.096172333 0.15764795 0 0 0 0 58.563858
-0.36783949 0.098072805 0.16968937 0 0 0 0 58.568806
-0.37275094 0.10094337 0.18375228 0 0 0 0 58.57375
-0.33782008 0.070533328 0.13632782 0 0 0 0 58.598484
-0.3487232 0.073344141 0.15143743 0 0 0 0 58.603432
-0.35865092 0.077175714 0.16454543 0 0 0 0 58.608379
-0.36057812 0.080084927 0.17658512 0 0 0 0 58.613327
-0.33461738 0.051559281 0.13524175 0 0 0 0 58.638062
-0.35052887 0.055324905 0.15039657 0 0 0 0 58.643009
-0.35945654 0.059165187 0.1634969 0 0 0 0 58.647957
-0.35539082 0.061140113 0.17348382 0 0 0 0 58.652905
-0.33243087 0.033582289 0.13316917 0 0 0 0 58.677639
-0.3513341 0.03731462 0.1493476 0 0 0 0 58.682587
-0.35527775 0.041211557 0.16040908 0 0 0 0 58.687531
-0.35022879 0.044201374 0.16939422 0 0 0 0 58.692478
-0.33122811 0.015584416 0.13310394 0 0 0 0 58.717213
-0.34714714 0.019355316 0.14725924 0 0 0 0 58.72216
-0.35508245 0.023210114 0.15935205 0 0 0 0 58.727108
-0.35004237 0.027199866 0.1683432 0 0 0 0 58.732056
-0.3380253 -0.001491563 0.13410711 0 0 0 0 58.75679
-0.34993547 0.0013150771 0.1482252 0 0 0 0 58.761738
-0.35987949 0.0061515612 0.16033989 0 0 0 0 58.766685
