# .PCD v0.7 - Point Cloud Data file format
VERSION 0.7
FIELDS x y z normal_x normal_y normal_z intensity curvature
SIZE 4 4 4 4 4 4 4 4
TYPE F F F F F F F F
COUNT 1 1 1 1 1 1 1 1
WIDTH 940
HEIGHT 1
VIEWPOINT 0 0 0 1 0 0 0
POINTS 940
DATA ascii
2.9547219 3.9456275 -0.014327518 0 0 0 0 67.681854
2.9309466 4.1392212 -0.13319986 0 0 0 0 67.686798
2.6787071 3.9949696 -0.22590068 0 0 0 0 67.691742
2.6459293 4.1856484 -0.34687865 0 0 0 0 67.696701
2.9288495 4.1028743 -0.020575954 0 0 0 0 67.701645
2.8940632 4.2945423 -0.13955665 0 0 0 0 67.706589
2.6428089 4.1492739 -0.231264 0 0 0 0 67.711533
2.2445695 3.7396154 -0.29528594 0 0 0 0 67.716492
2.8919261 4.2521949 -0.027004205 0 0 0 0 67.721436
2.8632989 4.4678226 -0.14564873 0 0 0 0 67.726379
2.6140788 4.3265543 -0.23829454 0 0 0 0 67.731323
2.2065852 3.8819251 -0.29981199 0 0 0 0 67.736267
2.8611434 4.4214869 -0.034143582 0 0 0 0 67.741226
2.824538 4.6401682 -0.152813 0 0 0 0 67.74617
2.5793507 4.5038748 -0.24536966 0 0 0 0 67.751114
2.1656559 4.0312667 -0.30527565 0 0 0 0 67.756058
2.836509 4.6107607 -0.042993475 0 0 0 0 67.761002
2.7656269 4.790638 -0.15939592 0 0 0 0 67.765961
2.5507894 4.7051654 -0.25310713 0 0 0 0 67.770905
2.1369603 4.2135491 -0.31224692 0 0 0 0 67.775848
2.8008358 4.7950974 -0.050987061 0 0 0 0 67.780792
2.698657 4.9331508 -0.16513616 0 0 0 0 67.785736
2.5132582 4.9095278 -0.26187629 0 0 0 0 67.790695
2.0911343 4.3769355 -0.31857744 0 0 0 0 67.795639
2.7662783 4.9954376 -0.059777953 0 0 0 0 67.800583
2.5820918 4.9909387 -0.16728152 0 0 0 0 67.805527
2.4687145 5.1129255 -0.26970983 0 0 0 0 67.810471
2.0373087 4.5413637 -0.32395682 0 0 0 0 67.81543
2.7267432 5.1978235 -0.069581226 0 0 0 0 67.820374
2.4969854 5.1135631 -0.17240165 0 0 0 0 67.825317
2.4304402 5.3533168 -0.2800481 0 0 0 0 67.830261
1.9835572 4.7167912 -0.32920194 0 0 0 0 67.835205
2.691442 5.4341922 -0.079941168 0 0 0 0 67.840164
2.4221065 5.2681422 -0.1790569 0 0 0 0 67.845108
2.376075 5.5808039 -0.28966543 0 0 0 0 67.850052
1.9228352 4.895278 -0.33546367 0 0 0 0 67.854996
2.6400464 5.6546817 -0.091616184 0 0 0 0 67.859955
2.3838947 5.5165443 -0.19029489 0 0 0 0 67.864899
2.3177714 5.817318 -0.29920292 0 0 0 0 67.869843
1.8530811 5.0698137 -0.34084243 0 0 0 0 67.874786
2.5836987 5.882205 -0.10324341 0 0 0 0 67.87973
2.32252 5.7410908 -0.20099978 0 0 0 0 67.884689
2.2627316 6.0898457 -0.31127957 0 0 0 0 67.889633
1.7926239 5.2843347 -0.34966579 0 0 0 0 67.894577
2.5244477 6.1227593 -0.11573447 0 0 0 0 67.899521
2.2714746 6.0116029 -0.2140682 0 0 0 0 67.904465
2.2079277 6.3953943 -0.32495445 0 0 0 0 67.909424
1.7293618 5.526885 -0.35917234 0 0 0 0 67.914368
2.2196445 6.3131318 -0.22776666 0 0 0 0 67.924255
1.655056 5.7625108 -0.36884701 0 0 0 0 67.934158
2.1640332 6.6437211 -0.24414217 0 0 0 0 67.944046
1.5717912 6.0051856 -0.37750545 0 0 0 0 67.953934
2.1928167 6.5693655 -0.14872302 0 0 0 0 67.958893
2.0965178 6.98839 -0.26043871 0 0 0 0 67.963837
1.4796298 6.2619319 -0.38706279 0 0 0 0 67.973724
2.1139433 6.8611012 -0.16474584 0 0 0 0 67.978668
2.0201745 7.3561425 -0.27852347 0 0 0 0 67.983627
1.378418 6.5107403 -0.39678493 0 0 0 0 67.993515
2.0487216 7.2448015 -0.18454903 0 0 0 0 67.998459
1.9216222 7.6930346 -0.29615232 0 0 0 0 68.003418
1.4247718 6.5084095 -0.31236416 0 0 0 0 68.008362
1.2715098 6.8026099 -0.40803128 0 0 0 0 68.013306
1.9747068 7.6555977 -0.20709103 0 0 0 0 68.01825
1.320807 6.7892838 -0.32571819 0 0 0 0 68.028152
1.1493967 7.0655608 -0.41774416 0 0 0 0 68.033096
1.8878435 8.087491 -0.23047598 0 0 0 0 68.03804
1.1996158 7.0392408 -0.33657944 0 0 0 0 68.047928
1.0225608 7.3675661 -0.42902124 0 0 0 0 68.052887
1.7830876 8.5325308 -0.25583988 0 0 0 0 68.057831
1.5088356 8.5414057 -0.34290892 0 0 0 0 68.062775
1.07277 7.3372703 -0.34990343 0 0 0 0 68.067719
0.88174844 7.6726675 -0.44036958 0 0 0 0 68.072662
0.93392223 7.6333947 -0.36434346 0 0 0 0 68.087509
0.72272968 7.9498577 -0.44919735 0 0 0 0 68.092453
0.77889436 7.9055943 -0.37619889 0 0 0 0 68.1073
0.55848259 8.3331766 -0.46478257 0 0 0 0 68.112244
1.3150002 9.5986223 -0.32938182 0 0 0 0 68.117188
0.83665353 7.9245834 -0.32442534 0 0 0 0 68.122131
0.60740536 8.1128616 -0.38496855 0 0 0 0 68.12709
0.37183565 8.5234756 -0.46787617 0 0 0 0 68.132034
1.1660284 10.289161 -0.36911258 0 0 0 0 68.136978
0.66184837 8.0818996 -0.33582518 0 0 0 0 68.141922
0.43622729 8.501277 -0.40454394 0 0 0 0 68.146866
0.17420428 8.7158508 -0.4710319 0 0 0 0 68.151825
0.73507369 8.1238928 -0.29212013 0 0 0 0 67.871399
0.49848074 8.5483589 -0.36389288 0 0 0 0 67.876343
0.239629 8.6626654 -0.41255942 0 0 0 0 67.881287
-0.029190099 8.9142237 -0.47566041 0 0 0 0 67.88623
0.30078948 8.5807419 -0.36997375 0 0 0 0 67.896133
0.039269164 8.8881426 -0.42334521 0 0 0 0 67.901077
-0.24484237 9.1047106 -0.47898656 0 0 0 0 67.906021
-0.17104186 9.1206875 -0.43412411 0 0 0 0 67.920868
-0.46927166 9.3262815 -0.48400885 0 0 0 0 67.925812
-1.6005423 17.726488 -0.88970929 0 0 0 0 67.980225
-2.1373963 17.569349 -0.91584677 0 0 0 0 67.985184
-1.4763374 17.757555 -0.87921953 0 0 0 0 67.995071
-2.0089529 17.659153 -0.8856169 0 0 0 0 68.000015
-2.5545621 17.550953 -0.9012388 0 0 0 0 68.004959
-1.8856574 17.688383 -0.88815904 0 0 0 0 68.014862
-2.4136651 17.548777 -0.88001889 0 0 0 0 68.019806
-2.9514534 17.430355 -0.88170457 0 0 0 0 68.02475
-2.2940443 17.609209 -0.89721721 0 0 0 0 68.034653
-2.817162 17.467426 -0.87706757 0 0 0 0 68.039597
-3.3589551 17.363878 -0.86560923 0 0 0 0 68.04454
-2.1371999 17.551413 -0.91654235 0 0 0 0 68.049484
-2.701551 17.512035 -0.90649128 0 0 0 0 68.054428
-3.2177608 17.372051 -0.87326789 0 0 0 0 68.059387
-3.7547266 17.259304 -0.84788501 0 0 0 0 68.064331
-2.5579088 17.550566 -0.94476342 0 0 0 0 68.069275
-3.1020856 17.410818 -0.91576427 0 0 0 0 68.074219
-3.6184616 17.262669 -0.868644 0 0 0 0 68.079178
-4.1612954 17.181839 -0.83292609 0 0 0 0 68.084122
-2.9644051 17.439547 -0.96720493 0 0 0 0 68.089066
-3.5095129 17.324661 -0.92591661 0 0 0 0 68.094009
-3.6289315 15.507478 -0.77677149 0 0 0 0 68.098953
-4.0788808 15.280813 -0.72407627 0 0 0 0 68.103912
-3.3784363 17.392639 -0.9939388 0 0 0 0 68.108856
-3.9150205 17.226498 -0.93620449 0 0 0 0 68.1138
-3.9242468 15.171253 -0.7620663 0 0 0 0 68.118744
-4.3973689 15.072704 -0.70501298 0 0 0 0 68.123688
-3.7916687 17.316723 -1.0200224 0 0 0 0 68.128647
-3.9898031 15.840099 -0.87141651 0 0 0 0 68.133591
-4.4486113 15.667167 -0.79114687 0 0 0 0 68.138535
-4.6903448 14.79638 -0.68257648 0 0 0 0 68.143478
-3.8444192 15.789146 -0.95377266 0 0 0 0 68.148422
-4.3096581 15.555224 -0.87129521 0 0 0 0 68.153381
-4.6011176 14.885666 -0.75269353 0 0 0 0 68.158325
-5.0968657 14.86505 -0.67688477 0 0 0 0 68.163269
-4.160254 15.495367 -0.96373069 0 0 0 0 68.168213
-4.6272802 15.304348 -0.87175244 0 0 0 0 68.173157
-5.6616068 16.894339 -0.86677355 0 0 0 0 68.178116
-5.6869507 15.414294 -0.69585294 0 0 0 0 68.18306
-4.5072098 15.321918 -0.98248982 0 0 0 0 68.188004
-4.9408288 15.06247 -0.87407535 0 0 0 0 68.192947
-5.8641992 16.239286 -0.83620232 0 0 0 0 68.197891
-6.385778 16.139391 -0.72356296 0 0 0 0 68.20285
-4.7630606 14.889611 -0.98265898 0 0 0 0 68.207794
-5.7649498 16.259243 -0.9670791 0 0 0 0 68.212738
-6.2646384 16.162006 -0.83823222 0 0 0 0 68.217682
-6.7637229 16.006758 -0.70908582 0 0 0 0 68.222641
-5.1332812 14.818405 -1.0073804 0 0 0 0 68.227585
-6.1378469 16.104868 -0.97682488 0 0 0 0 68.232529
-6.6789703 16.100824 -0.84018427 0 0 0 0 68.237473
-7.1938624 15.986559 -0.70067132 0 0 0 0 68.242416
-6.0104799 16.109968 -1.1346591 0 0 0 0 68.247375
-6.790853 16.622971 -1.0306741 0 0 0 0 68.252319
-7.0667419 15.976444 -0.84069496 0 0 0 0 68.257263
-6.6752758 13.962694 -0.59894007 0 0 0 0 68.262207
-6.6572881 16.632288 -1.2094083 0 0 0 0 68.267151
-7.0568008 16.184662 -1.0240146 0 0 0 0 68.27211
-6.8774257 14.61524 -0.7715795 0 0 0 0 68.277054
-6.9263444 13.67114 -0.57939833 0 0 0 0 68.281998
-6.6510425 15.531595 -1.1616027 0 0 0 0 68.286942
-6.8145099 14.68496 -0.94415975 0 0 0 0 68.291885
-6.8428144 13.712427 -0.72816086 0 0 0 0 68.296844
-6.8023472 14.90241 -1.1473548 0 0 0 0 68.306732
-6.7801208 13.749151 -0.90114856 0 0 0 0 68.311676
-7.9412231 15.024952 -0.8109653 0 0 0 0 68.31662
-6.6873856 13.772868 -1.0900527 0 0 0 0 68.326523
-7.51331 14.374954 -0.9663558 0 0 0 0 68.331467
-8.4131021 16.318306 -1.3452289 0 0 0 0 68.123016
-7.661809 13.850319 -0.95297396 0 0 0 0 68.127975
-7.7405562 14.181901 -1.1995453 0 0 0 0 68.142807
-8.0836897 13.834428 -0.97445393 0 0 0 0 68.147751
-10.108908 16.252447 -0.9164198 0 0 0 0 68.15271
-8.7894411 15.220668 -1.3343052 0 0 0 0 68.162598
-8.2388353 13.370335 -0.96421933 0 0 0 0 68.167542
-8.1923141 13.444065 -1.2109082 0 0 0 0 68.182388
-10.25806 15.959596 -1.4959651 0 0 0 0 68.202179
-10.746306 15.865399 -1.5369378 0 0 0 0 68.221954
-11.244497 15.777298 -1.5799236 0 0 0 0 68.241745
-11.960517 15.834442 -1.2799405 0 0 0 0 68.246689
-11.773554 15.70446 -1.6269799 0 0 0 0 68.261536
-13.048877 14.810313 -0.59194517 0 0 0 0 68.276382
-12.299703 15.61662 -1.6752024 0 0 0 0 68.281326
-12.978014 14.820064 -0.93423253 0 0 0 0 68.291214
-13.588415 14.728915 -0.58720803 0 0 0 0 68.296173
-12.84291 15.519901 -1.7236774 0 0 0 0 68.301117
-12.936015 14.818334 -1.3028946 0 0 0 0 68.306061
-13.539313 14.750062 -0.9495368 0 0 0 0 68.311005
-14.064537 14.564059 -0.57998115 0 0 0 0 68.315948
-12.903455 14.85612 -1.7081556 0 0 0 0 68.320908
-13.500168 14.748575 -1.3362234 0 0 0 0 68.325851
-14.027276 14.588499 -0.95936972 0 0 0 0 68.330795
-14.663944 14.500101 -0.57753015 0 0 0 0 68.335739
-13.438759 14.74437 -1.7577668 0 0 0 0 68.340683
-14.009942 14.593384 -1.3641598 0 0 0 0 68.345642
-14.619581 14.516729 -0.97596103 0 0 0 0 68.350586
-14.017906 14.649981 -1.812529 0 0 0 0 68.360474
-14.62202 14.529023 -1.4028258 0 0 0 0 68.365417
-14.59614 14.541607 -1.8684621 0 0 0 0 68.380264
-13.528796 12.848408 -1.7093903 0 0 0 0 68.400055
-18.462725 14.492078 -0.58808208 0 0 0 0 68.434677
-17.936998 14.710705 -2.2202628 0 0 0 0 68.459412
-19.208792 13.684768 -1.1189454 0 0 0 0 68.489105
-19.788868 13.456781 -0.55837655 0 0 0 0 68.494049
-19.196659 13.601838 -1.6958971 0 0 0 0 68.503937
-19.662092 13.33196 -1.1259122 0 0 0 0 68.508881
-19.661976 12.727622 -0.5322383 0 0 0 0 68.51384
-19.253569 13.586146 -2.334594 0 0 0 0 68.518784
-19.52257 13.152232 -1.7080187 0 0 0 0 68.523727
-19.515371 12.578657 -1.0989125 0 0 0 0 68.528671
-19.577759 12.045774 -0.50787765 0 0 0 0 68.533615
-19.359682 12.973892 -2.3339241 0 0 0 0 68.538574
-19.407753 12.412162 -1.6821209 0 0 0 0 68.543518
-15.10878 -10.544923 -0.87734801 0 0 0 0 69.14566
-15.232871 -10.45325 -0.30320087 0 0 0 0 69.150604
-14.776728 -11.219649 -2.1052983 0 0 0 0 69.462601
-6.210062 -4.5627642 -0.33526045 0 0 0 0 69.472504
-6.2627592 -4.5224071 -0.097174674 0 0 0 0 69.477448
-14.948689 -11.492634 -0.90225166 0 0 0 0 69.492294
-15.016398 -11.337444 -0.32582811 0 0 0 0 69.497238
-14.623579 -12.016559 -1.4803081 0 0 0 0 69.507126
-14.967867 -11.839618 -0.3379035 0 0 0 0 69.517029
-3.4300294 -3.1880479 -0.47662875 0 0 0 0 69.541763
-3.5083163 -3.1914229 -0.32531479 0 0 0 0 69.546707
-3.5633492 -3.1737983 -0.18654115 0 0 0 0 69.551651
-3.0781112 -3.0070472 -0.43037975 0 0 0 0 69.561539
-3.1914885 -3.0449448 -0.29779989 0 0 0 0 69.566498
-3.3521047 -3.1303666 -0.17722118 0 0 0 0 69.571442
-3.4996674 -3.1960087 -0.046281703 0 0 0 0 69.576385
-2.9271855 -3.0002894 -0.41402671 0 0 0 0 69.581329
-3.0294962 -3.0332155 -0.28529179 0 0 0 0 69.586273
-3.1085582 -3.0411928 -0.16504636 0 0 0 0 69.591232
-3.1997361 -3.0621223 -0.042067036 0 0 0 0 69.596176
-2.7641299 -2.9736328 -0.39631739 0 0 0 0 69.60112
-2.8613787 -3.0035319 -0.27250254 0 0 0 0 69.606064
-2.9313653 -3.006511 -0.15711801 0 0 0 0 69.611023
-3.0386035 -3.0432503 -0.040475581 0 0 0 0 69.615967
-2.602041 -2.9409842 -0.37753794 0 0 0 0 69.620911
-2.6901777 -2.9618726 -0.25953311 0 0 0 0 69.625854
-2.7772441 -2.9846413 -0.15154456 0 0 0 0 69.630798
-2.861289 -2.9994829 -0.039429825 0 0 0 0 69.635757
-2.4156861 -2.8665497 -0.35502088 0 0 0 0 69.640701
-2.5400643 -2.934052 -0.24791488 0 0 0 0 69.645645
-2.6240754 -2.9547794 -0.14487559 0 0 0 0 69.650589
-2.7091138 -2.9745507 -0.037832674 0 0 0 0 69.655533
-2.3118675 -2.8823872 -0.34534496 0 0 0 0 69.660492
-2.3929002 -2.9001999 -0.237243 0 0 0 0 69.665436
-2.4748771 -2.9218781 -0.13919951 0 0 0 0 69.67038
-2.5619016 -2.9455721 -0.037224133 0 0 0 0 69.675323
-2.1747582 -2.850528 -0.32978037 0 0 0 0 69.680267
-2.2567775 -2.8722703 -0.22673754 0 0 0 0 69.685226
-2.3377194 -2.8948927 -0.13369827 0 0 0 0 69.69017
-2.4166625 -2.9115939 -0.035566553 0 0 0 0 69.695114
-2.0436335 -2.8176148 -0.31525108 0 0 0 0 69.700058
-2.1336927 -2.8522236 -0.21844089 0 0 0 0 69.705002
-2.2045269 -2.8628807 -0.12816471 0 0 0 0 69.709961
-2.284456 -2.8835113 -0.035092201 0 0 0 0 69.714905
-1.8963195 -2.752871 -0.29617754 0 0 0 0 69.719849
-2.0166144 -2.8331351 -0.21020558 0 0 0 0 69.724792
-2.0783684 -2.8358195 -0.12275174 0 0 0 0 69.729736
-2.1622975 -2.8623579 -0.034789205 0 0 0 0 69.734695
-1.7691029 -2.706934 -0.28151137 0 0 0 0 69.739639
-1.8560917 -2.7444246 -0.19571406 0 0 0 0 69.744583
-1.9369882 -2.7758825 -0.1157894 0 0 0 0 69.749527
-2.0552356 -2.8550978 -0.034789316 0 0 0 0 69.754471
-1.6912926 -2.7275538 -0.27511004 0 0 0 0 69.75943
-1.7388957 -2.7073536 -0.18624467 0 0 0 0 69.764374
-1.8056408 -2.7218621 -0.10998508 0 0 0 0 69.769318
-1.8925699 -2.7602513 -0.032200843 0 0 0 0 69.774261
-1.6245825 -2.7660563 -0.2720305 0 0 0 0 69.779221
-1.6731703 -2.7448368 -0.18416066 0 0 0 0 69.784164
-1.74192 -2.7623055 -0.1099565 0 0 0 0 69.789108
-1.770237 -2.7131171 -0.030559443 0 0 0 0 69.794052
-1.4992411 -2.7011225 -0.25613335 0 0 0 0 69.798996
-1.5862116 -2.7464991 -0.17943935 0 0 0 0 69.803955
-1.6680965 -2.786835 -0.10863905 0 0 0 0 69.808899
-1.703458 -2.7475581 -0.032428265 0 0 0 0 69.813843
-1.4233822 -2.7147315 -0.24965681 0 0 0 0 69.818787
-1.4992403 -2.7451754 -0.17367882 0 0 0 0 69.82373
-1.5477197 -2.7287397 -0.1028711 0 0 0 0 69.82869
-1.6295899 -2.7680638 -0.033058707 0 0 0 0 69.833633
-1.3333309 -2.6984696 -0.24067757 0 0 0 0 69.838577
-1.408157 -2.7278826 -0.16767848 0 0 0 0 69.843521
-1.4799155 -2.7572153 -0.10265354 0 0 0 0 69.848465
-1.5202824 -2.725826 -0.032586168 0 0 0 0 69.853424
-1.2625054 -2.7180309 -0.23531841 0 0 0 0 69.858368
-1.3150247 -2.7036057 -0.16157021 0 0 0 0 69.863312
-1.3685306 -2.6980579 -0.096944988 0 0 0 0 69.868256
-1.4493777 -2.7422993 -0.034188744 0 0 0 0 69.873199
-1.2200557 -2.79831 -0.23697688 0 0 0 0 69.878159
-1.2613879 -2.7559795 -0.16177694 0 0 0 0 69.883102
-1.2986635 -2.7175496 -0.096593507 0 0 0 0 69.888046
-1.3582089 -2.7199328 -0.03412161 0 0 0 0 69.89299
-1.1319625 -2.7760367 -0.22793509 0 0 0 0 69.897934
-1.1966007 -2.7844608 -0.15958317 0 0 0 0 69.902893
-1.2561715 -2.7928178 -0.099188387 0 0 0 0 69.907837
-1.2974231 -2.7533343 -0.036025476 0 0 0 0 69.912781
-1.1098706 -2.9131043 -0.23549475 0 0 0 0 69.917725
-1.131835 -2.8159418 -0.15742768 0 0 0 0 69.922684
-1.1740906 -2.7794254 -0.096311361 0 0 0 0 69.927628
-1.2376728 -2.7917287 -0.038001947 0 0 0 0 69.932571
-1.1377856 -2.8746948 -0.10029853 0 0 0 0 69.681244
-1.1667958 -2.8032708 -0.038627595 0 0 0 0 69.686203
-1.1406186 -2.9263945 -0.043965418 0 0 0 0 69.705978
-0.11135048 -3.1999087 -0.17664999 0 0 0 0 69.928604
-0.038039807 -3.2994134 -0.17829047 0 0 0 0 69.948395
-0.10466586 -3.1925223 -0.13248165 0 0 0 0 69.953339
-0.093961142 -3.1989846 -0.10245795 0 0 0 0 69.978073
-0.15826035 -3.2068982 -0.074102387 0 0 0 0 69.983017
-0.086614147 -3.2633431 -0.079206422 0 0 0 0 70.002808
0.42701733 -3.2086737 -0.10205258 0 0 0 0 70.116592
0.63447446 -3.1571133 -0.10644517 0 0 0 0 70.358047
0.77962524 -3.1480362 -0.11506401 0 0 0 0 70.372894
0.6493113 -3.1733019 -0.10050929 0 0 0 0 70.382782
1.6400458 -2.8900611 -0.051020078 0 0 0 0 70.610352
1.6924404 -2.8295205 -0.044750057 0 0 0 0 70.630142
1.6344516 -2.8557956 -0.0685964 0 0 0 0 70.635086
1.630903 -2.9683707 -0.10009824 0 0 0 0 70.64003
1.648783 -2.8415687 -0.094261624 0 0 0 0 70.659821
1.6462632 -2.956085 -0.13078161 0 0 0 0 70.664764
1.6710835 -2.8412933 -0.12804058 0 0 0 0 70.684555
2.2484987 -2.8261342 -0.15565635 0 0 0 0 70.803284
2.2811882 -2.7323756 -0.15511173 0 0 0 0 70.823074
2.4934723 -2.76841 -0.10803534 0 0 0 0 70.589493
2.3614118 -2.6977987 -0.15826176 0 0 0 0 70.594452
2.5539176 -2.7068651 -0.10667791 0 0 0 0 70.609283
2.4566135 -2.6774247 -0.16314051 0 0 0 0 70.614227
2.7662923 -2.728143 -0.050078537 0 0 0 0 70.62413
2.6153724 -2.6453147 -0.10631012 0 0 0 0 70.629074
2.526021 -2.6249051 -0.16482186 0 0 0 0 70.634018
2.8833828 -2.7160103 -0.048870534 0 0 0 0 70.643921
2.7155538 -2.6230321 -0.10711699 0 0 0 0 70.648865
2.5377986 -2.5150344 -0.16125306 0 0 0 0 70.653809
2.9160271 -2.6233065 -0.04434257 0 0 0 0 70.663712
2.8167653 -2.5977449 -0.10887422 0 0 0 0 70.668655
2.6548955 -2.511795 -0.16816093 0 0 0 0 70.673599
2.9963617 -2.5749359 -0.040977396 0 0 0 0 70.683487
2.8275435 -2.4878688 -0.10531063 0 0 0 0 70.688446
2.7660706 -2.4965272 -0.17396149 0 0 0 0 70.69339
3.1164885 -2.5578282 -0.039673019 0 0 0 0 70.703278
2.9108777 -2.4444664 -0.10598329 0 0 0 0 70.708221
2.8713181 -2.4712172 -0.17968071 0 0 0 0 70.713181
3.3995638 -2.5939205 0.039360549 0 0 0 0 70.718124
3.217746 -2.5225847 -0.038294133 0 0 0 0 70.723068
3.0409679 -2.4373782 -0.1087222 0 0 0 0 70.728012
2.9885292 -2.4509952 -0.18536058 0 0 0 0 70.732956
3.4192722 -2.4901526 0.045927975 0 0 0 0 70.737915
3.2563634 -2.4339266 -0.033760097 0 0 0 0 70.742859
3.1740954 -2.4263003 -0.1123808 0 0 0 0 70.747803
3.1107416 -2.4317977 -0.19200864 0 0 0 0 70.752747
3.5484123 -2.4651816 0.05242018 0 0 0 0 70.75769
3.3327804 -2.3755174 -0.031290904 0 0 0 0 70.76265
3.289351 -2.3951199 -0.11392996 0 0 0 0 70.767593
3.2320049 -2.4055946 -0.1985714 0 0 0 0 70.772537
3.6875536 -2.4412713 0.057987705 0 0 0 0 70.777481
3.4679291 -2.3555236 -0.029810566 0 0 0 0 70.782425
3.4205728 -2.371031 -0.11743097 0 0 0 0 70.787384
3.364255 -2.3824596 -0.20607662 0 0 0 0 70.792328
3.8107898 -2.4042466 0.063590162 0 0 0 0 70.797272
3.6100917 -2.3335826 -0.02824137 0 0 0 0 70.802216
3.551815 -2.3429568 -0.11987749 0 0 0 0 70.807175
3.4965413 -2.354326 -0.21351402 0 0 0 0 70.812119
3.825531 -2.2974319 0.069161385 0 0 0 0 70.817062
3.7522833 -2.3076432 -0.026617436 0 0 0 0 70.822006
3.6980433 -2.3179798 -0.12323163 0 0 0 0 70.82695
3.6358345 -2.3252449 -0.22087558 0 0 0 0 70.831909
3.9527953 -2.2554522 0.075868301 0 0 0 0 70.836853
3.8985126 -2.2777214 -0.025903847 0 0 0 0 70.841797
3.8423157 -2.2869902 -0.12652178 0 0 0 0 70.846741
3.7861307 -2.2982187 -0.23016599 0 0 0 0 70.851685
4.1209269 -2.2317724 0.082694963 0 0 0 0 70.856644
4.0487547 -2.244844 -0.024113921 0 0 0 0 70.861588
3.9975874 -2.2560828 -0.12971441 0 0 0 0 70.866531
3.9374762 -2.2632155 -0.23833989 0 0 0 0 70.871475
4.2781386 -2.1970146 0.089573853 0 0 0 0 70.876419
4.2189832 -2.2151012 -0.02318774 0 0 0 0 70.881378
4.1578894 -2.2222002 -0.13382159 0 0 0 0 70.886322
4.117774 -2.2383859 -0.24939172 0 0 0 0 70.891266
4.4613047 -2.1674621 0.097614601 0 0 0 0 70.89621
4.3992167 -2.1834466 -0.021146012 0 0 0 0 70.901154
4.3342056 -2.1864367 -0.13776092 0 0 0 0 70.906113
4.2911363 -2.2035203 -0.25936967 0 0 0 0 70.911057
4.6445284 -2.1299121 0.1057638 0 0 0 0 70.916
4.5705318 -2.1417158 -0.020047404 0 0 0 0 70.920944
4.5255079 -2.1537714 -0.14260702 0 0 0 0 70.925888
4.4685564 -2.1606863 -0.26920435 0 0 0 0 70.930847
4.2516508 -1.837074 0.10721573 0 0 0 0 70.935791
4.2414279 -1.8694632 -0.0093054017 0 0 0 0 70.940735
4.7238555 -2.1161468 -0.14832313 0 0 0 0 70.945679
4.6739511 -2.1250193 -0.28188521 0 0 0 0 70.950638
4.2065763 -1.7068099 0.11158313 0 0 0 0 70.955582
4.2482147 -1.7595655 -0.0057506319 0 0 0 0 70.960526
4.9232593 -2.0695453 -0.15290849 0 0 0 0 70.965469
4.8813972 -2.0823696 -0.294453 0 0 0 0 70.970413
4.3768339 -1.6661527 0.11866513 0 0 0 0 70.975372
4.3218112 -1.6771451 -0.0029687176 0 0 0 0 70.980316
5.1726003 -2.0352726 -0.16021428 0 0 0 0 70.98526
5.1228304 -2.0439448 -0.30877441 0 0 0 0 70.990204
4.40453 -1.5664366 0.1242737 0 0 0 0 70.995148
4.4063935 -1.5968063 -0.00011539526 0 0 0 0 71.000107
5.2164907 -1.9136255 -0.15817146 0 0 0 0 71.005051
5.2366204 -1.9457041 -0.31442586 0 0 0 0 71.009995
4.5988073 -1.5219727 0.13262269 0 0 0 0 71.014938
4.4929976 -1.5134833 0.0027973845 0 0 0 0 71.019882
5.1685777 -1.7603564 -0.15251724 0 0 0 0 71.024841
5.2166953 -1.7966136 -0.31058016 0 0 0 0 71.029785
4.7333002 -1.4490578 0.13982336 0 0 0 0 71.034729
5.0596032 -1.5765883 9.6591993e-06 0 0 0 0 71.039673
5.1445956 -1.6192365 -0.14881106 0 0 0 0 71.044617
5.1777706 -1.6463962 -0.30588508 0 0 0 0 71.049576
5.0625553 -1.4301003 0.1520738 0 0 0 0 71.45636
5.0856352 -1.4602966 0.0048691905 0 0 0 0 71.461304
5.1117973 -1.4805028 -0.14317413 0 0 0 0 71.466248
5.1510181 -1.5036845 -0.30014172 0 0 0 0 71.471191
5.3138962 -1.3761007 0.16209885 0 0 0 0 71.476151
5.2781997 -1.3857503 0.006643136 0 0 0 0 71.481094
5.2345419 -1.3853942 -0.14474925 0 0 0 0 71.486038
5.2288942 -1.3932135 -0.30391225 0 0 0 0 71.490982
5.6072502 -1.3204175 0.17252618 0 0 0 0 71.495926
5.5746274 -1.3309677 0.0080849808 0 0 0 0 71.500885
5.5480528 -1.3325901 -0.15418217 0 0 0 0 71.505829
5.3467517 -1.2890015 -0.31040657 0 0 0 0 71.510773
6.4397345 -1.3699003 0.19637658 0 0 0 0 71.515717
6.3824072 -1.3729012 0.0048126034 0 0 0 0 71.52066
5.8806601 -1.2679185 -0.16428044 0 0 0 0 71.52562
5.26582 -1.1385071 -0.30305594 0 0 0 0 71.530563
6.8232098 -1.2939416 0.21089478 0 0 0 0 71.535507
6.8039627 -1.3030369 0.005588789 0 0 0 0 71.540451
6.1004725 -1.1684879 -0.16891767 0 0 0 0 71.545395
5.2797914 -1.0096275 -0.3021442 0 0 0 0 71.550354
7.1848345 -1.1978239 0.22549334 0 0 0 0 71.555298
7.0898175 -1.1892027 0.0087448703 0 0 0 0 71.560242
6.0675964 -1.0153039 -0.16509391 0 0 0 0 71.565186
7.0451779 -1.0148486 0.22876573 0 0 0 0 71.575089
7.0140901 -1.0147176 0.013476676 0 0 0 0 71.580032
6.133626 -0.87980586 -0.1646187 0 0 0 0 71.584976
7.1142459 -0.86547637 0.23646191 0 0 0 0 71.594864
7.133184 -0.86666477 0.017604118 0 0 0 0 71.599823
6.109715 -0.73168862 -0.16077815 0 0 0 0 71.604767
7.0814199 -0.70431387 0.24140418 0 0 0 0 71.614655
7.0994062 -0.70048016 0.021605646 0 0 0 0 71.619614
6.0887904 -0.58559352 -0.15693596 0 0 0 0 71.624557
7.0415897 -0.54409838 0.24627285 0 0 0 0 71.634445
7.0726056 -0.53636116 0.026644377 0 0 0 0 71.639389
6.0688462 -0.44349182 -0.15413687 0 0 0 0 71.644348
7.0217295 -0.3880325 0.25126731 0 0 0 0 71.654236
7.041801 -0.37419823 0.030622894 0 0 0 0 71.65918
6.0239019 -0.29922932 -0.14953138 0 0 0 0 71.664124
6.9878879 -0.23084787 0.25515306 0 0 0 0 71.674026
7.0059829 -0.21399724 0.034531992 0 0 0 0 71.67897
6.02496 -0.15827158 -0.14755486 0 0 0 0 71.683914
6.9470239 -0.075623624 0.25995132 0 0 0 0 71.693817
6.9821653 -0.053886317 0.03855009 0 0 0 0 71.698761
5.9699817 -0.01893281 -0.14310248 0 0 0 0 71.703705
7.0031457 0.078857385 0.26661572 0 0 0 0 71.713593
7.1073642 0.10613011 0.041912127 0 0 0 0 71.718552
5.9470205 0.12019247 -0.14036305 0 0 0 0 71.723495
7.0712738 0.23523369 0.27441716 0 0 0 0 71.733383
7.0815573 0.26725569 0.045931201 0 0 0 0 71.738327
5.9030304 0.25646293 -0.13684984 0 0 0 0 71.743286
7.0454144 0.38935846 0.27834287 0 0 0 0 71.753174
7.0617361 0.42633638 0.049978942 0 0 0 0 71.758118
7.0155563 0.54351354 0.282235 0 0 0 0 71.772964
7.0289111 0.583529 0.05288583 0 0 0 0 71.777908
5.8770833 0.52957773 -0.13225089 0 0 0 0 71.782852
6.9896846 0.6956389 0.28613773 0 0 0 0 71.792755
6.9940858 0.74172324 0.05679043 0 0 0 0 71.797699
5.8450899 0.66377211 -0.12965225 0 0 0 0 71.802643
6.9538221 0.84883976 0.28996682 0 0 0 0 71.812546
6.9782848 0.9017877 0.059894312 0 0 0 0 71.81749
5.8511648 0.8047061 -0.12861657 0 0 0 0 71.822433
6.9369674 1.0028973 0.29398137 0 0 0 0 71.832321
6.9304352 1.0550947 0.062618986 0 0 0 0 71.83728
5.779099 0.93117684 -0.1244812 0 0 0 0 71.842224
6.8880711 1.1511973 0.2976301 0 0 0 0 71.852112
6.7233553 1.1805664 0.066527024 0 0 0 0 71.857056
5.7300725 1.060501 -0.1220976 0 0 0 0 71.862015
6.6779795 1.2667869 0.2943764 0 0 0 0 71.871902
6.6995063 1.3336934 0.069469295 0 0 0 0 71.876846
5.6830387 1.1897969 -0.1186948 0 0 0 0 71.88179
4.889432 1.07567 -0.26443362 0 0 0 0 71.886749
6.6510859 1.4139358 0.29721117 0 0 0 0 71.891693
6.6636386 1.4829253 0.07125175 0 0 0 0 71.896637
5.624969 1.314177 -0.11545722 0 0 0 0 71.901581
4.8603101 1.1918497 -0.26205015 0 0 0 0 71.90654
6.619185 1.5611089 0.30100301 0 0 0 0 71.911484
6.6287708 1.6331363 0.074058637 0 0 0 0 71.916428
5.5799322 1.4404861 -0.11407419 0 0 0 0 71.921371
4.8171606 1.3041362 -0.25984544 0 0 0 0 71.926315
6.5870004 1.7087299 0.30263805 0 0 0 0 71.657684
6.598618 1.787719 0.075798638 0 0 0 0 71.662628
5.5696673 1.5788581 -0.11328039 0 0 0 0 71.667587
4.7837238 1.4196279 -0.2595011 0 0 0 0 71.672531
6.5591164 1.8578851 0.30548313 0 0 0 0 71.677475
6.5727806 1.9428604 0.078743801 0 0 0 0 71.682419
5.5597191 1.7179004 -0.1114165 0 0 0 0 71.687378
4.7525835 1.5338222 -0.25716859 0 0 0 0 71.692322
6.5312343 2.0070407 0.30833027 0 0 0 0 71.697266
6.5349169 2.0931063 0.080516532 0 0 0 0 71.702209
5.5086627 1.8432394 -0.10910591 0 0 0 0 71.707153
4.718461 1.6490525 -0.25584763 0 0 0 0 71.712112
6.5003457 2.1552193 0.31113911 0 0 0 0 71.717056
6.5141201 2.2522233 0.082564861 0 0 0 0 71.722
5.4826827 1.9764167 -0.10846216 0 0 0 0 71.726944
4.6853323 1.7632759 -0.25452998 0 0 0 0 71.731888
6.4764953 2.3083446 0.31408024 0 0 0 0 71.736847
6.476265 2.4044564 0.085368671 0 0 0 0 71.741791
5.4577246 2.1135728 -0.10675349 0 0 0 0 71.746735
4.6502037 1.8775145 -0.25322869 0 0 0 0 71.751678
6.4426169 2.4575462 0.31687987 0 0 0 0 71.756622
6.4274058 2.5547857 0.087049231 0 0 0 0 71.761581
5.3986497 2.2359734 -0.10455036 0 0 0 0 71.766525
4.6472116 2.0075371 -0.25342262 0 0 0 0 71.771469
6.4147778 2.6107154 0.3187896 0 0 0 0 71.776413
5.0853405 2.1527138 0.083580099 0 0 0 0 71.781357
4.7493887 2.0964622 -0.083217375 0 0 0 0 71.786316
4.4684968 2.0567005 -0.24229454 0 0 0 0 71.79126
4.8192654 2.0833008 0.25731933 0 0 0 0 71.796204
4.5214505 2.0358717 0.0829826 0 0 0 0 71.801147
4.4392228 2.0846202 -0.074102573 0 0 0 0 71.806091
4.4374027 2.1739233 -0.24191332 0 0 0 0 71.81105
4.378839 2.0087566 0.2414037 0 0 0 0 71.815994
4.3959422 2.0997808 0.08378876 0 0 0 0 71.820938
4.4201179 2.2017379 -0.072613575 0 0 0 0 71.825882
4.4173532 2.2970626 -0.24135055 0 0 0 0 71.830841
4.3556585 2.1159036 0.24272025 0 0 0 0 71.835785
4.3798289 2.2158749 0.085291468 0 0 0 0 71.840729
4.3970242 2.3188992 -0.072158605 0 0 0 0 71.845673
4.3963213 2.4212232 -0.24178132 0 0 0 0 71.850616
4.3334842 2.2250292 0.24507427 0 0 0 0 71.855576
4.3496833 2.3260891 0.085588887 0 0 0 0 71.860519
4.3639069 2.4341233 -0.070818961 0 0 0 0 71.865463
4.3742814 2.5453775 -0.2412194 0 0 0 0 71.870407
4.3093281 2.3351836 0.24642557 0 0 0 0 71.875351
4.3245654 2.4412518 0.087000519 0 0 0 0 71.88031
4.3317914 2.5493398 -0.069468915 0 0 0 0 71.885254
4.3764167 2.6893892 -0.24316764 0 0 0 0 71.890198
4.282167 2.4433746 0.24672435 0 0 0 0 71.895142
5.7038455 3.3999372 0.097593382 0 0 0 0 71.900085
5.1269059 3.1858079 -0.093545705 0 0 0 0 71.905045
4.34338 2.8136275 -0.24270065 0 0 0 0 71.909988
6.1932683 3.729079 0.33460179 0 0 0 0 71.914932
5.4208541 3.3990269 0.097106963 0 0 0 0 71.919876
4.9452367 3.233077 -0.088463224 0 0 0 0 71.92482
4.3284798 2.9537547 -0.24385189 0 0 0 0 71.929779
5.9255128 3.7501583 0.32655549 0 0 0 0 71.934723
5.4764924 3.6125941 0.098605201 0 0 0 0 71.939667
4.6197305 3.1763482 -0.079100251 0 0 0 0 71.944611
4.2874441 3.0790403 -0.24243982 0 0 0 0 71.949554
5.6596842 3.7602394 0.31737441 0 0 0 0 71.954514
5.1531825 3.5699818 0.098182969 0 0 0 0 71.959457
4.453001 3.215508 -0.073996425 0 0 0 0 71.964401
4.0863829 3.0833559 -0.23012352 0 0 0 0 71.969345
5.6319542 3.9264114 0.31947821 0 0 0 0 71.974289
4.822701 3.5044281 0.097379193 0 0 0 0 71.979248
4.4764156 3.3963542 -0.075238943 0 0 0 0 71.984192
3.8298776 3.034029 -0.21404277 0 0 0 0 71.989136
5.3328314 3.8957653 0.30843693 0 0 0 0 71.99408
4.5222855 3.4466622 0.09595003 0 0 0 0 71.999039
4.2774243 3.4027355 -0.068874829 0 0 0 0 72.003983
3.7303689 3.101696 -0.20894629 0 0 0 0 72.008926
5.0104642 3.8323007 0.29673344 0 0 0 0 72.01387
4.4964089 3.5918422 0.096778452 0 0 0 0 72.018814
4.0240154 3.3555076 -0.06173807 0 0 0 0 72.023773
3.7023902 3.2319126 -0.20934755 0 0 0 0 72.028717
4.7020674 3.7637467 0.28408307 0 0 0 0 72.033661
4.421237 3.6983857 0.09763369 0 0 0 0 72.038605
3.7745383 3.2992525 -0.054692149 0 0 0 0 72.043549
3.5605505 3.2598503 -0.20117687 0 0 0 0 72.048508
4.4559221 3.7326789 0.27550676 0 0 0 0 72.053452
4.1900578 3.6711109 0.096243881 0 0 0 0 72.058395
3.6387956 3.3342109 -0.051370334 0 0 0 0 72.063339
3.3581908 3.224185 -0.1894258 0 0 0 0 72.068283
4.5780168 4.0136552 0.28454173 0 0 0 0 72.073242
3.9416611 3.6159568 0.095313892 0 0 0 0 72.078186
3.6319983 3.487278 -0.052263092 0 0 0 0 72.08313
3.1587613 3.1804857 -0.17676026 0 0 0 0 72.088074
4.3438811 3.9825125 0.27507174 0 0 0 0 72.093018
3.7203443 3.5715983 0.094774671 0 0 0 0 72.097977
3.5133526 3.5351069 -0.048609827 0 0 0 0 72.102921
3.0126956 3.1794474 -0.16802882 0 0 0 0 72.107864
4.1096535 3.9403594 0.26644769 0 0 0 0 72.112808
3.5100131 3.5241718 0.093290456 0 0 0 0 72.117752
3.3250854 3.5034313 -0.043678414 0 0 0 0 72.122711
3.0159695 3.3394685 -0.17073694 0 0 0 0 72.127655
3.8887689 3.8969052 0.25788453 0 0 0 0 72.352814
3.5509839 3.7346716 0.095548324 0 0 0 0 72.357758
3.132021 3.454627 -0.037152149 0 0 0 0 72.362701
2.9964435 3.4805148 -0.17204101 0 0 0 0 72.367661
3.6674402 3.84167 0.24917473 0 0 0 0 72.372604
3.4464674 3.7944524 0.095493123 0 0 0 0 72.377548
3.0344398 3.5083306 -0.03523146 0 0 0 0 72.382492
2.9564152 3.6038151 -0.17163377 0 0 0 0 72.387436
3.4732437 3.8052137 0.24196997 0 0 0 0 72.392395
3.2753446 3.7737513 0.093716428 0 0 0 0 72.397339
3.010555 3.6495187 -0.035428323 0 0 0 0 72.402283
2.9073429 3.7211859 -0.17138988 0 0 0 0 72.407227
3.3092413 3.7945256 0.23539546 0 0 0 0 72.41217
3.2394297 3.9120164 0.094372787 0 0 0 0 72.41713
2.9766498 3.7877843 -0.035755806 0 0 0 0 72.422073
2.8562949 3.841572 -0.17112137 0 0 0 0 72.427017
3.2934682 3.9516335 0.23649815 0 0 0 0 72.431961
3.2075913 4.0602493 0.095205829 0 0 0 0 72.436905
2.9569197 3.9479535 -0.036649 0 0 0 0 72.441864
2.80427 3.9649661 -0.17081904 0 0 0 0 72.446808
3.2555621 4.0909123 0.23715319 0 0 0 0 72.451752
3.1859214 4.2294173 0.095423296 0 0 0 0 72.456696
2.9251525 4.1042018 -0.036704838 0 0 0 0 72.461655
2.7431777 4.0804167 -0.16970846 0 0 0 0 72.466599
3.2076066 4.2222838 0.23660801 0 0 0 0 72.471542
3.1532083 4.3926711 0.095459655 0 0 0 0 72.476486
2.8914192 4.2634797 -0.037735131 0 0 0 0 72.48143
2.6912613 4.2178097 -0.16920929 0 0 0 0 72.486389
3.1738386 4.3795309 0.23755275 0 0 0 0 72.491333
3.1195574 4.5639315 0.095600121 0 0 0 0 72.496277
2.8537233 4.4287739 -0.03771659 0 0 0 0 72.501221
2.6404095 4.3612223 -0.17061587 0 0 0 0 72.506165
3.1300516 4.5328693 0.23735289 0 0 0 0 72.511124
3.0778856 4.7322536 0.095628217 0 0 0 0 72.516068
2.8292735 4.623992 -0.039160252 0 0 0 0 72.521011
2.6018479 4.5415521 -0.17239706 0 0 0 0 72.525955
3.090349 4.697176 0.23734425 0 0 0 0 72.530899
3.0434208 4.9265337 0.095083825 0 0 0 0 72.535858
2.7897565 4.8113132 -0.039849456 0 0 0 0 72.540802
2.5521731 4.7079554 -0.17347105 0 0 0 0 72.545746
3.0608728 4.8923883 0.23885995 0 0 0 0 72.55069
3.0029566 5.1218457 0.095500953 0 0 0 0 72.555634
2.7492945 5.0056415 -0.040447962 0 0 0 0 72.560593
2.5016363 4.892364 -0.1743018 0 0 0 0 72.565536
3.0081985 5.0588098 0.23776506 0 0 0 0 72.57048
2.9555113 5.3182259 0.094870806 0 0 0 0 72.575424
2.7150934 5.2329335 -0.041529838 0 0 0 0 72.580368
2.4542332 5.0917759 -0.17689379 0 0 0 0 72.585327
2.974885 5.2750506 0.23954152 0 0 0 0 72.590271
2.9203629 5.5535092 0.094895817 0 0 0 0 72.595215
2.6637509 5.4413595 -0.043028492 0 0 0 0 72.600159
2.4019217 5.3042116 -0.17834809 0 0 0 0 72.605118
2.9305243 5.4824061 0.23909529 0 0 0 0 72.610062
2.8559284 5.7520075 0.095143251 0 0 0 0 72.615005
2.6217058 5.6887116 -0.043898862 0 0 0 0 72.619949
2.3579278 5.5546222 -0.18219669 0 0 0 0 72.624893
2.8812404 5.7007847 0.23975913 0 0 0 0 72.629852
2.8027866 5.9864445 0.093995742 0 0 0 0 72.634796
2.5707335 5.9441466 -0.04573663 0 0 0 0 72.63974
2.3049519 5.8071027 -0.18609639 0 0 0 0 72.644684
2.8270209 5.9262156 0.23947768 0 0 0 0 72.649628
2.7620718 6.276782 0.093742035 0 0 0 0 72.654587
2.5240083 6.2305608 -0.048101906 0 0 0 0 72.659531
2.2471442 6.0826058 -0.18871793 0 0 0 0 72.664474
2.7820916 6.1895723 0.23981178 0 0 0 0 72.669418
2.6950648 6.528326 0.092709884 0 0 0 0 72.674362
2.4540858 6.4931288 -0.049009286 0 0 0 0 72.679321
2.1896179 6.3911471 -0.19387491 0 0 0 0 72.684265
2.7292624 6.4669762 0.24127133 0 0 0 0 72.689209
2.6262729 6.8078823 0.092053466 0 0 0 0 72.694153
2.3905263 6.8006735 -0.051229872 0 0 0 0 72.699097
2.1293304 6.7307081 -0.19862242 0 0 0 0 72.704056
2.6705534 6.7574525 0.24086137 0 0 0 0 72.709
2.5239742 7.0216894 0.091175862 0 0 0 0 72.713943
2.3253064 7.1512418 -0.053863894 0 0 0 0 72.718887
2.0602305 7.0933499 -0.20412657 0 0 0 0 72.723831
2.6130888 7.080904 0.24192543 0 0 0 0 72.72879
2.4075792 7.2226076 0.089990214 0 0 0 0 72.733734
2.2532651 7.5248628 -0.056236032 0 0 0 0 72.738678
1.9864961 7.5010538 -0.21104242 0 0 0 0 72.743622
2.5437441 7.4184604 0.24207947 0 0 0 0 72.748581
2.3180029 7.5283394 0.088513725 0 0 0 0 72.753525
2.1693895 7.9185882 -0.059433639 0 0 0 0 72.758469
1.901987 7.9378405 -0.21764827 0 0 0 0 72.763412
2.4644578 7.7621088 0.24123006 0 0 0 0 72.768356
2.2124226 7.8331966 0.086879909 0 0 0 0 72.773315
2.0767486 8.3413944 -0.063302912 0 0 0 0 72.778259
1.8016276 8.3937492 -0.22412954 0 0 0 0 72.783203
2.3937922 8.1866856 0.24159242 0 0 0 0 72.788147
2.1123273 8.2000217 0.085163563 0 0 0 0 72.793091
1.9693246 8.7933006 -0.065898791 0 0 0 0 72.79805
1.6948122 8.9167461 -0.23273076 0 0 0 0 72.802994
2.3072605 8.6283846 0.24205139 0 0 0 0 72.807938
2.015954 8.6598272 0.083782159 0 0 0 0 72.812881
1.8219627 9.1254845 -0.067529231 0 0 0 0 72.817825
1.5661845 9.4648981 -0.24017751 0 0 0 0 72.822784
2.2061827 9.0833597 0.24009639 0 0 0 0 72.580063
1.9175681 9.2037878 0.08010029 0 0 0 0 72.585007
1.6401415 9.3609896 -0.069281973 0 0 0 0 72.589951
2.1096947 9.6621513 0.24033664 0 0 0 0 72.599854
1.7968595 9.7508001 0.077676065 0 0 0 0 72.604797
1.5026824 9.938159 -0.073443182 0 0 0 0 72.609741
1.9808739 10.19521 0.23865139 0 0 0 0 72.619644
1.6660254 10.40991 0.074718781 0 0 0 0 72.624588
1.3584299 10.667441 -0.080551788 0 0 0 0 72.629532
1.0319159 11.039432 -0.25741374 0 0 0 0 72.634476
1.8543341 10.896242 0.23932342 0 0 0 0 72.639435
1.5251511 11.19212 0.071384199 0 0 0 0 72.644379
1.1921842 11.525913 -0.088062853 0 0 0 0 72.649323
0.83302987 11.936255 -0.27169392 0 0 0 0 72.654266
1.6966293 11.57353 0.23838629 0 0 0 0 72.65921
1.3516678 12.023593 0.067441255 0 0 0 0 72.664169
0.99230742 12.430658 -0.096232302 0 0 0 0 72.669113
1.529547 12.460908 0.23828731 0 0 0 0 72.679001
1.4197905 16.031641 0.062850229 0 0 0 0 72.683945
0.8548848 15.302515 -0.12850119 0 0 0 0 72.688904
1.7486101 17.690144 0.29209429 0 0 0 0 72.698792
0.9563483 14.670061 0.057800595 0 0 0 0 72.703735
0.51220256 15.722194 -0.12969525 0 0 0 0 72.708679
-0.025498591 18.039194 -0.38849261 0 0 0 0 72.713638
1.1253872 14.881261 0.23944664 0 0 0 0 72.718582
0.62675548 14.965701 0.051000267 0 0 0 0 72.723526
0.1612374 18.016468 -0.15190932 0 0 0 0 72.72847
-0.44262192 17.910074 -0.36798677 0 0 0 0 72.733414
0.77347529 14.735172 0.22129846 0 0 0 0 72.738373
0.32891533 18.064495 0.041476116 0 0 0 0 72.743317
-0.25637308 17.93557 -0.14674093 0 0 0 0 72.74826
-0.85857719 17.801962 -0.34818435 0 0 0 0 72.753204
0.52512306 18.052288 0.23529084 0 0 0 0 72.758148
-0.088836268 17.950768 0.034183826 0 0 0 0 72.763107
-0.67495537 17.859671 -0.14051767 0 0 0 0 72.768051
-1.2701247 17.743855 -0.33065155 0 0 0 0 72.772995
0.10371422 17.966784 0.21435408 0 0 0 0 72.777939
-0.50048071 17.85001 0.026122492 0 0 0 0 72.782898
-1.0854992 17.787724 -0.13517044 0 0 0 0 72.787842
-1.6791282 17.629696 -0.31088063 0 0 0 0 72.792786
-0.31071854 17.878227 0.19343384 0 0 0 0 72.797729
-0.91598988 17.76827 0.019284016 0 0 0 0 72.802673
-1.4912407 17.688761 -0.13116066 0 0 0 0 72.807632
-2.0894697 17.597599 -0.29398555 0 0 0 0 72.812576
-0.7269913 17.810688 0.17278345 0 0 0 0 72.81752
-1.3271377 17.731527 0.011107413 0 0 0 0 72.822464
-1.9027784 17.617828 -0.1258201 0 0 0 0 72.827408
-2.4884038 17.490395 -0.27603596 0 0 0 0 72.832367
-1.1363702 17.728115 0.1509819 0 0 0 0 72.837311
-1.7386312 17.650778 0.0033089351 0 0 0 0 72.842255
-2.3063993 17.534855 -0.12157928 0 0 0 0 72.847198
-2.896054 17.419271 -0.25867063 0 0 0 0 72.852142
-1.5417193 17.649511 0.12926759 0 0 0 0 72.857101
-2.1440952 17.573986 -0.0043838457 0 0 0 0 72.862045
-2.7130382 17.450893 -0.116386 0 0 0 0 72.866989
-3.3006668 17.35313 -0.24121284 0 0 0 0 72.871933
-1.9520855 17.569939 0.10848726 0 0 0 0 72.876877
-2.5447266 17.474173 -0.013358707 0 0 0 0 72.881836
-3.1136913 17.363903 -0.11218502 0 0 0 0 72.88678
-3.7025027 17.257969 -0.22413991 0 0 0 0 72.891724
-2.3555138 17.482317 0.087653667 0 0 0 0 72.896667
-2.9474387 17.366354 -0.020470642 0 0 0 0 72.901611
-3.5239282 17.329014 -0.10935162 0 0 0 0 72.90657
-3.6598289 15.332761 -0.17748511 0 0 0 0 72.911514
-2.7858038 17.540926 0.066606678 0 0 0 0 72.916458
-3.3787398 17.436819 -0.030364441 0 0 0 0 72.921402
-3.9469824 17.319214 -0.10529232 0 0 0 0 72.926346
-3.9767857 15.09394 -0.16065063 0 0 0 0 72.931305
-3.1930912 17.469368 0.043950766 0 0 0 0 72.936249
-3.7988577 17.404165 -0.038598999 0 0 0 0 72.941193
-3.8337586 15.182749 -0.08096204 0 0 0 0 72.946136
-4.7802234 16.566401 -0.1674404 0 0 0 0 72.951096
-3.6227484 17.479982 0.022229699 0 0 0 0 72.956039
-4.2033825 17.317413 -0.048449997 0 0 0 0 72.960983
-4.607532 16.606039 -0.092156164 0 0 0 0 72.965927
-5.1457224 16.387947 -0.14921899 0 0 0 0 72.970871
-4.0447206 17.449547 1.3232209e-06 0 0 0 0 72.97583
-4.9864922 16.479898 -0.08833155 0 0 0 0 72.985718
-5.5394034 16.31275 -0.13282248 0 0 0 0 72.990662
-5.3577313 16.318689 -0.083931893 0 0 0 0 73.005508
-5.9164295 16.191446 -0.11792161 0 0 0 0 73.010452
-5.2154465 16.363407 -0.068870351 0 0 0 0 73.02034
-5.7611198 16.264767 -0.08133664 0 0 0 0 73.025299
-6.3171363 16.114298 -0.10062946 0 0 0 0 73.030243
-5.062717 16.45517 -0.062050663 0 0 0 0 73.035187
-5.622684 16.314686 -0.078240812 0 0 0 0 73.040131
-6.1490211 16.146706 -0.077500813 0 0 0 0 73.045074
-6.7316551 16.059286 -0.085162185 0 0 0 0 73.050034
-5.4388847 16.310831 -0.080829293 0 0 0 0 73.452316
-6.0048747 16.183277 -0.084979966 0 0 0 0 73.45726
-6.5518651 16.07633 -0.07165733 0 0 0 0 73.462204
-7.1179566 15.946652 -0.066841841 0 0 0 0 73.467148
-5.8442683 16.229309 -0.10270811 0 0 0 0 73.472107
-6.4044123 16.09654 -0.09488035 0 0 0 0 73.477051
-6.9673219 16.014549 -0.06935744 0 0 0 0 73.481995
-7.6151576 16.058365 -0.052858487 0 0 0 0 73.486938
-6.2427526 16.133751 -0.1257267 0 0 0 0 73.491882
-6.8247333 16.038956 -0.10356981 0 0 0 0 73.496841
-7.3808489 15.943757 -0.067172736 0 0 0 0 73.501785
-7.0051293 13.932947 -0.023130048 0 0 0 0 73.506729
-6.6579542 16.073341 -0.14941068 0 0 0 0 73.511673
-7.2214665 15.927206 -0.11381035 0 0 0 0 73.516632
-7.069438 15.977893 -0.17256284 0 0 0 0 73.531464
-7.7431803 16.067518 -0.12766314 0 0 0 0 73.536407
-7.5694036 16.071209 -0.19887888 0 0 0 0 73.551254
-7.0344729 13.763467 -0.1095716 0 0 0 0 73.556198
-6.8788161 13.750329 -0.18320937 0 0 0 0 73.571045
-13.073375 14.941418 0.15039891 0 0 0 0 73.724396
-13.443634 14.670111 0.16605636 0 0 0 0 73.744186
-13.323274 14.714166 -0.039134778 0 0 0 0 73.759033
-13.951761 14.545865 0.1844894 0 0 0 0 73.763977
-13.222926 14.723774 -0.27201334 0 0 0 0 73.773865
-13.843252 14.588263 -0.037843481 0 0 0 0 73.778809
-14.491784 14.434878 0.20279901 0 0 0 0 73.783768
-13.138968 14.781857 -0.52835757 0 0 0 0 73.788712
-13.766589 14.617307 -0.28767556 0 0 0 0 73.793655
-14.397073 14.483619 -0.035579681 0 0 0 0 73.798599
-15.080662 14.34624 0.22395296 0 0 0 0 73.803543
-13.684482 14.673653 -0.56106693 0 0 0 0 73.808502
-14.333186 14.518042 -0.3044624 0 0 0 0 73.813446
-14.986812 14.388279 -0.034535035 0 0 0 0 73.81839
-16.579235 15.066726 0.25396684 0 0 0 0 73.823334
-14.223282 14.530388 -0.59322196 0 0 0 0 73.828293
-14.91584 14.412894 -0.32049528 0 0 0 0 73.833237
-17.110151 14.846633 0.2747781 0 0 0 0 73.843124
-14.8435 14.453861 -0.6312108 0 0 0 0 73.848068
-17.687819 14.658915 0.2955955 0 0 0 0 73.862915
-18.096684 14.317878 0.31482515 0 0 0 0 73.882706
-17.509121 14.661569 -0.39367366 0 0 0 0 73.892593
-18.61006 14.041646 0.33597091 0 0 0 0 73.902496
-18.242716 14.558712 -0.41515884 0 0 0 0 73.912384
-19.017445 14.426296 -0.033446036 0 0 0 0 73.917328
-19.317406 13.899919 0.36017346 0 0 0 0 73.922272
-19.667074 14.213408 -0.032181486 0 0 0 0 73.691452
-19.638914 13.460227 0.3774018 0 0 0 0 73.696411
-19.580931 13.473642 -0.026887933 0 0 0 0 73.711243
-19.953522 13.022455 0.39517182 0 0 0 0 73.716187
-19.551981 13.450667 -0.45797896 0 0 0 0 73.726089
-19.840837 12.980643 -0.023389451 0 0 0 0 73.731033
-19.79245 12.281019 0.40614212 0 0 0 0 73.735977
-19.587183 13.490737 -0.92578828 0 0 0 0 73.740921
-19.746225 12.902297 -0.46464917 0 0 0 0 73.74588
-19.703594 12.252498 -0.019461723 0 0 0 0 73.750824
-19.630228 12.83326 -0.9385761 0 0 0 0 73.760712
-19.631929 12.176395 -0.46491364 0 0 0 0 73.765656
-19.531956 12.100533 -0.94209599 0 0 0 0 73.780502
-0.32396567 0.1919139 0.063691348 0 0 0 0 73.79039
-0.34401935 0.19297303 0.070523858 0 0 0 0 73.795349
-0.31094056 0.18392566 0.055726387 0 0 0 0 73.805237
-0.29592344 0.17492157 0.047765993 0 0 0 0 73.820084
-0.33305821 0.17598745 0.063444369 0 0 0 0 73.829971
-0.35212955 0.17602447 0.071271531 0 0 0 0 73.834915
-0.31305724 0.16494372 0.055502459 0 0 0 0 73.844818
-0.29106426 0.15288414 0.047565117 0 0 0 0 73.85965
-0.35311875 0.16414857 0.063149951 0 0 0 0 73.869553
-0.39314488 0.17232375 0.072892576 0 0 0 0 73.874496
-0.34506014 0.15921438 0.054180667 0 0 0 0 73.884384
-0.32405925 0.14816269 0.046248168 0 0 0 0 73.899231
-0.40010661 0.16152488 0.06272804 0 0 0 0 73.909119
-0.41822276 0.15951121 0.073534876 0 0 0 0 73.914078
-0.39104626 0.15559742 0.052753795 0 0 0 0 73.923965
-0.3769941 0.14863011 0.04281266 0 0 0 0 73.938812
-0.44114399 0.15384024 0.063289709 0 0 0 0 73.9487
-0.43034914 0.14059573 0.07421317 0 0 0 0 73.953644
-0.40315497 0.13769631 0.052446853 0 0 0 0 73.963547
-0.38212702 0.12767336 0.042528842 0 0 0 0 73.978378
-0.38243967 0.11237319 0.06332545 0 0 0 0 73.988281
-0.36162832 0.10006242 0.073358707 0 0 0 0 73.993225
-0.36340553 0.10435147 0.054417159 0 0 0 0 74.003113
-0.35333562 0.098430507 0.043452423 0 0 0 0 74.01796
-0.35262337 0.085136063 0.063287385 0 0 0 0 74.027847
-0.34077999 0.076896653 0.073292807 0 0 0 0 74.032806
-0.33957303 0.079162143 0.054350901 0 0 0 0 74.042694
-0.32551306 0.073194638 0.044424158 0 0 0 0 74.057541
-0.33076736 0.062962055 0.063245267 0 0 0 0 74.067429
-0.32290813 0.056754239 0.073241465 0 0 0 0 74.072372
-0.32371837 0.058021769 0.055265844 0 0 0 0 74.082275
-0.30865854 0.052046202 0.045348622 0 0 0 0 74.097107
-0.31389734 0.043813057 0.064198539 0 0 0 0 74.10701
-0.3270129 0.040773563 0.074037522 0 0 0 0 74.111954
-0.30683869 0.038887225 0.0552192 0 0 0 0 74.121841
-0.30277005 0.034000069 0.04521133 0 0 0 0 74.136688
-0.31299296 0.027806656 0.064042211 0 0 0 0 74.146576
-0.32810852 0.024783235 0.073861852 0 0 0 0 74.151535
-0.30989349 0.02291259 0.055111155 0 0 0 0 74.213089
-0.29483536 0.017922448 0.046208452 0 0 0 0 74.227936
-0.31104869 0.011791476 0.063981399 0 0 0 0 74.237823
-0.32016504 0.0087195421 0.073858097 0 0 0 0 74.242783
-0.30898955 0.0069062975 0.054953907 0 0 0 0 74.25267
-0.29293147 0.0019080887 0.046060801 0 0 0 0 74.267517
-0.31113699 -0.0032070011 0.063828796 0 0 0 0 74.277405
-0.31926331 -0.0063016047 0.074714743 0 0 0 0 74.282349
-0.31007776 -0.0080839675 0.054791551 0 0 0 0 74.292252
-0.29600978 -0.013051468 0.044879347 0 0 0 0 74.307083
-0.31124321 -0.019219853 0.064660959 0 0 0 0 74.316986
-0.32936889 -0.022233639 0.075450577 0 0 0 0 74.32193
-0.31218386 -0.024080502 0.055604294 0 0 0 0 74.331818
-0.29510635 -0.029057719 0.044721108 0 0 0 0 74.346664
-0.31433979 -0.035193887 0.064463869 0 0 0 0 74.356552
-0.32546616 -0.03826439 0.075320601 0 0 0 0 74.361496
-0.30227345 -0.039159846 0.055546846 0 0 0 0 74.371399
-0.30221051 -0.045998991 0.044470686 0 0 0 0 74.386246
-0.31943643 -0.051151641 0.06424696 0 0 0 0 74.396133
-0.33158061 -0.05522852 0.076079056 0 0 0 0 74.401077
-0.31839308 -0.058027901 0.055179931 0 0 0 0 74.41098
-0.30130759 -0.062005181 0.044311352 0 0 0 0 74.425812
-0.31153613 -0.066229522 0.065169349 0 0 0 0 74.435715
-0.32867834 -0.071251199 0.075938493 0 0 0 0 74.440659
-0.3054755 -0.07213185 0.055165201 0 0 0 0 74.450546
-0.30241281 -0.078994997 0.044117585 0 0 0 0 74.465393
-0.31364155 -0.083211452 0.064965658 0 0 0 0 74.475281
-0.32979378 -0.088255852 0.076744005 0 0 0 0 74.480225
-0.31158856 -0.090080999 0.054908078 0 0 0 0 74.490128
-0.31653941 -0.099863909 0.042739034 0 0 0 0 74.504959
-0.33681127 -0.10703614 0.065455452 0 0 0 0 74.514862
-0.34795612 -0.11112138 0.077296495 0 0 0 0 74.519806
-0.33977214 -0.11684976 0.054305285 0 0 0 0 74.529709
-0.3206591 -0.11981408 0.041470997 0 0 0 0 74.54454
-0.33592555 -0.12504208 0.06526462 0 0 0 0 74.554443
-0.34106484 -0.12719119 0.07819277 0 0 0 0 74.559387
-0.31482431 -0.12705213 0.054464158 0 0 0 0 74.569275
-0.31477553 -0.13687532 0.042342927 0 0 0 0 74.584122
-0.34106368 -0.14599872 0.064970948 0 0 0 0 74.594009
-0.35925195 -0.15305592 0.078699253 0 0 0 0 74.598953
-0.40121844 -0.18132883 0.051885109 0 0 0 0 74.608856
-0.33696476 -0.16666247 0.039751943 0 0 0 0 74.623688
-0.40945718 -0.19646625 0.065623254 0 0 0 0 74.633591
-0.42264172 -0.20059398 0.081443451 0 0 0 0 74.638535
-0.3732796 -0.19255541 0.052056901 0 0 0 0 74.648422
-0.31703487 -0.17783883 0.040846907 0 0 0 0 74.663269
-0.37950274 -0.20570974 0.065843739 0 0 0 0 74.673172
-0.39670143 -0.21278986 0.080580808 0 0 0 0 74.678116
-0.34049577 -0.19883804 0.052955024 0 0 0 0 74.437347
-0.30732054 -0.19391726 0.040372245 0 0 0 0 74.452179
-0.36679402 -0.22281314 0.065389276 0 0 0 0 74.462082
-0.39002478 -0.23285824 0.081025854 0 0 0 0 74.467026
-0.33562663 -0.21887599 0.052772541 0 0 0 0 74.476913
-0.30948272 -0.21789783 0.040063802 0 0 0 0 74.49176
-0.38304532 -0.25669298 0.065797403 0 0 0 0 74.501648
-0.41232559 -0.27170321 0.082301959 0 0 0 0 74.506607
-15.153415 -10.156855 -1.1054549 0 0 0 0 74.511551
-8.9773407 -5.8430486 0.084120214 0 0 0 0 74.521439
-9.0473051 -5.8034525 0.42305106 0 0 0 0 74.526382
-6.2245736 -4.4094186 -0.42109224 0 0 0 0 74.531342
-15.151424 -10.51307 -0.47670212 0 0 0 0 74.536285
-15.324629 -10.465124 0.09935873 0 0 0 0 74.541229
-6.8215389 -4.6008234 0.33935541 0 0 0 0 74.546173
-6.2424159 -4.5701065 -0.15961793 0 0 0 0 74.556076
-6.2883887 -4.526257 0.080601074 0 0 0 0 74.56102
-6.3444629 -4.4913692 0.32359052 0 0 0 0 74.565964
-14.982347 -11.482403 -0.47848299 0 0 0 0 74.575867
-15.074943 -11.350218 0.10559911 0 0 0 0 74.580811
-14.850146 -11.94547 -0.47809944 0 0 0 0 74.595642
-14.973845 -11.822078 0.10854904 0 0 0 0 74.600601
-16.868284 -14.237417 -0.55561566 0 0 0 0 74.615433
-3.513433 -3.2057147 -0.22598116 0 0 0 0 74.63028
-3.5758283 -3.1875451 -0.067305446 0 0 0 0 74.635223
-3.1934352 -3.0605731 -0.20371668 0 0 0 0 74.65007
-3.3353407 -3.120573 -0.058969531 0 0 0 0 74.655014
-3.5043762 -3.2052464 0.078147531 0 0 0 0 74.659958
-3.5929115 -3.217701 0.22511531 0 0 0 0 74.664902
-3.0173273 -3.0351472 -0.19161774 0 0 0 0 74.669846
-3.1168811 -3.058408 -0.051917184 0 0 0 0 74.674805
-3.2062738 -3.0736053 0.077999674 0 0 0 0 74.679749
-3.2937179 -3.0879076 0.21394946 0 0 0 0 74.684692
-2.8421612 -3.0037007 -0.18043755 0 0 0 0 74.689636
-2.9366088 -3.0209162 -0.046599384 0 0 0 0 74.69458
