# .PCD v0.7 - Point Cloud Data file format
VERSION 0.7
FIELDS x y z normal_x normal_y normal_z intensity curvature
SIZE 4 4 4 4 4 4 4 4
TYPE F F F F F F F F
COUNT 1 1 1 1 1 1 1 1
WIDTH 940
HEIGHT 1
VIEWPOINT 0 0 0 1 0 0 0
POINTS 940
DATA ascii
-1.9183557 -4.405201 -0.15634677 0 0 0 0 44.629532
-1.4981775 -4.2883382 -0.36049384 0 0 0 0 44.634476
-1.5833573 -4.2834816 -0.28468549 0 0 0 0 44.639427
-1.6833686 -4.3326769 -0.22185601 0 0 0 0 44.644371
-1.7864128 -4.3708787 -0.15704499 0 0 0 0 44.649323
-1.4020324 -4.3371005 -0.35618696 0 0 0 0 44.654266
-1.4802667 -4.3102274 -0.28138557 0 0 0 0 44.65921
-1.5614018 -4.3103757 -0.21956334 0 0 0 0 44.664162
-1.6515038 -4.3235469 -0.15774858 0 0 0 0 44.669106
-1.2989428 -4.3658423 -0.34988353 0 0 0 0 44.674057
-1.3731962 -4.3299613 -0.27708256 0 0 0 0 44.679001
-1.4583071 -4.3361239 -0.21926357 0 0 0 0 44.683952
-1.5335128 -4.3072591 -0.15945806 0 0 0 0 44.688896
-1.1997967 -4.4155941 -0.34456643 0 0 0 0 44.69384
-1.2929081 -4.4277701 -0.27975976 0 0 0 0 44.698792
-1.3383561 -4.3078251 -0.2169795 0 0 0 0 44.703735
-1.4383624 -4.3510308 -0.16315722 0 0 0 0 44.708687
-1.2570704 -4.4036317 -0.22065558 0 0 0 0 44.723526
-1.3412116 -4.3937979 -0.16785169 0 0 0 0 44.72847
-1.2440526 -4.4395638 -0.17254187 0 0 0 0 44.74826
-0.038652234 -4.772613 -0.28903285 0 0 0 0 44.911514
-0.13101099 -4.6668186 -0.25235203 0 0 0 0 44.916458
-0.023668177 -4.7805471 -0.25693423 0 0 0 0 44.936249
-0.10996321 -4.6857533 -0.23522823 0 0 0 0 44.941193
-0.0017043723 -4.7674785 -0.23984098 0 0 0 0 44.960983
-0.091956459 -4.6847014 -0.22313251 0 0 0 0 44.965927
1.5411568 -4.3823338 -0.18557347 0 0 0 0 44.961792
1.6380538 -4.338068 -0.17933829 0 0 0 0 44.981583
1.7007228 -4.2118874 -0.16927104 0 0 0 0 45.001373
1.6551454 -4.3340492 -0.20723765 0 0 0 0 45.006317
1.5015247 -4.3975449 -0.28951257 0 0 0 0 45.016212
1.7188264 -4.2098689 -0.20016567 0 0 0 0 45.026108
2.1191709 -4.2408438 -0.25794575 0 0 0 0 45.110207
1.9840472 -4.1472602 -0.30835983 0 0 0 0 45.11515
2.1879194 -4.1386514 -0.25583532 0 0 0 0 45.12999
2.089011 -4.117979 -0.31408411 0 0 0 0 45.134941
2.2767687 -4.0724058 -0.25563708 0 0 0 0 45.14978
2.1286108 -3.962863 -0.3101016 0 0 0 0 45.154724
2.4775908 -4.053793 -0.19412792 0 0 0 0 45.164619
2.3736732 -4.0251403 -0.25739813 0 0 0 0 45.169571
2.2395947 -3.9405656 -0.31680235 0 0 0 0 45.174515
2.721508 -4.0740571 -0.12847039 0 0 0 0 45.179459
2.5704527 -3.9945323 -0.19191051 0 0 0 0 45.18441
2.4203329 -3.8930032 -0.25337255 0 0 0 0 45.189354
2.3546026 -3.9262569 -0.32448363 0 0 0 0 45.194305
2.7992921 -3.9898312 -0.12231518 0 0 0 0 45.199249
2.6733625 -3.9522448 -0.19064949 0 0 0 0 45.204193
2.5383279 -3.877681 -0.25704634 0 0 0 0 45.209145
2.4605515 -3.8919699 -0.33020759 0 0 0 0 45.214088
2.5816596 -3.5094848 -0.10300481 0 0 0 0 44.967041
2.714695 -3.8232191 -0.18534233 0 0 0 0 44.971992
2.6539733 -3.8574595 -0.26143718 0 0 0 0 44.976936
2.5731826 -3.8647542 -0.33860856 0 0 0 0 44.98188
2.6033113 -3.376411 -0.095039628 0 0 0 0 44.986832
2.578712 -3.4605515 -0.16699582 0 0 0 0 44.991776
2.7508707 -3.8071964 -0.26320344 0 0 0 0 44.996727
2.6911769 -3.8444428 -0.34729293 0 0 0 0 45.001671
2.6510694 -3.2822695 -0.088970967 0 0 0 0 45.006622
2.6385047 -3.3763814 -0.16388772 0 0 0 0 45.011566
2.5797546 -3.4006164 -0.23898928 0 0 0 0 45.01651
2.7057469 -3.6783895 -0.3413789 0 0 0 0 45.021461
2.7349567 -3.2350335 -0.084765702 0 0 0 0 45.026405
2.6862597 -3.2792418 -0.159822 0 0 0 0 45.031357
2.6706574 -3.3533685 -0.24076717 0 0 0 0 45.036301
2.5998852 -3.3656402 -0.31991062 0 0 0 0 45.041245
2.8108115 -3.175818 -0.080591813 0 0 0 0 45.046196
2.7560956 -3.2110445 -0.15767227 0 0 0 0 45.05114
2.7334616 -3.2721915 -0.23964806 0 0 0 0 45.056091
2.6707184 -3.2914464 -0.32276505 0 0 0 0 45.061035
2.91274 -3.143533 -0.077325873 0 0 0 0 45.065987
2.8409839 -3.1608088 -0.15746665 0 0 0 0 45.07093
2.7762122 -3.1720665 -0.23759721 0 0 0 0 45.075874
2.7596197 -3.2412057 -0.3275499 0 0 0 0 45.080826
3.0256975 -3.1222177 -0.074020706 0 0 0 0 45.08577
2.9679916 -3.1534615 -0.15911283 0 0 0 0 45.090721
2.8731394 -3.1328022 -0.24135035 0 0 0 0 45.095665
2.7953455 -3.1311004 -0.32652658 0 0 0 0 45.100609
3.163708 -3.1198347 -0.07163363 0 0 0 0 45.10556
3.0568764 -3.1032119 -0.15789594 0 0 0 0 45.110504
2.9881115 -3.1094894 -0.24604188 0 0 0 0 45.115456
3.4189475 -3.6524942 -0.39740297 0 0 0 0 45.120399
3.2495687 -3.0635884 -0.067429297 0 0 0 0 45.125343
3.177846 -3.0818782 -0.15956953 0 0 0 0 45.130295
3.1381738 -3.1170843 -0.25361407 0 0 0 0 45.135239
3.3864052 -3.4505594 -0.38763985 0 0 0 0 45.14019
3.3634984 -3.0322669 -0.064129375 0 0 0 0 45.145134
3.2917805 -3.0485611 -0.16027196 0 0 0 0 45.150085
3.2420921 -3.0747979 -0.2573505 0 0 0 0 45.155029
3.3157761 -3.2217221 -0.3729994 0 0 0 0 45.159973
3.4874413 -3.0059168 -0.060798705 0 0 0 0 45.164925
3.4187415 -3.024209 -0.16193202 0 0 0 0 45.169868
3.3510072 -3.0314968 -0.26107499 0 0 0 0 45.17482
3.2883072 -3.0467768 -0.36519727 0 0 0 0 45.179764
3.6163757 -2.976552 -0.057457995 0 0 0 0 45.184708
3.5386672 -2.9878733 -0.16262095 0 0 0 0 45.189659
3.4869859 -3.0091248 -0.26770991 0 0 0 0 45.194603
3.4192829 -3.0194228 -0.3758499 0 0 0 0 45.199554
3.7392855 -2.9382021 -0.054140486 0 0 0 0 45.204498
3.6726196 -2.9604998 -0.16426487 0 0 0 0 45.209442
3.6049082 -2.9677978 -0.27240819 0 0 0 0 45.214394
3.550245 -2.9880664 -0.38550574 0 0 0 0 45.219337
3.8762214 -2.9088142 -0.051777866 0 0 0 0 45.224289
3.8055522 -2.9261274 -0.16591761 0 0 0 0 45.229233
3.7388594 -2.9354284 -0.27905643 0 0 0 0 45.234184
3.6771874 -2.9487207 -0.39617881 0 0 0 0 45.239128
4.0101304 -2.8704321 -0.048431166 0 0 0 0 45.244072
3.9364715 -2.886759 -0.16757949 0 0 0 0 45.249023
3.8788049 -2.9010415 -0.28569096 0 0 0 0 45.253967
3.8211594 -2.9193287 -0.40779814 0 0 0 0 45.258919
4.1640682 -2.8419948 -0.046023205 0 0 0 0 45.263863
4.0784006 -2.8503604 -0.17020991 0 0 0 0 45.268806
4.0277605 -2.8696296 -0.29329875 0 0 0 0 45.273758
3.9621067 -2.8809433 -0.41943339 0 0 0 0 45.278702
4.2147999 -2.7408347 -0.040947095 0 0 0 0 45.283653
4.9246793 -3.2770724 -0.20459951 0 0 0 0 45.288597
4.8540859 -3.2904232 -0.35274306 0 0 0 0 45.293549
4.1120529 -2.8415329 -0.43204623 0 0 0 0 45.298492
5.1861339 -3.2101729 -0.049977273 0 0 0 0 45.303436
5.107585 -3.2315552 -0.20713168 0 0 0 0 45.308388
5.0370102 -3.2449141 -0.36227533 0 0 0 0 45.313332
4.3872471 -2.8797934 -0.45826346 0 0 0 0 45.318283
5.3720131 -3.1606383 -0.04650462 0 0 0 0 45.323227
5.3014932 -3.186007 -0.21063499 0 0 0 0 45.328171
5.1167173 -3.1286762 -0.36313868 0 0 0 0 45.333122
4.3567963 -2.7138526 -0.45145789 0 0 0 0 45.338066
5.5628777 -3.1060884 -0.043023411 0 0 0 0 45.343018
5.4933815 -3.1334622 -0.21414919 0 0 0 0 45.347961
5.0181122 -2.9109137 -0.35155505 0 0 0 0 45.352905
4.3934875 -2.5927367 -0.45243749 0 0 0 0 45.357857
5.7727585 -3.0574839 -0.039486781 0 0 0 0 45.362801
5.6892529 -3.0749044 -0.21765833 0 0 0 0 45.367752
4.8844724 -2.6832466 -0.33807114 0 0 0 0 45.372696
4.3340096 -2.4208729 -0.44271201 0 0 0 0 45.377647
5.9816074 -2.9978802 -0.035962824 0 0 0 0 45.382591
5.8089929 -2.9715517 -0.21840441 0 0 0 0 45.387535
4.8550339 -2.5223019 -0.33225664 0 0 0 0 45.392487
4.3256416 -2.2838755 -0.43882212 0 0 0 0 45.39743
6.2034593 -2.9382396 -0.033404607 0 0 0 0 45.402382
5.5992455 -2.7050929 -0.20615081 0 0 0 0 45.407326
4.8977165 -2.4001648 -0.33222044 0 0 0 0 45.41227
4.283226 -2.1329689 -0.43203312 0 0 0 0 45.417221
6.4553208 -2.8835125 -0.02976403 0 0 0 0 45.422165
5.5878053 -2.5430958 -0.20128965 0 0 0 0 45.427116
4.9003458 -2.262135 -0.32930189 0 0 0 0 45.43206
4.2618527 -1.9960066 -0.42717713 0 0 0 0 45.437004
6.682004 -2.8080306 -0.027665017 0 0 0 0 45.31929
5.5672479 -2.380265 -0.19787107 0 0 0 0 45.324242
4.8497963 -2.1023648 -0.32393345 0 0 0 0 45.329185
4.2213588 -1.8551911 -0.42174387 0 0 0 0 45.334137
4.1176972 -1.6240126 -0.0052369591 0 0 0 0 45.339081
4.384429 -1.7594343 -0.1484137 0 0 0 0 45.344025
4.4248886 -1.7964764 -0.29125828 0 0 0 0 45.348976
4.190001 -1.7232562 -0.41690642 0 0 0 0 45.35392
4.0002918 -1.4753156 -0.0016324918 0 0 0 0 45.358871
4.2619796 -1.5977457 -0.14083458 0 0 0 0 45.363815
4.7539763 -1.8025774 -0.31237355 0 0 0 0 45.368759
4.189693 -1.6072395 -0.4149752 0 0 0 0 45.373711
3.9649911 -1.3633955 0.00021474241 0 0 0 0 45.378654
3.9003026 -1.3617094 -0.12593415 0 0 0 0 45.383606
3.8986559 -1.3758487 -0.25090891 0 0 0 0 45.38855
4.0151739 -1.4316838 -0.39554361 0 0 0 0 45.393501
3.9927502 -1.2743003 0.0032434547 0 0 0 0 45.398445
5.2313619 -1.6940726 -0.17319319 0 0 0 0 45.403389
4.6882405 -1.532712 -0.30370983 0 0 0 0 45.40834
4.1300249 -1.3623636 -0.40627551 0 0 0 0 45.413284
4.0485325 -1.1931285 0.0053508012 0 0 0 0 45.418236
4.0439124 -1.209285 -0.12762906 0 0 0 0 45.42318
4.5517802 -1.3710595 -0.29316762 0 0 0 0 45.428123
4.1377459 -1.2573259 -0.4053137 0 0 0 0 45.433075
4.1333356 -1.1188767 0.0065386244 0 0 0 0 45.438019
4.1267099 -1.1310412 -0.12845057 0 0 0 0 45.44297
4.6545615 -1.2827623 -0.29794726 0 0 0 0 45.447914
4.0854034 -1.1344494 -0.39952242 0 0 0 0 45.452866
5.3353925 -1.3307173 -0.17114046 0 0 0 0 45.462753
4.634234 -1.1617985 -0.29607126 0 0 0 0 45.467705
4.0701065 -1.0254737 -0.39662376 0 0 0 0 45.472649
5.298017 -1.194795 -0.16732055 0 0 0 0 45.482544
4.6079025 -1.0408505 -0.29321098 0 0 0 0 45.487488
4.0498137 -0.91851199 -0.39373598 0 0 0 0 45.492439
6.2387428 -1.2479635 0.0071548969 0 0 0 0 45.497383
5.2556486 -1.0608883 -0.16451189 0 0 0 0 45.502335
4.5765762 -0.92291564 -0.28936067 0 0 0 0 45.507278
4.0385356 -0.81552762 -0.39282173 0 0 0 0 45.512222
4.3203788 -0.76628262 0.013850227 0 0 0 0 45.517174
4.3497686 -0.77435845 -0.13105267 0 0 0 0 45.522118
4.528245 -0.80402863 -0.28555509 0 0 0 0 45.527069
5.6616988 -0.87351602 0.013417499 0 0 0 0 45.536964
5.2239542 -0.80792969 -0.16074674 0 0 0 0 45.541908
5.161593 -0.67807996 -0.15798672 0 0 0 0 45.561699
5.1432581 -0.55710828 -0.15610614 0 0 0 0 45.581482
5.1159191 -0.43516213 -0.15425017 0 0 0 0 45.601273
5.9243374 -0.38067439 0.018795002 0 0 0 0 45.616112
5.0655842 -0.31528112 -0.15245126 0 0 0 0 45.621063
5.9029641 -0.24770726 0.020656791 0 0 0 0 45.635902
5.0322537 -0.19735259 -0.15060771 0 0 0 0 45.640846
5.1165504 -0.10190424 0.021546779 0 0 0 0 45.655685
5.0139365 -0.083382994 -0.14972204 0 0 0 0 45.660637
5.772234 0.012974651 0.02215863 0 0 0 0 45.675476
4.9616179 0.029491095 -0.14792293 0 0 0 0 45.680428
5.7798734 0.14102197 0.023097873 0 0 0 0 45.695267
4.9443059 0.14146185 -0.14803386 0 0 0 0 45.700211
5.7395172 0.26793164 0.022914488 0 0 0 0 45.71505
4.9039855 0.25436923 -0.14620565 0 0 0 0 45.720001
5.7021623 0.39285061 0.023740234 0 0 0 0 45.73484
4.8836741 0.36533096 -0.14632447 0 0 0 0 45.739784
4.8433709 0.47223654 -0.14549096 0 0 0 0 45.759575
4.7890668 0.57810277 -0.14369333 0 0 0 0 45.779366
5.5791593 0.76018459 0.024832232 0 0 0 0 46.320961
4.7418385 0.68247938 -0.1413455 0 0 0 0 46.325905
5.5078125 0.87599355 0.024561193 0 0 0 0 46.340744
4.7095265 0.78740102 -0.14150108 0 0 0 0 46.345695
5.4344773 0.98779583 0.024288349 0 0 0 0 46.360535
4.6792064 0.89432842 -0.14165436 0 0 0 0 46.365479
5.397119 1.1067059 0.02410453 0 0 0 0 46.380325
4.639895 0.99722946 -0.14082816 0 0 0 0 46.385269
4.0414748 0.91128594 -0.25935462 0 0 0 0 46.390221
3.5699446 0.84474701 -0.35855713 0 0 0 0 46.395164
5.3487744 1.2215811 0.022894494 0 0 0 0 46.400108
4.5866003 1.0950867 -0.14103518 0 0 0 0 46.40506
4.0071964 1.0031985 -0.25850523 0 0 0 0 46.410004
3.5386941 0.92666727 -0.35668981 0 0 0 0 46.414955
5.2974348 1.3344469 0.021677719 0 0 0 0 46.419899
4.5522895 1.1980008 -0.14119689 0 0 0 0 46.424843
3.9819167 1.0961368 -0.25863296 0 0 0 0 46.429794
3.5134397 1.011603 -0.35681018 0 0 0 0 46.434738
5.2730761 1.4533938 0.020527117 0 0 0 0 46.43969
3.9324312 1.1301653 -0.11976995 0 0 0 0 46.444633
3.1032424 0.93155974 -0.19780762 0 0 0 0 46.449577
2.7896419 0.87451071 -0.28059331 0 0 0 0 46.454529
4.1187305 1.2339116 0.020660277 0 0 0 0 46.459473
3.4895127 1.0888529 -0.10489186 0 0 0 0 46.464424
2.9761071 0.97019178 -0.19115674 0 0 0 0 46.469368
2.6874988 0.91322052 -0.27087504 0 0 0 0 46.474319
3.998548 1.2945607 0.01930809 0 0 0 0 46.479263
3.4313009 1.1576893 -0.10408539 0 0 0 0 46.484207
2.9688864 1.0441784 -0.19221769 0 0 0 0 46.489159
2.7332489 1.0033584 -0.27881005 0 0 0 0 46.494102
5.0970869 1.7789196 0.016823478 0 0 0 0 46.499054
4.4170508 1.6066577 -0.14384188 0 0 0 0 46.503998
3.8737912 1.4678648 -0.2601693 0 0 0 0 46.508942
3.4104216 1.3473382 -0.35629809 0 0 0 0 46.513893
5.0287752 1.8817297 0.014566979 0 0 0 0 46.518837
4.3697557 1.7025305 -0.14403482 0 0 0 0 46.523788
3.8395128 1.5587741 -0.26032266 0 0 0 0 46.528732
3.3821685 1.4302635 -0.35642725 0 0 0 0 46.533676
5.0044069 2.0016747 0.013411023 0 0 0 0 46.538628
4.3374448 1.8044474 -0.1451942 0 0 0 0 46.543571
3.8132243 1.6527077 -0.26045808 0 0 0 0 46.548523
3.3529088 1.5141866 -0.35556102 0 0 0 0 46.553467
4.9470868 2.1065173 0.011180767 0 0 0 0 46.558418
4.3091202 1.9103763 -0.14634801 0 0 0 0 46.563362
3.7719536 1.7405951 -0.26062864 0 0 0 0 46.568306
3.3136637 1.5930789 -0.35471714 0 0 0 0 46.573257
4.8987503 2.2163866 0.0089685153 0 0 0 0 46.578201
4.2528348 2.0022202 -0.14656356 0 0 0 0 46.583153
3.7346756 1.8304942 -0.26079121 0 0 0 0 46.588097
3.2854054 1.6770031 -0.35484937 0 0 0 0 46.59304
4.8613939 2.3322897 0.006778785 0 0 0 0 46.597992
4.2095299 2.1011021 -0.14775227 0 0 0 0 46.602936
3.7123747 1.9294368 -0.26292354 0 0 0 0 46.607887
3.267133 1.7669555 -0.35696155 0 0 0 0 46.612831
4.8310275 2.4512136 0.0046041645 0 0 0 0 46.617783
4.1931806 2.2150657 -0.14988449 0 0 0 0 46.622726
3.6680982 2.0173149 -0.26210469 0 0 0 0 46.62767
3.2328699 1.8518606 -0.357113 0 0 0 0 46.632622
4.7786903 2.5610681 0.0013781036 0 0 0 0 46.637566
4.1538668 2.316958 -0.15206714 0 0 0 0 46.642517
3.619833 2.1021791 -0.26229411 0 0 0 0 46.647461
3.2026026 1.937778 -0.3572551 0 0 0 0 46.652405
4.7293434 2.6729326 -0.00084291049 0 0 0 0 46.657356
4.1045618 2.4148202 -0.15327379 0 0 0 0 46.6623
3.6075039 2.2101502 -0.26541138 0 0 0 0 46.667252
3.1723373 2.0236936 -0.35839784 0 0 0 0 46.672195
4.6700168 2.7787645 -0.0040856269 0 0 0 0 46.677139
4.0482683 2.5086603 -0.15449607 0 0 0 0 46.682091
3.5502465 2.290987 -0.26462272 0 0 0 0 46.687035
3.1380653 2.1105981 -0.35855371 0 0 0 0 46.691986
4.634645 2.8986702 -0.0072789006 0 0 0 0 46.69693
3.9929738 2.6025031 -0.15571646 0 0 0 0 46.701881
3.5149472 2.386889 -0.26579136 0 0 0 0 46.706825
3.1147795 2.2035334 -0.36068657 0 0 0 0 46.711769
4.5493593 2.9904203 -0.010579673 0 0 0 0 46.716721
3.9606345 2.7114153 -0.15789129 0 0 0 0 46.721664
3.4716625 2.4777656 -0.26697713 0 0 0 0 46.726616
3.0765085 2.2894247 -0.36085382 0 0 0 0 46.73156
3.9173036 2.8172929 -0.16009428 0 0 0 0 46.741455
3.4293742 2.5696447 -0.26816216 0 0 0 0 46.746399
3.0422275 2.3793268 -0.3620154 0 0 0 0 46.75135
3.8570092 2.9111173 -0.16233148 0 0 0 0 46.761238
3.3810847 2.6605062 -0.26836368 0 0 0 0 46.76619
2.991977 2.457181 -0.3612082 0 0 0 0 46.771133
4.4192381 3.3500566 -0.021235555 0 0 0 0 46.776085
4.0271788 3.1866472 -0.17513773 0 0 0 0 46.781029
2.8968248 2.4979019 -0.3544839 0 0 0 0 46.790924
4.1086612 3.2628753 -0.022688495 0 0 0 0 46.505249
3.8453002 3.1878946 -0.17231743 0 0 0 0 46.510201
2.8945508 2.5049183 -0.23612237 0 0 0 0 46.515144
2.8546393 2.5836546 -0.35531753 0 0 0 0 46.520088
3.7929857 3.1529262 -0.023383744 0 0 0 0 46.52504
2.9351168 2.5491779 -0.13002893 0 0 0 0 46.529984
2.8353405 2.5717463 -0.236323 0 0 0 0 46.534935
2.9021466 2.7547932 -0.3683477 0 0 0 0 46.539879
3.576102 3.1122751 -0.024890432 0 0 0 0 46.54483
2.8420007 2.5839038 -0.12928541 0 0 0 0 46.549774
2.7970681 2.659637 -0.23749161 0 0 0 0 46.554718
2.8458958 2.833631 -0.36755559 0 0 0 0 46.559669
3.3951631 3.0907309 -0.027322035 0 0 0 0 46.564613
2.7987485 2.6657777 -0.13146088 0 0 0 0 46.569565
2.7538066 2.7435119 -0.23867002 0 0 0 0 46.574509
2.790638 2.9144716 -0.36676398 0 0 0 0 46.579453
3.2182367 3.0641983 -0.028738098 0 0 0 0 46.584404
2.7654674 2.7576809 -0.13462141 0 0 0 0 46.589348
2.7334669 2.8554533 -0.24281912 0 0 0 0 46.594299
2.6326818 2.8840125 -0.3521255 0 0 0 0 46.599243
3.1081347 3.0968671 -0.032040652 0 0 0 0 46.604195
2.7630799 2.8856764 -0.13973992 0 0 0 0 46.609138
2.7031479 2.9593644 -0.24598704 0 0 0 0 46.614082
2.4837253 2.854578 -0.3384645 0 0 0 0 46.619034
2.7327628 2.9885881 -0.14290679 0 0 0 0 46.628929
2.4734662 2.8376849 -0.2294407 0 0 0 0 46.633873
2.3258252 2.8051171 -0.32280561 0 0 0 0 46.638817
2.7084138 3.1025169 -0.147071 0 0 0 0 46.648712
2.3664174 2.8463671 -0.22471026 0 0 0 0 46.653664
2.2008376 2.7877514 -0.3110947 0 0 0 0 46.658607
2.6800637 3.2164326 -0.15124714 0 0 0 0 46.668503
2.280303 2.8781109 -0.22195014 0 0 0 0 46.673447
2.0978026 2.7894475 -0.3033464 0 0 0 0 46.678398
2.6516964 3.3363473 -0.15643138 0 0 0 0 46.688293
2.636524 3.493165 -0.26865593 0 0 0 0 46.693237
2.0007486 2.7981603 -0.29659086 0 0 0 0 46.698181
2.6863086 3.3605936 -0.048331283 0 0 0 0 46.703133
2.6282909 3.4682767 -0.16161704 0 0 0 0 46.708076
2.7668681 4.0495467 -0.30188599 0 0 0 0 46.732811
3.7627816 5.1759071 -0.095423371 0 0 0 0 46.742706
2.7114742 4.1753778 -0.30615649 0 0 0 0 46.752602
2.3895516 3.9052708 -0.39172873 0 0 0 0 46.757545
3.027797 4.6304808 -0.2177864 0 0 0 0 46.767441
2.6540699 4.3042026 -0.31043744 0 0 0 0 46.772392
2.3351614 4.0291042 -0.3949962 0 0 0 0 46.777336
3.0579054 4.9235682 -0.23202023 0 0 0 0 46.787231
2.6105759 4.4630671 -0.31671688 0 0 0 0 46.792175
2.2727952 4.1449118 -0.39827752 0 0 0 0 46.797127
3.1631603 5.0410638 -0.10383373 0 0 0 0 46.802071
2.929738 4.9711771 -0.23240337 0 0 0 0 46.807014
2.6754694 4.8322515 -0.33894771 0 0 0 0 46.811966
2.2123873 4.2737246 -0.40157038 0 0 0 0 46.81691
2.8075571 5.0248013 -0.2347783 0 0 0 0 46.826805
2.5254517 4.8267965 -0.33333036 0 0 0 0 46.831757
2.314009 4.7430043 -0.43882215 0 0 0 0 46.8367
2.8053889 4.9599562 -0.10967404 0 0 0 0 46.841644
2.6386347 4.9902849 -0.23117937 0 0 0 0 46.846596
2.4231811 4.9074826 -0.33368447 0 0 0 0 46.85154
2.1511176 4.688518 -0.4231835 0 0 0 0 46.856491
2.638499 4.9214368 -0.1130648 0 0 0 0 46.861435
2.4468949 4.8966956 -0.22657418 0 0 0 0 46.866379
2.2891023 4.9230728 -0.33005038 0 0 0 0 46.87133
2.0538383 4.7712188 -0.42252824 0 0 0 0 46.876274
2.4815683 4.8959475 -0.1164447 0 0 0 0 46.881226
2.2780588 4.8341765 -0.22194341 0 0 0 0 46.886169
2.1093502 4.8275266 -0.31841096 0 0 0 0 46.891113
1.9485936 4.8408957 -0.41988096 0 0 0 0 46.896065
2.3326254 4.8744807 -0.11980812 0 0 0 0 46.901009
2.1261463 4.7987061 -0.22029902 0 0 0 0 46.90596
1.9505069 4.7630429 -0.3087514 0 0 0 0 46.910904
1.7917521 4.7714224 -0.40521044 0 0 0 0 46.915855
2.1866889 4.8510227 -0.12316182 0 0 0 0 46.920799
1.9911584 4.7882857 -0.21963845 0 0 0 0 46.925743
1.8095683 4.7326088 -0.30308405 0 0 0 0 46.930695
1.6369271 4.6959562 -0.38952798 0 0 0 0 46.935638
1.8561797 4.7748642 -0.21897544 0 0 0 0 46.945534
1.6775918 4.7142019 -0.29740712 0 0 0 0 46.950478
1.5039841 4.6635499 -0.3798373 0 0 0 0 46.955429
1.72123 4.7514429 -0.21730116 0 0 0 0 46.965324
1.5476183 4.6957989 -0.29272565 0 0 0 0 46.970268
1.3760222 4.6371584 -0.37014094 0 0 0 0 46.975212
1.4297767 4.7044148 -0.28945884 0 0 0 0 46.743065
1.2561954 4.6347847 -0.36285773 0 0 0 0 46.748009
1.4351943 8.3664284 -0.31674004 0 0 0 0 46.891472
1.2342558 8.3427868 -0.32526264 0 0 0 0 46.911263
0.96834457 8.3938351 -0.41608581 0 0 0 0 46.916206
0.69984567 8.2958984 -0.48673168 0 0 0 0 46.92115
0.41144773 7.8299236 -0.53597736 0 0 0 0 46.926102
1.0558077 8.4862061 -0.33993036 0 0 0 0 46.931046
0.77130407 8.3972082 -0.41863436 0 0 0 0 46.935997
0.49619529 8.1632662 -0.47513124 0 0 0 0 46.940941
0.19216046 6.5553432 -0.43699887 0 0 0 0 46.945892
0.8499456 8.4365454 -0.34643874 0 0 0 0 46.950836
0.56370836 8.2535534 -0.41403198 0 0 0 0 46.95578
0.26819265 7.1466165 -0.41049922 0 0 0 0 46.960732
0.038119178 6.5528603 -0.42941767 0 0 0 0 46.965675
0.64044297 8.2698774 -0.34881341 0 0 0 0 46.970627
0.34169894 7.5848842 -0.38181683 0 0 0 0 46.975571
0.096000835 6.8640895 -0.39062181 0 0 0 0 46.980515
-0.17127348 9.6929474 -0.63692862 0 0 0 0 46.985466
0.42465252 7.8681998 -0.33891383 0 0 0 0 46.99041
0.15692146 7.1713171 -0.36181265 0 0 0 0 46.995361
-0.089671634 9.7402954 -0.56173903 0 0 0 0 47.000305
-0.39069247 9.4732742 -0.61127436 0 0 0 0 47.005257
0.22895831 7.4365859 -0.32791901 0 0 0 0 47.010201
-0.017264921 9.8715849 -0.51168096 0 0 0 0 47.015144
-0.31339681 9.6315889 -0.55223668 0 0 0 0 47.020096
-0.595011 9.2226467 -0.58553886 0 0 0 0 47.02504
0.071303308 9.9489288 -0.45850798 0 0 0 0 47.029991
-0.24174668 9.6898689 -0.50608981 0 0 0 0 47.034935
-0.5224874 9.3129416 -0.53042996 0 0 0 0 47.039879
-0.78314507 8.9120722 -0.55668193 0 0 0 0 47.04483
-0.15513943 9.763196 -0.46191782 0 0 0 0 47.049774
-0.45482954 9.3771973 -0.49330235 0 0 0 0 47.054726
-0.71873564 9.0483274 -0.51265466 0 0 0 0 47.059669
-0.96748471 8.6705046 -0.5319016 0 0 0 0 47.064613
-0.37126273 9.4725008 -0.45916703 0 0 0 0 47.069565
-0.65615004 9.1435547 -0.48458105 0 0 0 0 47.074509
-0.91321909 8.862711 -0.4999747 0 0 0 0 47.07946
-1.5397103 11.377474 -0.69497085 0 0 0 0 47.084404
-0.58162051 9.2588196 -0.45949754 0 0 0 0 47.089355
-0.84948766 8.9169359 -0.4768464 0 0 0 0 47.094299
-1.4593065 11.515771 -0.65490562 0 0 0 0 47.099243
-1.7802037 11.182716 -0.6724233 0 0 0 0 47.104195
-0.7810086 9.0561686 -0.46081114 0 0 0 0 47.109138
-1.3724277 11.519072 -0.62965071 0 0 0 0 47.11409
-1.6884261 11.207047 -0.63518125 0 0 0 0 47.119034
-1.4870179 8.1258745 -0.47469553 0 0 0 0 47.123978
-1.2726473 11.558407 -0.61040294 0 0 0 0 47.128929
-1.6117424 11.283298 -0.62304866 0 0 0 0 47.133873
-1.9239298 11.02529 -0.62263745 0 0 0 0 47.138824
-1.6576766 7.9953308 -0.46001947 0 0 0 0 47.143768
-1.5261737 11.401568 -0.61794281 0 0 0 0 47.148712
-1.8511872 11.091516 -0.61950421 0 0 0 0 47.153664
-1.6060529 8.095499 -0.44998589 0 0 0 0 47.158607
-1.8405799 7.9457397 -0.45048326 0 0 0 0 47.163559
-1.7624236 11.15379 -0.61931837 0 0 0 0 47.168503
-1.5501565 8.121665 -0.45184585 0 0 0 0 47.173454
-1.7635216 7.9089918 -0.43820161 0 0 0 0 47.178398
-2.0771394 8.1109591 -0.45337957 0 0 0 0 47.183342
-1.4863167 8.1708517 -0.45971131 0 0 0 0 47.188293
-1.7025036 7.9021683 -0.44500467 0 0 0 0 47.193237
-1.9960315 8.0642157 -0.44707397 0 0 0 0 47.198189
-4.4032822 15.652931 -0.8848263 0 0 0 0 47.203133
-1.649911 7.9982543 -0.46092144 0 0 0 0 47.279793
-1.9250066 8.0213604 -0.457766 0 0 0 0 47.284737
-4.2786736 15.686198 -0.89257193 0 0 0 0 47.289688
-4.7753892 15.568609 -0.86690348 0 0 0 0 47.294632
-1.8428282 7.9715981 -0.47145018 0 0 0 0 47.299583
-4.1646466 15.697497 -0.93125921 0 0 0 0 47.304527
-4.6484585 15.592972 -0.88757056 0 0 0 0 47.309471
-5.1412201 15.479407 -0.85089803 0 0 0 0 47.314423
-4.0478148 15.779792 -0.98202837 0 0 0 0 47.319366
-4.5394607 15.625237 -0.93930048 0 0 0 0 47.324318
-5.0202818 15.512734 -0.88359529 0 0 0 0 47.329262
-5.5090165 15.378198 -0.83288646 0 0 0 0 47.334213
-4.4043746 15.637578 -0.99892622 0 0 0 0 47.339157
-4.9142184 15.534975 -0.94632196 0 0 0 0 47.344101
-5.3860397 15.412513 -0.87957954 0 0 0 0 47.349052
-3.5621252 9.2659311 -0.48522705 0 0 0 0 47.353996
-4.7891712 15.573263 -1.0210118 0 0 0 0 47.358948
-5.284976 15.446719 -0.95533746 0 0 0 0 47.363892
-3.4981821 9.3080759 -0.52209044 0 0 0 0 47.368835
-3.7880225 9.2131805 -0.47583643 0 0 0 0 47.373787
-5.1598463 15.469992 -1.0410085 0 0 0 0 47.378731
-5.6586857 15.342453 -0.96234465 0 0 0 0 47.383682
-3.7190025 9.2383308 -0.51966327 0 0 0 0 47.388626
-5.0905609 11.607745 -0.59783447 0 0 0 0 47.393578
-5.5436254 15.40167 -1.0640931 0 0 0 0 47.398521
-3.6558688 9.2434416 -0.57948148 0 0 0 0 47.403465
-3.9166312 9.1066647 -0.51308841 0 0 0 0 47.408417
-5.4025731 11.586701 -0.58875787 0 0 0 0 47.413361
-3.5847597 9.263567 -0.64729476 0 0 0 0 47.418312
-3.8776503 9.1686811 -0.58405316 0 0 0 0 47.423256
-5.3094125 11.593886 -0.66249782 0 0 0 0 47.4282
-5.7296181 11.575604 -0.57974243 0 0 0 0 47.433151
-3.7984443 9.1658239 -0.65881276 0 0 0 0 47.438095
-5.226141 11.586012 -0.75624752 0 0 0 0 47.443047
-5.6374531 11.59177 -0.66449785 0 0 0 0 47.44799
-6.0727453 11.59145 -0.57281363 0 0 0 0 47.452934
-5.1389227 11.606135 -0.86302096 0 0 0 0 47.457886
-5.5611815 11.594857 -0.7702837 0 0 0 0 47.46283
-5.9865537 11.60958 -0.66859061 0 0 0 0 47.467781
-5.6172814 10.151009 -0.492587 0 0 0 0 47.472725
-5.4729095 11.608968 -0.88804716 0 0 0 0 47.477676
-5.9072218 11.603662 -0.78435659 0 0 0 0 47.48262
-5.6537089 10.366726 -0.59798723 0 0 0 0 47.487564
-5.5342126 9.4742975 -0.45146924 0 0 0 0 47.492516
-5.8118896 11.609781 -0.91308916 0 0 0 0 47.497459
-5.6567988 10.49553 -0.72017449 0 0 0 0 47.502411
-5.4760423 9.503336 -0.54933947 0 0 0 0 47.507355
-5.7850394 9.400445 -0.44214436 0 0 0 0 47.512299
-5.6589437 10.657313 -0.86040235 0 0 0 0 47.51725
-5.4408836 9.5532732 -0.66630638 0 0 0 0 47.522194
-5.7208056 9.4174929 -0.5479812 0 0 0 0 47.527145
-6.0408626 9.3255749 -0.43283558 0 0 0 0 47.532089
-5.3926749 9.5992374 -0.79522848 0 0 0 0 47.537033
-5.6755247 9.4364548 -0.67087781 0 0 0 0 47.541985
-5.9766073 9.3446093 -0.54767555 0 0 0 0 47.546928
-6.3147717 9.2776403 -0.42461926 0 0 0 0 47.55188
-5.6202273 9.4624329 -0.8067528 0 0 0 0 47.556824
-5.9312816 9.3575602 -0.67856485 0 0 0 0 47.561775
-6.2464347 9.2796764 -0.54742533 0 0 0 0 47.566719
-6.5806069 9.2077293 -0.41635218 0 0 0 0 47.571663
-5.8779526 9.3825178 -0.82344532 0 0 0 0 47.576614
-6.2000575 9.2856178 -0.68730307 0 0 0 0 47.581558
-6.5142379 9.208746 -0.54816359 0 0 0 0 47.58651
-6.8494182 9.1298065 -0.40708613 0 0 0 0 47.591454
-6.1537337 9.3215389 -0.84221995 0 0 0 0 47.596397
-6.4838963 9.2346201 -0.69811708 0 0 0 0 47.601349
-6.7880344 9.1357937 -0.54891992 0 0 0 0 47.606293
-7.1362958 9.0728207 -0.39890516 0 0 0 0 47.611244
-6.4385076 9.2605238 -0.86302459 0 0 0 0 47.616188
-6.7576537 9.1586542 -0.70787024 0 0 0 0 47.62114
-7.0708499 9.0688076 -0.54971415 0 0 0 0 47.626083
-7.417119 8.9998522 -0.39068741 0 0 0 0 47.631027
-6.7172365 9.1855278 -0.8827951 0 0 0 0 47.635979
-7.0514512 9.0966158 -0.71970558 0 0 0 0 47.640923
-7.3676853 9.0097694 -0.55256438 0 0 0 0 47.645874
-7.7079315 8.9238472 -0.38249883 0 0 0 0 47.650818
-7.0019655 9.1115065 -0.9035877 0 0 0 0 47.655762
-7.3361907 9.0166063 -0.73049223 0 0 0 0 47.660713
-7.6594596 8.9317465 -0.55437702 0 0 0 0 47.665657
-7.8321376 8.6604052 -0.36655453 0 0 0 0 47.670609
-7.3027034 9.0414267 -0.92543739 0 0 0 0 47.675552
-7.6359668 8.9485426 -0.74234337 0 0 0 0 47.680496
-7.7876449 8.6682835 -0.54444474 0 0 0 0 47.685448
-7.6994791 8.1288395 -0.3374669 0 0 0 0 47.690392
-7.6034207 8.9663429 -0.9482832 0 0 0 0 47.695343
-7.7490439 8.6561251 -0.73532653 0 0 0 0 47.700287
-7.6459403 8.1237478 -0.5153107 0 0 0 0 47.705238
-7.5779643 7.6452317 -0.31247354 0 0 0 0 47.710182
-7.6783257 8.6230536 -0.9410814 0 0 0 0 47.715126
-7.5992856 8.0956182 -0.705145 0 0 0 0 47.720078
-7.5364223 7.640101 -0.4903529 0 0 0 0 47.725021
-7.4655523 7.1955919 -0.28955016 0 0 0 0 47.729973
-7.5315666 8.0615396 -0.90890604 0 0 0 0 47.734917
-7.480731 7.6000042 -0.67814207 0 0 0 0 47.739861
-7.419981 7.1814766 -0.4664039 0 0 0 0 47.744812
-7.3863049 6.7978401 -0.2687951 0 0 0 0 47.749756
-7.4006577 7.5488839 -0.88024557 0 0 0 0 48.234497
-7.3629422 7.1343145 -0.65355927 0 0 0 0 48.239449
-7.3503962 6.7876287 -0.44804657 0 0 0 0 48.244392
-7.5725513 6.6561007 -0.25958407 0 0 0 0 48.249344
-7.2901416 7.0842581 -0.85426921 0 0 0 0 48.254288
-7.3337665 6.7773905 -0.63899142 0 0 0 0 48.259239
-7.5188746 6.6269994 -0.44438419 0 0 0 0 48.264183
-7.4722862 6.270431 -0.2407472 0 0 0 0 48.269127
-7.360239 6.8169699 -0.85214359 0 0 0 0 48.274078
-7.4570727 6.5699153 -0.63711917 0 0 0 0 48.279022
-7.4216108 6.2423191 -0.42555711 0 0 0 0 48.283974
-6.2319961 4.9928045 -0.18400021 0 0 0 0 48.288918
-7.3761992 6.5058789 -0.84378248 0 0 0 0 48.293861
-7.354785 6.1782546 -0.61726499 0 0 0 0 48.298813
-6.1884012 4.9627128 -0.33982328 0 0 0 0 48.303757
-6.1620684 4.7110295 -0.17039213 0 0 0 0 48.308708
-7.2578654 6.09828 -0.81985295 0 0 0 0 48.313652
-6.1417227 4.9146237 -0.50161123 0 0 0 0 48.318604
-6.1144505 4.6749525 -0.326193 0 0 0 0 48.323547
-6.1021972 4.4472184 -0.15783961 0 0 0 0 48.328491
-6.0799928 4.8635707 -0.6753459 0 0 0 0 48.333443
-6.0727725 4.6278453 -0.4879975 0 0 0 0 48.338387
-6.0575771 4.4111304 -0.3136493 0 0 0 0 48.343338
-6.0473871 4.2013903 -0.14532673 0 0 0 0 48.348282
-6.0030122 4.566824 -0.65969127 0 0 0 0 48.353226
-5.9998622 4.3530827 -0.47438571 0 0 0 0 48.358177
-5.9471321 4.3019996 -0.64714748 0 0 0 0 48.373016
-2.3321629 -1.5128871 -0.049717791 0 0 0 0 48.857445
-2.2751925 -1.6049562 -0.23538205 0 0 0 0 48.86734
-2.2975671 -1.5919009 -0.13746904 0 0 0 0 48.872284
-2.3248863 -1.5848784 -0.049564242 0 0 0 0 48.877235
-2.3512127 -1.5768508 0.039342403 0 0 0 0 48.882179
-2.2579148 -1.6759121 -0.23619562 0 0 0 0 48.887123
-2.2792971 -1.6608534 -0.13828221 0 0 0 0 48.892075
-2.3146088 -1.6568587 -0.049400218 0 0 0 0 48.897018
-2.3379433 -1.6458213 0.038512152 0 0 0 0 48.90197
-2.2396359 -1.7468644 -0.23700538 0 0 0 0 48.906914
-2.2620223 -1.7318077 -0.13809542 0 0 0 0 48.911865
-2.2933528 -1.7227983 -0.049207259 0 0 0 0 48.916809
-2.3186877 -1.7117683 0.038698249 0 0 0 0 48.921753
-2.2213492 -1.820815 -0.23681034 0 0 0 0 48.926704
-2.2457399 -1.8037671 -0.13891014 0 0 0 0 48.931648
-2.2760708 -1.7947539 -0.050018691 0 0 0 0 48.9366
-2.3044095 -1.7837335 0.038876541 0 0 0 0 48.941544
-2.2000618 -1.8937559 -0.23760609 0 0 0 0 48.946487
-2.2294452 -1.8797247 -0.13871861 0 0 0 0 48.951439
-2.2627802 -1.8697226 -0.049838923 0 0 0 0 48.956383
-2.2851415 -1.8526801 0.039067879 0 0 0 0 48.961334
-2.179759 -1.9707 -0.23839897 0 0 0 0 48.966278
-2.2141392 -1.9576874 -0.13952713 0 0 0 0 48.97123
-2.2424965 -1.9426653 -0.049637832 0 0 0 0 48.976173
-2.2648695 -1.9216243 0.038263068 0 0 0 0 48.981117
-2.1634407 -2.0516589 -0.23919912 0 0 0 0 48.986069
-2.1958361 -2.0346389 -0.14032644 0 0 0 0 48.991013
-2.2202125 -2.0146022 -0.050430901 0 0 0 0 48.995964
-2.2535596 -2.0015998 0.038444076 0 0 0 0 49.000908
-2.1401327 -2.1295917 -0.23997934 0 0 0 0 49.005852
-2.1735356 -2.1115737 -0.14011164 0 0 0 0 49.010803
-2.2029049 -2.0925567 -0.051231794 0 0 0 0 49.015747
-2.2322745 -2.0745385 0.038649417 0 0 0 0 49.020699
-2.1197979 -2.2135367 -0.24176048 0 0 0 0 49.025642
-2.155205 -2.1955247 -0.14089978 0 0 0 0 49.030586
-2.1786079 -2.168484 -0.051011227 0 0 0 0 49.035538
-2.2119744 -2.1504819 0.037856203 0 0 0 0 49.040482
-2.0974662 -2.2974727 -0.24253429 0 0 0 0 49.045433
-2.1348772 -2.2784681 -0.14168203 0 0 0 0 49.050377
-2.1642659 -2.2554498 -0.051808253 0 0 0 0 49.055328
-2.1956472 -2.2344387 0.038061485 0 0 0 0 49.060272
-2.0800929 -2.3914282 -0.24431007 0 0 0 0 49.065216
-2.108556 -2.3593888 -0.14244612 0 0 0 0 49.070168
-2.143934 -2.3393927 -0.052588649 0 0 0 0 49.075111
-2.1773195 -2.3173892 0.037272651 0 0 0 0 49.080063
-2.0477774 -2.4713254 -0.24405436 0 0 0 0 49.085007
-2.0941675 -2.4573555 -0.14422593 0 0 0 0 49.089951
-2.1265714 -2.4313467 -0.053367093 0 0 0 0 49.094902
-2.1520021 -2.3973136 0.03650393 0 0 0 0 49.099846
-2.030369 -2.5732822 -0.24681728 0 0 0 0 49.104797
-2.0678184 -2.5452759 -0.14497866 0 0 0 0 49.109741
-2.0992377 -2.5152636 -0.054122403 0 0 0 0 49.114685
-2.1336429 -2.4882636 0.035727851 0 0 0 0 49.119637
-2.0049818 -2.6702073 -0.24855949 0 0 0 0 49.12458
-2.0444388 -2.641207 -0.14572936 0 0 0 0 49.129532
-2.0788624 -2.6102059 -0.054885045 0 0 0 0 49.134476
-2.1083014 -2.5741873 0.03496905 0 0 0 0 49.139427
-1.9774785 -2.7692075 -0.25013506 0 0 0 0 49.246582
-2.0169618 -2.7352061 -0.14631385 0 0 0 0 49.251534
-2.0523889 -2.7042084 -0.055474337 0 0 0 0 49.256477
-2.0848393 -2.6662011 0.03436511 0 0 0 0 49.261421
-1.9480677 -2.8711164 -0.25185311 0 0 0 0 49.266373
-1.994529 -2.8431413 -0.14804748 0 0 0 0 49.271317
-2.0279977 -2.8021348 -0.056216005 0 0 0 0 49.276268
-2.0614524 -2.7631311 0.033618327 0 0 0 0 49.281212
-1.9236073 -2.9850454 -0.25457004 0 0 0 0 49.286163
-1.9621364 -2.9410372 -0.14876053 0 0 0 0 49.291107
-1.9995983 -2.9020457 -0.056940176 0 0 0 0 49.296051
-2.0350609 -2.8610497 0.032884076 0 0 0 0 49.301003
-1.893153 -3.09795 -0.25626689 0 0 0 0 49.305946
-1.9346939 -3.0509531 -0.15047248 0 0 0 0 49.310898
-1.9731637 -3.0099652 -0.058658749 0 0 0 0 49.315842
-2.0066607 -2.9609601 0.032160401 0 0 0 0 49.320786
-1.8626676 -3.2178557 -0.25895259 0 0 0 0 49.325737
-1.9101902 -3.1758814 -0.1531719 0 0 0 0 49.330681
-1.9437243 -3.1198719 -0.059363209 0 0 0 0 49.335632
-1.9832031 -3.0748909 0.030440774 0 0 0 0 49.340576
-1.8321545 -3.3447609 -0.26162711 0 0 0 0 49.345528
-1.8757302 -3.2907689 -0.15385054 0 0 0 0 49.350471
-1.9142574 -3.2357795 -0.061058018 0 0 0 0 49.355415
-1.9557517 -3.1878049 0.029734308 0 0 0 0 49.360367
-1.7986138 -3.4786546 -0.26427996 0 0 0 0 49.365311
-1.846205 -3.4206774 -0.15652353 0 0 0 0 49.370262
-1.886744 -3.3636944 -0.062741198 0 0 0 0 49.375206
-1.9252843 -3.3037083 0.028043525 0 0 0 0 49.38015
-2.0377624 -4.1786556 -0.3140521 0 0 0 0 49.385101
-2.0875227 -4.0936589 -0.18734348 0 0 0 0 49.390045
-1.8492634 -3.4825711 -0.064401984 0 0 0 0 49.394997
-1.9007357 -3.4406343 0.026363816 0 0 0 0 49.39994
-1.9921023 -4.341506 -0.3176181 0 0 0 0 49.404884
-2.0458744 -4.2545228 -0.18992676 0 0 0 0 49.409836
-2.0876105 -4.1605201 -0.080203854 0 0 0 0 49.41478
-2.1332989 -4.0755396 0.025518315 0 0 0 0 49.419731
-1.8879133 -4.3891172 -0.31114778 0 0 0 0 49.424675
-2.0041678 -4.4293871 -0.19348808 0 0 0 0 49.429626
-2.0489309 -4.3293948 -0.082784951 0 0 0 0 49.43457
-2.0966542 -4.2364202 0.023917919 0 0 0 0 49.439514
-1.7560234 -4.3626142 -0.29968861 0 0 0 0 49.444466
-1.8583783 -4.3738356 -0.18502338 0 0 0 0 49.449409
-1.9824401 -4.4491611 -0.084339872 0 0 0 0 49.454361
-2.0549812 -4.4032826 0.021345129 0 0 0 0 49.459305
-1.6093236 -4.2890482 -0.28524584 0 0 0 0 49.464249
-1.7235056 -4.3393259 -0.1775647 0 0 0 0 49.4692
-1.8247445 -4.3645706 -0.080875404 0 0 0 0 49.474144
-1.9349406 -4.4038453 0.018802898 0 0 0 0 49.479095
-1.4982638 -4.3036284 -0.27779669 0 0 0 0 49.484039
-1.5946299 -4.3048391 -0.17112595 0 0 0 0 49.488983
-1.7027632 -4.354116 -0.078425601 0 0 0 0 49.493935
-1.8099685 -4.3873854 0.017253969 0 0 0 0 49.498878
-1.3961393 -4.3342423 -0.27135411 0 0 0 0 49.50383
-1.48656 -4.3194337 -0.16668655 0 0 0 0 49.508774
-1.572897 -4.3136306 -0.075991444 0 0 0 0 49.513725
-1.6681726 -4.3248601 0.015697166 0 0 0 0 49.518669
-1.3147212 -4.4369431 -0.2698763 0 0 0 0 49.523613
-1.3745435 -4.3200116 -0.16225293 0 0 0 0 49.528564
-1.4757097 -4.3552718 -0.075549476 0 0 0 0 49.533508
-1.5581131 -4.3304572 0.013130663 0 0 0 0 49.53846
-1.2931525 -4.4147134 -0.16178635 0 0 0 0 49.548347
-1.3587443 -4.3398347 -0.074121408 0 0 0 0 49.553299
-1.4579613 -4.3600907 0.01056601 0 0 0 0 49.558243
-1.2753766 -4.4265304 -0.075658903 0 0 0 0 49.57309
-1.3795173 -4.465807 0.0080391401 0 0 0 0 49.578033
-1.2724376 -4.4764123 0.0054729464 0 0 0 0 49.597824
-0.032540366 -4.7841506 -0.19727269 0 0 0 0 50.220245
-0.13522373 -4.6784496 -0.12580825 0 0 0 0 50.225189
-0.027746556 -4.7890272 -0.12619193 0 0 0 0 50.24498
-0.122324 -4.6933231 -0.072682679 0 0 0 0 50.249924
-0.11243042 -4.7012167 -0.025579065 0 0 0 0 50.274658
1.1373461 -4.5003319 -0.11281905 0 0 0 0 50.437912
1.2483588 -4.5018702 -0.10634747 0 0 0 0 50.457703
1.1351835 -4.4792929 -0.082798816 0 0 0 0 50.462646
1.0482892 -4.515626 -0.070057914 0 0 0 0 50.46759
1.2441747 -4.4728432 -0.07934691 0 0 0 0 50.482437
1.1522228 -4.4922023 -0.069652319 0 0 0 0 50.487381
1.0613276 -4.524559 -0.060933329 0 0 0 0 50.492332
1.2723999 -4.5267148 -0.071092278 0 0 0 0 50.507172
1.1632191 -4.4871492 -0.064557038 0 0 0 0 50.512115
1.6376271 -4.3212276 -0.075954862 0 0 0 0 50.53685
1.7102062 -4.218914 -0.067789733 0 0 0 0 50.556641
1.6284728 -4.285244 -0.064982705 0 0 0 0 50.561584
1.6404651 -4.2711973 -0.068895333 0 0 0 0 50.586319
1.6464307 -4.2441869 -0.079851642 0 0 0 0 50.611053
2.5497935 -3.4613643 0.0071158796 0 0 0 0 50.524643
2.6758206 -4.0780544 -0.1203856 0 0 0 0 50.53949
2.6134741 -3.383086 0.013288201 0 0 0 0 50.544434
2.5377612 -3.418452 -0.022930471 0 0 0 0 50.549377
2.7154758 -3.7898052 -0.071650341 0 0 0 0 50.554329
2.7323632 -3.9578171 -0.12230536 0 0 0 0 50.559273
2.6540558 -3.2809014 0.019334842 0 0 0 0 50.564224
2.6195586 -3.3661041 -0.019647783 0 0 0 0 50.569168
2.5448031 -3.3844781 -0.062890291 0 0 0 0 50.57412
2.5897524 -3.5683734 -0.11241299 0 0 0 0 50.579063
2.7237959 -3.217597 0.025554648 0 0 0 0 50.584007
2.6782329 -3.28385 -0.016500359 0 0 0 0 50.588959
2.6336398 -3.3381073 -0.063570894 0 0 0 0 50.593903
2.573982 -3.3764262 -0.11072441 0 0 0 0 50.598854
2.8226657 -3.1851742 0.03093545 0 0 0 0 50.603798
2.7369063 -3.2015953 -0.013352675 0 0 0 0 50.608742
2.7104068 -3.2757833 -0.063322335 0 0 0 0 50.613693
2.6427116 -3.3021405 -0.11352588 0 0 0 0 50.618637
2.9235311 -3.1527405 0.037324753 0 0 0 0 50.623589
2.8317668 -3.1641932 -0.010994608 0 0 0 0 50.628532
2.745965 -3.1646247 -0.061308987 0 0 0 0 50.633476
2.7204938 -3.2408168 -0.11627156 0 0 0 0 50.638428
3.0193636 -3.1123261 0.043682903 0 0 0 0 50.643372
2.9457047 -3.1447129 -0.0095339855 0 0 0 0 50.648323
2.8538899 -3.1391745 -0.062881276 0 0 0 0 50.653267
2.7811856 -3.158561 -0.11811568 0 0 0 0 50.658218
3.1503382 -3.1047695 0.048229229 0 0 0 0 50.663162
3.054589 -3.113251 -0.0071108611 0 0 0 0 50.668106
2.9728515 -3.122678 -0.06439589 0 0 0 0 50.673058
2.8891137 -3.1301167 -0.12369202 0 0 0 0 50.678001
3.2471576 -3.0613492 0.054588247 0 0 0 0 50.682953
3.1705022 -3.0887587 -0.0046485644 0 0 0 0 50.687897
3.1108785 -3.121103 -0.066812202 0 0 0 0 50.692841
3.0251398 -3.1245568 -0.13012266 0 0 0 0 50.697792
3.3630295 -3.030849 0.061042044 0 0 0 0 50.702736
3.2793653 -3.0522945 -0.0022315125 0 0 0 0 50.707687
3.2076919 -3.0696936 -0.067465656 0 0 0 0 50.712631
3.1651702 -3.1199791 -0.13653499 0 0 0 0 50.717575
3.4889176 -3.0043063 0.067541838 0 0 0 0 50.722527
3.3992567 -3.0227833 0.00024012555 0 0 0 0 50.72747
3.3255951 -3.0391977 -0.069003463 0 0 0 0 50.732422
3.2529495 -3.057611 -0.14024012 0 0 0 0 50.737366
3.6057642 -2.9677997 0.073991932 0 0 0 0 50.742317
3.5231435 -2.991256 0.0017250464 0 0 0 0 50.747261
3.454514 -3.011656 -0.07149297 0 0 0 0 50.752205
3.3768682 -3.0270958 -0.14575392 0 0 0 0 50.757156
3.7336223 -2.9342461 0.080490306 0 0 0 0 50.7621
3.6550381 -2.9626927 0.0042468016 0 0 0 0 50.767052
3.5814083 -2.9791205 -0.072997123 0 0 0 0 50.771996
3.5047822 -2.9945641 -0.1522544 0 0 0 0 50.776939
3.8725011 -2.9066439 0.088042073 0 0 0 0 50.781891
3.7899201 -2.9311154 0.0067764563 0 0 0 0 50.786835
3.7112978 -2.9445724 -0.075491779 0 0 0 0 50.791786
3.639704 -2.9640021 -0.15872341 0 0 0 0 50.79673
4.0133624 -2.8740335 0.094594724 0 0 0 0 50.801682
3.9207687 -2.8915536 0.0092788767 0 0 0 0 50.806625
3.8501911 -2.9119842 -0.076947235 0 0 0 0 50.811569
3.7685843 -2.9234638 -0.16523068 0 0 0 0 50.816521
4.1632276 -2.8433824 0.10218672 0 0 0 0 50.821465
4.0937324 -2.8788168 0.01098908 0 0 0 0 50.826416
3.989063 -2.8733959 -0.079411156 0 0 0 0 50.83136
3.9134927 -2.8898575 -0.17166343 0 0 0 0 50.836304
4.2077861 -2.7381701 0.10825091 0 0 0 0 50.841255
4.2315593 -2.8342228 0.013513038 0 0 0 0 50.846199
4.8129587 -3.2999876 -0.10046127 0 0 0 0 50.851151
4.0583801 -2.8502514 -0.17910463 0 0 0 0 50.856094
4.4358077 -2.7461889 0.11721134 0 0 0 0 50.861038
4.2801204 -2.7269983 0.01658985 0 0 0 0 50.86599
4.9917984 -3.2532263 -0.10277621 0 0 0 0 50.870934
4.9053478 -3.2727776 -0.22206527 0 0 0 0 50.875885
4.4931598 -2.6471426 0.12255208 0 0 0 0 50.632919
5.2728257 -3.1921096 0.016422668 0 0 0 0 50.637863
5.1743536 -3.2047083 -0.10691851 0 0 0 0 50.642815
5.0939336 -3.2282364 -0.23217334 0 0 0 0 50.647758
5.5660067 -3.1126699 0.15047112 0 0 0 0 50.652702
5.4666348 -3.1422856 0.019153623 0 0 0 0 50.657654
5.3741941 -3.1568696 -0.11016157 0 0 0 0 50.662598
5.2887897 -3.1774299 -0.24244045 0 0 0 0 50.667549
5.7647672 -3.0578115 0.16021508 0 0 0 0 50.672493
5.664423 -3.0874431 0.021893589 0 0 0 0 50.677444
5.5850382 -3.1089852 -0.11436062 0 0 0 0 50.682388
5.4745965 -3.1156573 -0.25175813 0 0 0 0 50.687332
5.9675064 -2.9979346 0.16996808 0 0 0 0 50.692284
5.8671775 -3.0255766 0.025643155 0 0 0 0 50.697227
5.7898288 -3.0491219 -0.11760017 0 0 0 0 50.702179
5.3526158 -2.8791265 -0.24553826 0 0 0 0 50.707123
6.1982613 -2.9439366 0.18184014 0 0 0 0 50.712067
6.1009722 -2.9725809 0.028528275 0 0 0 0 50.717018
5.9985895 -2.98224 -0.1208339 0 0 0 0 50.721962
5.250731 -2.6655159 -0.2402063 0 0 0 0 50.726913
6.4349823 -2.8819115 0.19372444 0 0 0 0 50.731857
6.3247128 -2.9066246 0.031355947 0 0 0 0 50.736801
6.0500021 -2.835001 -0.12080152 0 0 0 0 50.741753
5.2120199 -2.4906511 -0.23857033 0 0 0 0 50.746696
3.996228 -1.685066 0.13446335 0 0 0 0 50.751648
6.596489 -2.8504651 0.035386812 0 0 0 0 50.756592
5.8419013 -2.5718243 -0.11395752 0 0 0 0 50.761543
4.9999766 -2.2454891 -0.22771777 0 0 0 0 50.766487
3.8345475 -1.5177208 0.13362759 0 0 0 0 50.771431
4.1115508 -1.666729 0.03595145 0 0 0 0 50.776382
5.7871504 -2.3890214 -0.11139441 0 0 0 0 50.781326
5.0725441 -2.1331737 -0.23155381 0 0 0 0 50.786278
4.6563334 -1.724256 0.15919662 0 0 0 0 50.791222
3.9178085 -1.4865144 0.036970034 0 0 0 0 50.796165
4.2919617 -1.6581398 -0.074291535 0 0 0 0 50.801117
4.6097832 -1.5914253 0.16186367 0 0 0 0 50.811012
4.0666118 -1.4378767 0.039525572 0 0 0 0 50.815956
3.9249082 -1.4126308 -0.064050734 0 0 0 0 50.820908
5.0213327 -1.8363401 -0.22910273 0 0 0 0 50.825851
4.5452313 -1.4576718 0.16345841 0 0 0 0 50.830795
3.9870808 -1.3091886 0.041067239 0 0 0 0 50.835747
3.9355087 -1.3135715 -0.064112358 0 0 0 0 50.840691
3.9380305 -1.3357371 -0.17405336 0 0 0 0 50.845642
4.029726 -1.2229918 0.04315095 0 0 0 0 50.85553
4.6410799 -1.4296433 -0.080125704 0 0 0 0 50.860481
4.4964552 -1.4054421 -0.20271285 0 0 0 0 50.865425
4.1073985 -1.1436483 0.045382131 0 0 0 0 50.87532
4.0758672 -1.1519579 -0.065713622 0 0 0 0 50.880264
4.8855314 -1.3988358 -0.22414918 0 0 0 0 50.885216
6.380403 -1.6201264 0.055065129 0 0 0 0 50.895111
5.3789883 -1.3835497 -0.096203797 0 0 0 0 50.900055
4.1580715 -1.0847926 -0.18643121 0 0 0 0 50.905006
5.5916739 -1.3006443 -0.10044413 0 0 0 0 50.919846
4.8384633 -1.1389898 -0.22263056 0 0 0 0 50.924789
5.4559827 -1.1371813 -0.096174307 0 0 0 0 50.939629
4.7809033 -1.0052066 -0.22001153 0 0 0 0 50.94458
4.2743654 -0.7676757 0.17364097 0 0 0 0 50.949524
4.2959275 -0.78678334 0.050769776 0 0 0 0 50.954475
5.4294162 -1.000268 -0.095436461 0 0 0 0 50.959419
4.7553954 -0.88229269 -0.21925054 0 0 0 0 50.964363
5.5196333 -0.86636007 0.21873342 0 0 0 0 50.969315
5.5283246 -0.88158119 0.058806896 0 0 0 0 50.974258
5.4468937 -0.87317145 -0.095510937 0 0 0 0 50.97921
4.7349029 -0.76235962 -0.21946575 0 0 0 0 50.984154
6.1631484 -0.83988088 0.064291798 0 0 0 0 50.994049
5.337276 -0.7276032 -0.09211418 0 0 0 0 50.998993
5.3067312 -0.59770608 -0.090383045 0 0 0 0 51.018784
6.1229343 -0.55098957 0.067796707 0 0 0 0 51.033623
5.2841973 -0.46977711 -0.089617983 0 0 0 0 51.038574
6.0613317 -0.40821949 0.069387518 0 0 0 0 51.053413
5.2216587 -0.34201577 -0.08801084 0 0 0 0 51.058357
6.0197363 -0.26736543 0.071059145 0 0 0 0 51.073204
5.1971474 -0.22009587 -0.087245338 0 0 0 0 51.078148
5.1226273 -0.09738639 -0.085679181 0 0 0 0 51.097939
5.9586082 0.0055591865 0.073827162 0 0 0 0 51.21199
5.1261625 0.020753112 -0.085493498 0 0 0 0 51.216934
5.8980346 0.13932998 0.075429864 0 0 0 0 51.231781
5.0996447 0.14166467 -0.083738312 0 0 0 0 51.236725
5.8604679 0.27119851 0.077126265 0 0 0 0 51.251564
5.0601473 0.25851873 -0.083028868 0 0 0 0 51.256516
5.8328996 0.40410784 0.077859983 0 0 0 0 51.271355
5.0196567 0.37336814 -0.082320929 0 0 0 0 51.276299
5.7853518 0.53193122 0.078521535 0 0 0 0 51.291145
4.9751654 0.48720163 -0.080628097 0 0 0 0 51.296089
5.7677894 0.66188449 0.080298536 0 0 0 0 51.310928
4.9506803 0.60111725 -0.080856241 0 0 0 0 51.31588
5.6842651 0.78355241 0.080824442 0 0 0 0 51.330719
4.9111991 0.71296984 -0.080141723 0 0 0 0 51.335663
5.6407261 0.90839154 0.081504136 0 0 0 0 51.35051
4.8587303 0.82076776 -0.078473359 0 0 0 0 51.355453
5.5901904 1.0322001 0.082156517 0 0 0 0 51.370293
4.8252425 0.93364525 -0.077738151 0 0 0 0 51.375244
4.2550678 0.86197507 -0.20889659 0 0 0 0 51.380188
5.5636401 1.1581134 0.083900891 0 0 0 0 51.390083
4.7837753 1.0414881 -0.07702741 0 0 0 0 51.395027
4.1676807 0.94862139 -0.20533802 0 0 0 0 51.399979
5.5280924 1.2839856 0.084608331 0 0 0 0 51.409866
4.7573018 1.1513935 -0.077260546 0 0 0 0 51.414818
4.1402559 1.0475192 -0.20555963 0 0 0 0 51.419762
5.5025439 1.4099009 0.085355207 0 0 0 0 51.429657
4.7348108 1.2643175 -0.076483354 0 0 0 0 51.434608
4.1388078 1.1525273 -0.20668732 0 0 0 0 51.439552
4.7129431 1.3204995 0.078378148 0 0 0 0 51.449448
3.9252362 1.1458665 -0.058496732 0 0 0 0 51.454391
3.4380963 1.0465791 -0.16728555 0 0 0 0 51.459343
4.931694 1.4487534 0.25109076 0 0 0 0 51.464287
4.2151008 1.285358 0.074481502 0 0 0 0 51.469231
3.5392978 1.1222254 -0.049964439 0 0 0 0 51.474182
3.0781398 1.017066 -0.14764102 0 0 0 0 51.479126
5.1248589 1.6306313 0.26262414 0 0 0 0 51.484077
4.1657062 1.3751624 0.075184762 0 0 0 0 51.489021
3.617789 1.241576 -0.051796447 0 0 0 0 51.493965
3.3614156 1.2022746 -0.16575676 0 0 0 0 51.498917
5.3274145 1.8952423 0.088070661 0 0 0 0 51.508812
4.5899119 1.6987711 -0.074574769 0 0 0 0 51.513756
3.9911306 1.5369551 -0.20471747 0 0 0 0 51.518707
5.2689075 2.0100126 0.088698581 0 0 0 0 51.528595
4.5464454 1.8046025 -0.073874243 0 0 0 0 51.533546
3.9856596 1.6469433 -0.20687263 0 0 0 0 51.53849
5.2493296 2.1409516 0.089456372 0 0 0 0 51.548386
4.520956 1.91651 -0.074111789 0 0 0 0 51.553329
3.9382503 1.7387556 -0.20516796 0 0 0 0 51.558281
5.1928201 2.2567282 0.089088857 0 0 0 0 51.568176
4.486465 2.02738 -0.073384851 0 0 0 0 51.57312
3.8968353 1.8325918 -0.20444317 0 0 0 0 51.578072
5.1612563 2.3836143 0.089803137 0 0 0 0 51.587959
4.4669471 2.145313 -0.073609628 0 0 0 0 51.592911
3.8713837 1.9364939 -0.20567115 0 0 0 0 51.597855
5.0937581 2.4953432 0.090395764 0 0 0 0 51.60775
4.4134893 2.2480991 -0.072947852 0 0 0 0 51.612694
3.8339534 2.0333469 -0.20493668 0 0 0 0 51.617645
5.1170516 2.654469 0.091277689 0 0 0 0 51.627541
4.3779907 2.3609617 -0.073230721 0 0 0 0 51.632484
3.7975135 2.1332018 -0.20520402 0 0 0 0 51.637428
5.0256119 2.7530904 0.090792812 0 0 0 0 51.647324
4.3305087 2.4687734 -0.072554782 0 0 0 0 51.652275
3.7640676 2.2340698 -0.20546155 0 0 0 0 51.657219
5.0129733 2.8960581 0.091553912 0 0 0 0 51.667114
4.2870221 2.5776017 -0.071865126 0 0 0 0 51.672058
3.7226305 2.3319042 -0.20474736 0 0 0 0 51.67701
4.9581571 3.0183585 0.093575552 0 0 0 0 52.196281
4.2732472 2.7069767 -0.071764641 0 0 0 0 52.201225
3.6920071 2.4381199 -0.20374174 0 0 0 0 52.206177
6.004065 3.6995332 0.33585352 0 0 0 0 52.211121
4.9205422 3.1512115 0.094238594 0 0 0 0 52.216072
4.2117705 2.8087189 -0.070151202 0 0 0 0 52.221016
3.6724901 2.5530422 -0.20597631 0 0 0 0 52.22596
5.6592789 3.6609745 0.32151881 0 0 0 0 52.230911
5.1580625 3.4733155 0.097735383 0 0 0 0 52.235855
4.1722336 2.9255567 -0.070472226 0 0 0 0 52.240807
3.6210418 2.6488264 -0.20431329 0 0 0 0 52.24575
5.1610684 3.502701 0.29873967 0 0 0 0 52.250694
4.8990993 3.4631603 0.095709197 0 0 0 0 52.255646
4.2084398 3.1007347 -0.072574936 0 0 0 0 52.26059
3.5925229 2.7627089 -0.2055856 0 0 0 0 52.265541
4.842361 3.4472525 0.28453809 0 0 0 0 52.270485
4.6043091 3.4158378 0.092593424 0 0 0 0 52.275436
4.2127223 3.2577698 -0.073781706 0 0 0 0 52.28038
3.5978749 2.9067414 -0.20876761 0 0 0 0 52.285324
4.5237308 3.3748004 0.27036366 0 0 0 0 52.290276
4.1999888 3.2660115 0.088188998 0 0 0 0 52.295219
4.0286345 3.2699578 -0.069535866 0 0 0 0 52.300171
2.9455488 2.4958599 -0.16777331 0 0 0 0 52.305115
4.3466511 3.3950028 0.26362598 0 0 0 0 52.310059
3.9213047 3.1957552 0.085176118 0 0 0 0 52.31501
3.674242 3.1253743 -0.061741609 0 0 0 0 52.319954
2.8553183 2.5404677 -0.16319081 0 0 0 0 52.324905
