# .PCD v0.7 - Point Cloud Data file format
VERSION 0.7
FIELDS x y z normal_x normal_y normal_z intensity curvature
SIZE 4 4 4 4 4 4 4 4
TYPE F F F F F F F F
COUNT 1 1 1 1 1 1 1 1
WIDTH 977
HEIGHT 1
VIEWPOINT 0 0 0 1 0 0 0
POINTS 977
DATA ascii
-5.5515347 2.0558836 4.8226151 0 0 0 0 17.652658
-5.0723681 1.9344777 4.7579861 0 0 0 0 17.657606
-4.6835403 1.8551465 4.7701015 0 0 0 0 17.662554
-5.9553061 1.998449 4.7411866 0 0 0 0 17.667498
-5.5811176 1.9210125 4.8054085 0 0 0 0 17.672445
-5.1663857 1.8396354 4.8043418 0 0 0 0 17.677393
-4.7129607 1.7522556 4.7609949 0 0 0 0 17.682341
-5.9908895 1.8525805 4.7289858 0 0 0 0 17.687288
-5.6146574 1.7881395 4.7932348 0 0 0 0 17.692236
-5.2365799 1.7347758 4.829505 0 0 0 0 17.69718
-4.7394037 1.648363 4.7488656 0 0 0 0 17.702127
-6.0175185 1.702697 4.7117133 0 0 0 0 17.707075
-5.651145 1.656255 4.7880855 0 0 0 0 17.712023
-5.2789569 1.6198891 4.8324485 0 0 0 0 17.71697
-4.7658215 1.5454615 4.7397389 0 0 0 0 17.721918
-6.0510745 1.5558094 4.703496 0 0 0 0 17.726862
-5.6776757 1.5233552 4.776865 0 0 0 0 17.73181
-5.3064342 1.4989885 4.8232727 0 0 0 0 17.736757
-4.7852759 1.4395485 4.7265563 0 0 0 0 17.741705
-6.0756569 1.4089037 4.6912193 0 0 0 0 17.746653
-5.7041984 1.390452 4.766645 0 0 0 0 17.7516
-5.3448119 1.3830879 4.8261862 0 0 0 0 17.756544
-4.8126607 1.3376377 4.7214398 0 0 0 0 17.761492
-6.0942507 1.259981 4.677896 0 0 0 0 17.766439
-5.7296953 1.2565335 4.7604151 0 0 0 0 17.771387
-5.3633103 1.261166 4.8139472 0 0 0 0 17.776335
-4.8261266 1.2317106 4.7062178 0 0 0 0 17.781279
-6.1167994 1.1120535 4.6706028 0 0 0 0 17.786226
-5.7452421 1.1216027 4.7471156 0 0 0 0 17.791174
-5.3857708 1.1402421 4.8067384 0 0 0 0 17.796122
-4.8405871 1.1247834 4.6919994 0 0 0 0 17.801069
-6.1373291 0.96511334 4.6653004 0 0 0 0 17.806017
-5.7567906 0.98565859 4.7337871 0 0 0 0 17.810961
-5.4022431 1.0193043 4.7974892 0 0 0 0 17.815908
-4.8589892 1.0208484 4.6848173 0 0 0 0 17.820856
-4.8694277 0.91590184 4.6725783 0 0 0 0 17.840643
-0.56213415 0.062357612 0.37686142 0 0 0 0 17.845591
-0.55292809 0.070250146 0.4028309 0 0 0 0 17.850538
-0.60631299 0.087182485 0.48525098 0 0 0 0 17.855486
-4.8808579 0.81095546 4.6613464 0 0 0 0 17.860434
-0.55519891 0.04934663 0.37080687 0 0 0 0 17.865381
-0.54500651 0.057241928 0.3947697 0 0 0 0 17.870325
-0.53877711 0.066135541 0.42376238 0 0 0 0 17.875273
-0.53393674 0.044239484 0.38495347 0 0 0 0 18.057909
-0.53169155 0.054141223 0.41597581 0 0 0 0 18.062857
-0.57509762 0.07205537 0.49532804 0 0 0 0 18.067804
-0.53917962 0.023333402 0.35695022 0 0 0 0 18.072752
-0.52302188 0.031223856 0.37587339 0 0 0 0 18.0777
-0.52178025 0.042131893 0.40590534 0 0 0 0 18.082647
-0.54036117 0.056033328 0.46107909 0 0 0 0 18.087591
-0.50688881 0.030114822 0.3928017 0 0 0 0 18.102434
-0.52449685 0.044024646 0.44396874 0 0 0 0 18.107382
-0.53722835 -0.00068142801 0.3559294 0 0 0 0 18.112326
-0.5220741 0.0082154581 0.37386236 0 0 0 0 18.117273
-0.51188654 0.019117244 0.39583439 0 0 0 0 18.122221
-0.51557869 0.032015856 0.4349052 0 0 0 0 18.127169
-0.51858008 0.022014651 0.43692738 0 0 0 0 18.146955
-0.53925973 -0.025691774 0.35793269 0 0 0 0 18.151903
-0.52210927 -0.013795464 0.3738611 0 0 0 0 18.156851
-0.50197893 -0.0019002621 0.38676968 0 0 0 0 18.161798
-0.51165152 0.011009551 0.42888033 0 0 0 0 18.166746
-0.54824728 -0.051699422 0.36697972 0 0 0 0 18.191481
-0.52612394 -0.037804827 0.3778809 0 0 0 0 18.196428
-0.50598723 -0.023909392 0.39079535 0 0 0 0 18.201372
-0.51665384 -0.0089961793 0.43291822 0 0 0 0 18.20632
-0.56220084 -0.065690935 0.37806341 0 0 0 0 18.211267
-0.57614774 -0.081688263 0.39114121 0 0 0 0 18.231054
-0.54206824 -0.062806726 0.39297739 0 0 0 0 18.236002
-0.52790183 -0.047902994 0.40993467 0 0 0 0 18.24095
-0.51966918 -0.031005582 0.43593726 0 0 0 0 18.245897
-0.62793434 -0.10363936 0.43145332 0 0 0 0 18.250845
-5.9961457 -1.2169242 4.584938 0 0 0 0 18.270632
-0.63464236 -0.10474189 0.47253409 0 0 0 0 18.275579
-0.53588313 -0.0719136 0.41898108 0 0 0 0 18.280527
-0.5197041 -0.053016145 0.43593663 0 0 0 0 18.285471
-5.9566407 -1.3550539 4.578279 0 0 0 0 18.290419
-0.6635164 -0.12472789 0.49869895 0 0 0 0 18.295366
-0.5296517 -0.065020517 0.44699946 0 0 0 0 18.305262
-5.9250846 -1.4961829 4.5806651 0 0 0 0 18.310209
-5.6408553 -1.2663188 4.6524491 0 0 0 0 18.315153
-0.62543517 -0.11286736 0.50151974 0 0 0 0 18.320101
-0.5744099 -0.084003076 0.49027303 0 0 0 0 18.325048
-5.7580709 -1.5984637 4.481267 0 0 0 0 18.329996
-5.60531 -1.3944362 4.6468487 0 0 0 0 18.334944
-5.3382077 -1.1604545 4.6977592 0 0 0 0 18.339888
-0.57243401 -0.095012061 0.48925939 0 0 0 0 18.344835
-5.6268921 -1.7057042 4.4090943 0 0 0 0 18.349783
-5.571734 -1.5215584 4.6452656 0 0 0 0 18.354731
-5.2976861 -1.275558 4.6821651 0 0 0 0 18.359678
-0.60526878 -0.11500217 0.52145046 0 0 0 0 18.364626
-5.5922656 -1.8388588 4.4174886 0 0 0 0 18.36957
-5.4037642 -1.6097996 4.5319061 0 0 0 0 18.374517
-5.2153654 -1.3796941 4.6303277 0 0 0 0 18.379465
-4.8577614 -1.0967203 4.5817823 0 0 0 0 18.384413
-5.5496655 -1.9700248 4.4208364 0 0 0 0 18.38936
-5.2934875 -1.7079985 4.4699025 0 0 0 0 18.394308
-5.1131268 -1.474846 4.5613861 0 0 0 0 18.399252
-4.8391256 -1.2037879 4.5793605 0 0 0 0 18.4042
-5.4960842 -2.0972116 4.4191251 0 0 0 0 18.409147
-5.2658315 -1.8341315 4.4793658 0 0 0 0 18.414095
-5.0417042 -1.5769857 4.5236292 0 0 0 0 18.419043
-4.8234663 -1.3118572 4.5809555 0 0 0 0 18.42399
-5.4454751 -2.2243996 4.4214349 0 0 0 0 18.428934
-5.2281909 -1.9552821 4.4837785 0 0 0 0 18.433882
-5.0080853 -1.6901023 4.5210924 0 0 0 0 18.438829
-4.7978387 -1.4179413 4.5764918 0 0 0 0 18.443777
-5.3888683 -2.3506036 4.422709 0 0 0 0 18.448725
-5.1845627 -2.0744431 4.4851589 0 0 0 0 18.453669
-4.9844022 -1.806218 4.529613 0 0 0 0 18.458616
-4.7821503 -1.5280244 4.5830832 0 0 0 0 18.463564
-5.3123274 -2.4648261 4.4078875 0 0 0 0 18.468512
-5.1419177 -2.1946094 4.4895439 0 0 0 0 18.473459
-4.9467645 -1.9183527 4.5290546 0 0 0 0 18.478407
-4.7535176 -1.6331179 4.5786042 0 0 0 0 18.483351
-5.0076718 -2.466243 4.2018895 0 0 0 0 18.488298
-5.0902977 -2.3107867 4.4878831 0 0 0 0 18.493246
-4.9130998 -2.0324886 4.5335178 0 0 0 0 18.498194
-4.7308316 -1.7422202 4.5841541 0 0 0 0 18.503141
-4.7617455 -2.4826057 4.0442386 0 0 0 0 18.508089
-5.0366602 -2.4259758 4.4882126 0 0 0 0 18.513033
-4.8754373 -2.1456342 4.5369587 0 0 0 0 18.517981
-4.696207 -1.8463268 4.5776405 0 0 0 0 18.522928
-4.495965 -2.4778178 3.867368 0 0 0 0 18.291296
-4.9163523 -2.5060456 4.4280849 0 0 0 0 18.296244
-4.8328152 -2.2566314 4.5372553 0 0 0 0 18.301191
-4.6685371 -1.9542938 4.5810418 0 0 0 0 18.306139
-4.2559786 -2.4751692 3.7107983 0 0 0 0 18.311087
-4.6157484 -2.4854059 4.2051625 0 0 0 0 18.316034
-4.7831869 -2.3647971 4.5336266 0 0 0 0 18.320978
-4.6299133 -2.0594172 4.5754948 0 0 0 0 18.325926
-3.9512317 -2.4205527 3.4919512 0 0 0 0 18.330873
-4.3659182 -2.4797168 4.0235367 0 0 0 0 18.335821
-4.7325473 -2.4719687 4.5309954 0 0 0 0 18.340769
-4.6091695 -2.172545 4.5920448 0 0 0 0 18.345713
-3.7729621 -2.4318409 3.3847563 0 0 0 0 18.35066
-4.13099 -2.4710152 3.8550217 0 0 0 0 18.355608
-4.5783739 -2.5231962 4.4298406 0 0 0 0 18.360556
-4.5665402 -2.2766807 4.5864763 0 0 0 0 18.365503
-3.7012603 -2.5080593 3.3750823 0 0 0 0 18.370451
-3.9049976 -2.4573035 3.693583 0 0 0 0 18.375395
-4.3097024 -2.5014749 4.2161398 0 0 0 0 18.380342
-4.5318513 -2.3848219 4.5919499 0 0 0 0 18.38529
-3.5518486 -2.5273232 3.2930593 0 0 0 0 18.390238
-3.7437198 -2.4745462 3.5904858 0 0 0 0 18.395185
-4.0440016 -2.4677372 4.0004959 0 0 0 0 18.400133
-4.4792275 -2.4849806 4.5833292 0 0 0 0 18.405077
-3.367563 -2.5145996 3.1758993 0 0 0 0 18.410025
-3.6501448 -2.5327542 3.5527203 0 0 0 0 18.414972
-3.8628902 -2.4769611 3.8682914 0 0 0 0 18.41992
-4.3360577 -2.5321617 4.4792638 0 0 0 0 18.424868
-3.2310665 -2.5288489 3.1039801 0 0 0 0 18.429815
-3.4838488 -2.5349972 3.4446371 0 0 0 0 18.434759
-3.7215784 -2.5041661 3.7752998 0 0 0 0 18.439707
-4.0774283 -2.5023737 4.2546582 0 0 0 0 18.444654
-3.1503525 -2.5840676 3.0853128 0 0 0 0 18.449602
-3.3165488 -2.5282316 3.3325748 0 0 0 0 18.45455
-3.6290262 -2.561358 3.733546 0 0 0 0 18.459494
-3.8337035 -2.4705739 4.04316 0 0 0 0 18.464441
-3.1861675 -2.7382507 3.1871326 0 0 0 0 18.469389
-3.2129681 -2.5654414 3.2848086 0 0 0 0 18.474337
-3.447865 -2.5505712 3.5984044 0 0 0 0 18.479284
-3.7392311 -2.5277374 3.9893937 0 0 0 0 18.484232
-3.0586126 -2.7514918 3.1232793 0 0 0 0 18.489176
-3.2069609 -2.682631 3.3414583 0 0 0 0 18.494123
-3.3035269 -2.5587668 3.4994528 0 0 0 0 18.499071
-3.632791 -2.5749104 3.9255788 0 0 0 0 18.504019
-3.111326 -2.7238424 3.3037357 0 0 0 0 18.513914
-3.225863 -2.6149542 3.4738047 0 0 0 0 18.518858
-3.4586749 -2.5680854 3.7854738 0 0 0 0 18.523806
-3.2387865 -2.7491362 3.549531 0 0 0 0 18.538649
-3.3173785 -2.5792561 3.681536 0 0 0 0 18.543596
-3.1242738 -2.7733307 3.4847345 0 0 0 0 18.558435
-3.2636507 -2.6564224 3.6759868 0 0 0 0 18.563383
-3.2357836 -2.7555957 3.7025454 0 0 0 0 18.58317
-3.144207 -2.8007722 3.6578412 0 0 0 0 18.602957
-2.0289242 -3.3426006 3.0232477 0 0 0 0 18.74642
-2.0639708 -3.2807763 3.0952139 0 0 0 0 19.112661
-1.4585752 -2.8008728 2.446734 0 0 0 0 19.147291
-2.0723522 -3.3450973 3.2181613 0 0 0 0 19.157183
-2.1677637 -3.1948583 3.2381873 0 0 0 0 19.16213
-1.3697577 -2.7790337 2.4042635 0 0 0 0 19.167078
-2.0929713 -3.2400563 3.2246189 0 0 0 0 19.181917
-1.2928811 -2.7752068 2.3798201 0 0 0 0 19.186865
-1.225958 -2.7893925 2.371392 0 0 0 0 19.206652
-1.3652809 -2.8122873 2.4892211 0 0 0 0 19.211599
-1.1560384 -2.7965763 2.3589647 0 0 0 0 19.226442
-1.2755017 -2.7824225 2.4367685 0 0 0 0 19.23139
-1.0890963 -2.8067636 2.3515491 0 0 0 0 19.246229
-1.2006437 -2.77858 2.4093401 0 0 0 0 19.251177
-1.5160339 -3.1928566 2.8642139 0 0 0 0 19.256124
-1.0221574 -2.8139451 2.3421426 0 0 0 0 19.266016
-1.1287594 -2.7807467 2.3889153 0 0 0 0 19.270964
-1.2781271 -2.8486524 2.5216823 0 0 0 0 19.275911
-0.95818579 -2.8311441 2.3427286 0 0 0 0 19.285807
-1.0628422 -2.792922 2.3785017 0 0 0 0 19.290754
-1.1764516 -2.7867358 2.4372439 0 0 0 0 19.295698
-0.89322722 -2.8423319 2.3383253 0 0 0 0 19.305593
-0.99791539 -2.8060994 2.3700926 0 0 0 0 19.310541
-1.101609 -2.7798808 2.4058259 0 0 0 0 19.315489
-1.2778654 -2.8978198 2.5806251 0 0 0 0 19.320433
-0.83123636 -2.8595319 2.3419259 0 0 0 0 19.32538
-0.93297887 -2.8182788 2.3626873 0 0 0 0 19.330328
-1.0367038 -2.7960525 2.3954091 0 0 0 0 19.335276
-1.1583259 -2.7938426 2.4541893 0 0 0 0 19.340223
-0.76725227 -2.8727293 2.3425252 0 0 0 0 19.345171
-0.86803585 -2.8304605 2.3562827 0 0 0 0 19.350115
-0.96880531 -2.8062217 2.3809907 0 0 0 0 19.355062
-1.0805242 -2.7839744 2.414762 0 0 0 0 19.36001
-0.70624518 -2.8929362 2.3501251 0 0 0 0 19.364958
-0.80607325 -2.848649 2.3558815 0 0 0 0 19.369905
-0.90190351 -2.8153875 2.3665822 0 0 0 0 19.374853
-1.00967 -2.7901278 2.391336 0 0 0 0 19.379797
-0.64324176 -2.9081404 2.3547273 0 0 0 0 19.384745
-0.74111456 -2.8578324 2.3504865 0 0 0 0 19.389692
-0.83797568 -2.8305626 2.3591769 0 0 0 0 19.39464
-0.94477665 -2.8082957 2.379916 0 0 0 0 19.399588
-0.57825208 -2.9113283 2.3513501 0 0 0 0 19.404535
-0.67912614 -2.8800359 2.3560762 0 0 0 0 19.409479
-0.77303815 -2.8467455 2.3537636 0 0 0 0 19.414427
-0.8778832 -2.824466 2.3674893 0 0 0 0 19.419374
-0.51721942 -2.9355495 2.3649418 0 0 0 0 19.424322
-0.61615074 -2.8962283 2.3566766 0 0 0 0 19.42927
-0.71108401 -2.8699353 2.354351 0 0 0 0 19.434214
-0.81296694 -2.8456461 2.361063 0 0 0 0 19.439161
-0.45419398 -2.94976 2.3725493 0 0 0 0 19.444109
-0.55415303 -2.9154308 2.3622761 0 0 0 0 19.449057
-0.6491074 -2.8961382 2.359931 0 0 0 0 19.454004
-0.74705404 -2.8618207 2.3516448 0 0 0 0 19.458952
-0.39116859 -2.9639702 2.3801575 0 0 0 0 19.463896
-0.49213234 -2.9436543 2.3758523 0 0 0 0 19.468843
-0.58513784 -2.9143329 2.3605213 0 0 0 0 19.473791
-0.68311518 -2.8860102 2.3502181 0 0 0 0 19.478739
-0.32910782 -2.9872034 2.3977482 0 0 0 0 19.483686
-0.42812547 -2.9598615 2.381449 0 0 0 0 19.488634
-0.52214837 -2.9425454 2.3690913 0 0 0 0 19.493578
-0.61915982 -2.9152129 2.3537791 0 0 0 0 19.498526
-0.26507339 -2.998415 2.40536 0 0 0 0 19.503473
-0.36511505 -2.9790704 2.389045 0 0 0 0 19.508421
-0.45716241 -2.9657555 2.3746636 0 0 0 0 19.513369
-0.55519783 -2.9464202 2.3593354 0 0 0 0 19.518316
-0.20201315 -3.0176449 2.4209573 0 0 0 0 19.52326
-0.30206284 -3.0093112 2.408612 0 0 0 0 19.528208
-0.39315376 -2.9959805 2.3872242 0 0 0 0 19.533155
-0.49121013 -2.9836457 2.3718767 0 0 0 0 19.538103
-0.13986802 -3.0729542 2.4674644 0 0 0 0 19.543051
-0.23897754 -3.0575891 2.4421315 0 0 0 0 19.547995
-0.32912886 -3.0312188 2.4047723 0 0 0 0 19.552942
-0.42719302 -3.0318973 2.3943892 0 0 0 0 19.55789
-0.073893942 -3.0460947 2.4471688 0 0 0 0 19.562838
-0.17867555 -3.2080827 2.559396 0 0 0 0 19.567785
-0.10986518 -3.2203336 2.5664856 0 0 0 0 19.358953
-0.20302342 -3.2289925 2.5450563 0 0 0 0 19.363901
-0.13008943 -3.2091482 2.5216951 0 0 0 0 19.383688
-0.23206742 -3.3199921 2.5780444 0 0 0 0 19.388636
-0.15132067 -3.2149792 2.4838643 0 0 0 0 19.408422
0.37355891 -3.2174227 2.4418921 0 0 0 0 19.546938
0.44957054 -3.2156391 2.439471 0 0 0 0 19.566725
0.71387947 -3.0627894 2.5752571 0 0 0 0 19.571672
0.52860814 -3.2238879 2.4460051 0 0 0 0 19.586515
0.78099841 -3.0620251 2.5908909 0 0 0 0 19.591463
0.60664183 -3.2251222 2.4485652 0 0 0 0 19.606302
0.84610343 -3.049233 2.5985703 0 0 0 0 19.61125
0.6866979 -3.2333806 2.4580951 0 0 0 0 19.626089
0.91121441 -3.0364428 2.6072505 0 0 0 0 19.631037
0.76676238 -3.2346327 2.4656446 0 0 0 0 19.64588
0.97733796 -3.0276659 2.6199138 0 0 0 0 19.650824
0.84581697 -3.2308705 2.4692152 0 0 0 0 19.665667
1.045477 -3.0219045 2.6365583 0 0 0 0 19.670614
0.93191046 -3.2451682 2.4876947 0 0 0 0 19.685453
1.1106056 -3.0071177 2.6472459 0 0 0 0 19.690401
1.0149928 -3.2444324 2.4972343 0 0 0 0 19.705244
1.1757303 -2.9893253 2.6559422 0 0 0 0 19.710188
1.101091 -3.2487178 2.5117431 0 0 0 0 19.725031
1.243884 -2.9825673 2.6745913 0 0 0 0 19.729979
1.1882075 -3.2530134 2.5292466 0 0 0 0 19.744818
1.3130399 -2.9728091 2.6922431 0 0 0 0 19.749765
1.2773238 -3.257314 2.5467391 0 0 0 0 19.764605
1.3791884 -2.9550278 2.7049356 0 0 0 0 19.769552
1.3866817 -3.0889974 2.685545 0 0 0 0 19.7745
1.3644326 -3.2515917 2.5582716 0 0 0 0 19.784395
1.4503746 -2.9472902 2.7285712 0 0 0 0 19.789343
1.4879661 -3.1294506 2.747869 0 0 0 0 19.794287
1.5657172 -3.3888946 2.8297169 0 0 0 0 19.799234
1.4585856 -3.2599266 2.5837247 0 0 0 0 19.804182
1.5205476 -2.9355381 2.7482245 0 0 0 0 19.80913
1.5550792 -3.098639 2.7485924 0 0 0 0 19.814077
1.6046401 -3.2768154 2.7608287 0 0 0 0 19.819025
1.5547473 -3.2672687 2.6101696 0 0 0 0 19.823969
1.5949759 -2.9306812 2.7775393 0 0 0 0 20.093672
1.6093564 -3.0405869 2.7261767 0 0 0 0 20.098619
1.6501608 -3.2644565 2.632369 0 0 0 0 20.108515
1.6671609 -2.9179337 2.7991903 0 0 0 0 20.113459
1.6865234 -3.0258431 2.7438033 0 0 0 0 20.118406
1.743309 -3.2567582 2.6498821 0 0 0 0 20.128302
1.7413726 -2.906204 2.8258274 0 0 0 0 20.133249
1.7596768 -3.0010691 2.7544811 0 0 0 0 20.138197
1.8465036 -3.2601211 2.6803071 0 0 0 0 20.148088
1.8175873 -2.8974843 2.8544455 0 0 0 0 20.153036
1.8438896 -2.9953749 2.7840438 0 0 0 0 20.157984
1.9497067 -3.2624855 2.7117362 0 0 0 0 20.167879
1.897835 -2.8917937 2.8900325 0 0 0 0 20.172823
1.9210759 -2.9756312 2.802686 0 0 0 0 20.177771
1.9871196 -2.8961563 2.9365404 0 0 0 0 20.192614
2.0052838 -2.962925 2.8282688 0 0 0 0 20.197561
2.0693748 -2.8874693 2.9721253 0 0 0 0 20.2124
2.0925181 -2.9512391 2.8588321 0 0 0 0 20.217348
2.1769519 -3.0924025 2.8299718 0 0 0 0 20.222296
2.1707256 -2.9019048 3.0345371 0 0 0 0 20.232187
2.1757395 -2.9335284 2.8844359 0 0 0 0 20.237135
2.2651515 -3.0676873 2.8485649 0 0 0 0 20.242083
2.2690561 -2.9063103 3.0889943 0 0 0 0 20.251978
2.2669966 -2.9218626 2.9189768 0 0 0 0 20.256922
2.3553686 -3.0429842 2.870147 0 0 0 0 20.261869
2.7189925 -3.3359156 3.6102567 0 0 0 0 20.271765
2.3672998 -2.9192519 2.9654417 0 0 0 0 20.276712
2.4455853 -3.016278 2.8907349 0 0 0 0 20.28166
2.4706109 -2.9156513 3.0128925 0 0 0 0 20.296499
2.5388279 -2.9905922 2.9163036 0 0 0 0 20.301447
2.489742 -2.8150537 3.1530852 0 0 0 0 20.311342
2.5166993 -2.8427091 2.9908638 0 0 0 0 20.316286
2.6270571 -2.956876 2.9359236 0 0 0 0 20.321234
2.5559499 -2.7732573 3.1658568 0 0 0 0 20.331129
2.562803 -2.7727768 2.9728277 0 0 0 0 20.336077
2.5747929 -2.7703676 2.8017735 0 0 0 0 20.341021
2.5908415 -2.7770057 2.6446719 0 0 0 0 20.345968
2.6050835 -2.7133582 3.1577768 0 0 0 0 20.350916
2.6179492 -2.7129002 2.966712 0 0 0 0 20.355864
2.6369493 -2.7115161 2.7976136 0 0 0 0 20.360811
2.6539857 -2.7121446 2.6355219 0 0 0 0 20.365759
2.6451857 -2.6454108 3.1407716 0 0 0 0 20.370703
2.6640613 -2.6439724 2.9506738 0 0 0 0 20.37565
2.691083 -2.6436212 2.7855251 0 0 0 0 20.380598
2.7171419 -2.6492906 2.6293671 0 0 0 0 20.385546
2.7475636 -2.6378286 3.1982427 0 0 0 0 20.390493
2.7653971 -2.6283598 2.9971716 0 0 0 0 20.395441
2.7943954 -2.6239986 2.8260219 0 0 0 0 20.400385
2.8134058 -2.6156104 2.6549418 0 0 0 0 20.405333
2.8318691 -2.6091385 3.2338758 0 0 0 0 20.41028
2.8667378 -2.608743 3.0426805 0 0 0 0 20.415228
2.8896909 -2.5933323 2.8585954 0 0 0 0 20.420176
2.9257271 -2.5950146 2.6963887 0 0 0 0 20.425123
2.9904978 -2.6448715 3.3539052 0 0 0 0 20.430067
3.0232947 -2.6344268 3.1457484 0 0 0 0 20.435015
3.0622554 -2.6250708 2.9655528 0 0 0 0 20.439962
3.0942376 -2.6167061 2.7893965 0 0 0 0 20.44491
3.0768216 -2.6111875 3.3905418 0 0 0 0 20.449858
3.1206317 -2.6027811 3.1853149 0 0 0 0 20.454802
3.1645839 -2.5904317 3.0020978 0 0 0 0 20.459749
3.2045667 -2.5820892 2.8258944 0 0 0 0 20.464697
3.3137805 -2.6973376 3.5899837 0 0 0 0 20.469645
3.3544917 -2.6758642 3.3618088 0 0 0 0 20.474592
3.3883357 -2.6474204 3.152693 0 0 0 0 20.47954
3.4132099 -2.6189647 2.9486306 0 0 0 0 20.484484
3.3489001 -2.6153636 3.5700488 0 0 0 0 20.489431
3.4267454 -2.6140747 3.3736036 0 0 0 0 20.494379
3.4836569 -2.5977385 3.1813211 0 0 0 0 20.499327
3.5606785 -2.6015289 3.0168688 0 0 0 0 20.504274
3.509546 -2.6260743 3.6821377 0 0 0 0 20.509222
3.6003835 -2.6258187 3.4846141 0 0 0 0 20.514166
3.6813326 -2.617574 3.3021698 0 0 0 0 20.519114
3.7583003 -2.6113286 3.1237442 0 0 0 0 20.524061
3.6059325 -2.585433 3.726738 0 0 0 0 20.529009
3.7619884 -2.6214945 3.5827386 0 0 0 0 20.533957
3.8709924 -2.6213601 3.4131093 0 0 0 0 20.538904
3.9669762 -2.6201797 3.2395594 0 0 0 0 20.543848
3.8549573 -2.6456068 3.9261854 0 0 0 0 20.548796
3.9798169 -2.646455 3.7324603 0 0 0 0 20.553743
4.0977917 -2.6423271 3.5557892 0 0 0 0 20.558691
4.5638433 -2.8608868 3.6645067 0 0 0 0 20.563639
4.0790091 -2.678169 4.0971045 0 0 0 0 20.934671
4.570178 -2.8978004 4.2257423 0 0 0 0 20.939619
4.7120652 -2.8886826 4.0279608 0 0 0 0 20.944567
4.8319116 -2.8714786 3.8193271 0 0 0 0 20.949514
4.6423168 -2.9129071 4.6023498 0 0 0 0 20.954462
4.8191104 -2.9108498 4.3913503 0 0 0 0 20.959406
4.9780059 -2.8987768 4.1934795 0 0 0 0 20.964354
5.1579685 -2.9028068 4.0144482 0 0 0 0 20.969301
4.8883305 -2.9309886 4.7849641 0 0 0 0 20.974249
5.0881319 -2.9259915 4.5738411 0 0 0 0 20.979197
5.2820778 -2.9170358 4.3857627 0 0 0 0 20.984144
5.353652 -2.8495271 4.1065326 0 0 0 0 20.989088
5.1534219 -2.9471493 4.9804769 0 0 0 0 20.994036
5.2557988 -2.8736308 4.664084 0 0 0 0 20.998983
5.3082361 -2.7779799 4.3480334 0 0 0 0 21.003931
5.3567624 -2.690366 4.0509863 0 0 0 0 21.008879
5.2056589 -2.8372309 4.9705257 0 0 0 0 21.013823
5.2678885 -2.7335072 4.6144381 0 0 0 0 21.01877
5.3203664 -2.6318672 4.302402 0 0 0 0 21.023718
5.3779426 -2.5453002 4.0142999 0 0 0 0 21.028666
5.2167373 -2.7071114 4.9238591 0 0 0 0 21.033613
5.2759833 -2.5933759 4.565814 0 0 0 0 21.038561
5.3355083 -2.4917748 4.2617378 0 0 0 0 21.043505
5.3870897 -2.3951826 3.9696949 0 0 0 0 21.048452
5.2238116 -2.5759792 4.8762183 0 0 0 0 21.0534
5.2921224 -2.4622955 4.5291209 0 0 0 0 21.058348
5.3436413 -2.3506589 4.2191157 0 0 0 0 21.063295
5.4002662 -2.2510955 3.9330516 0 0 0 0 21.068243
5.2439389 -2.4549165 4.8424773 0 0 0 0 21.073187
5.3052521 -2.3302023 4.4904475 0 0 0 0 21.078135
5.3487735 -2.2095356 4.1765099 0 0 0 0 21.083082
5.4054275 -2.1059802 3.8934557 0 0 0 0 21.08803
5.2500248 -2.3277917 4.798831 0 0 0 0 21.092978
5.3123722 -2.1970887 4.44981 0 0 0 0 21.097925
5.3679633 -2.0764837 4.1478033 0 0 0 0 21.102869
5.4246435 -1.9679338 3.8667612 0 0 0 0 21.107817
5.2551184 -2.2016697 4.7571874 0 0 0 0 21.112764
5.323513 -2.0690005 4.4151368 0 0 0 0 21.117712
5.3741212 -1.9403806 4.1121783 0 0 0 0 21.12266
5.4268208 -1.8248206 3.831176 0 0 0 0 21.127604
5.2642303 -2.0795705 4.7205095 0 0 0 0 21.132551
5.3346705 -1.9409195 4.3834624 0 0 0 0 21.137499
5.385304 -1.8073053 4.0825162 0 0 0 0 21.142447
5.4430408 -1.6887716 3.806493 0 0 0 0 21.147394
5.2773671 -1.9604968 4.6898022 0 0 0 0 21.152342
5.3448238 -1.8138362 4.3517909 0 0 0 0 21.157286
5.3914833 -1.6752172 4.0528803 0 0 0 0 21.162233
5.4382205 -1.5486453 3.7729387 0 0 0 0 21.167181
5.2764478 -1.836357 4.6471853 0 0 0 0 21.172129
5.3539891 -1.6887577 4.3231201 0 0 0 0 21.177076
5.4006743 -1.5451443 4.0262208 0 0 0 0 21.182024
5.4504542 -1.4155957 3.7522697 0 0 0 0 21.186968
5.2916188 -1.7213084 4.624455 0 0 0 0 21.191916
5.3571477 -1.5636612 4.2934823 0 0 0 0 21.196863
5.4128904 -1.418094 4.0055366 0 0 0 0 21.201811
5.4566803 -1.2805254 3.7296391 0 0 0 0 21.206758
5.3027797 -1.6052444 4.5997496 0 0 0 0 21.211706
5.3592997 -1.4385598 4.2628503 0 0 0 0 21.21665
5.4080591 -1.2869749 3.9749584 0 0 0 0 21.221598
5.4619184 -1.14746 3.7100086 0 0 0 0 21.226545
5.3018804 -1.4861199 4.5631185 0 0 0 0 21.231493
5.3755174 -1.3185291 4.2461247 0 0 0 0 21.236441
5.4243078 -1.1619524 3.9612453 0 0 0 0 21.241388
5.4651527 -1.0153894 3.6903863 0 0 0 0 21.246332
5.3140574 -1.3720684 4.5424013 0 0 0 0 21.25128
5.3816996 -1.1964555 4.2224607 0 0 0 0 21.256227
5.4194932 -1.0328435 3.9346604 0 0 0 0 21.261175
5.4724112 -0.88434172 3.6757379 0 0 0 0 21.266123
5.319211 -1.2559867 4.5167279 0 0 0 0 21.271067
5.3869009 -1.075389 4.2027993 0 0 0 0 21.276014
5.4247227 -0.90778506 3.9180086 0 0 0 0 21.280962
5.4786782 -0.75429618 3.6630921 0 0 0 0 21.28591
5.3243728 -1.1409099 4.4930515 0 0 0 0 21.290857
5.3961167 -0.95534039 4.1861124 0 0 0 0 21.295805
5.4329748 -0.78274429 3.9053388 0 0 0 0 21.300749
5.4759293 -0.62322009 3.6474993 0 0 0 0 21.305696
5.3436022 -1.0299035 4.4832854 0 0 0 0 21.310644
5.404345 -0.8362965 4.1724281 0 0 0 0 21.315592
5.4322028 -0.65767044 3.8887196 0 0 0 0 21.320539
5.4932594 -0.49623486 3.6477828 0 0 0 0 21.325487
5.3387423 -0.9137913 4.455667 0 0 0 0 21.330431
5.4105644 -0.71624255 4.1567564 0 0 0 0 21.335379
5.4404759 -0.53464186 3.8810437 0 0 0 0 21.340326
5.4945345 -0.3661814 3.6371632 0 0 0 0 21.345274
5.3489442 -0.80174959 4.4409533 0 0 0 0 21.350222
5.4017434 -0.59613293 4.1341696 0 0 0 0 21.355169
5.4547763 -0.41164091 3.8783333 0 0 0 0 21.360113
5.498837 -0.2381503 3.6325212 0 0 0 0 21.365061
5.3571544 -0.68870515 4.4272528 0 0 0 0 21.370008
5.410995 -0.47810394 4.1254749 0 0 0 0 21.374956
5.450016 -0.28756428 3.864732 0 0 0 0 21.379904
5.5081744 -0.10914666 3.6338527 0 0 0 0 21.384848
5.3573265 -0.57462317 4.4065995 0 0 0 0 21.389795
5.4182544 -0.35907218 4.1177936 0 0 0 0 21.394743
5.4593277 -0.16355525 3.8640511 0 0 0 0 21.399691
5.5165138 0.018857216 3.6361868 0 0 0 0 21.404638
5.3505573 -0.46097001 4.3839917 0 0 0 0 21.126921
5.4235663 -0.24047807 4.1091318 0 0 0 0 21.131868
5.4726968 -0.040999867 3.8653572 0 0 0 0 21.136816
5.5148568 0.14747182 3.6315949 0 0 0 0 21.141764
5.3708558 -0.34999663 4.386219 0 0 0 0 21.146711
5.4258275 -0.12243332 4.1014795 0 0 0 0 21.151659
5.4750066 0.082029566 3.8637166 0 0 0 0 21.156603
5.5192132 0.27548072 3.6359549 0 0 0 0 21.161551
5.3801084 -0.23697211 4.3795142 0 0 0 0 21.166498
5.4280992 -0.0043935296 4.0958266 0 0 0 0 21.171446
5.4833484 0.20502855 3.868041 0 0 0 0 21.176394
5.5175691 0.40550783 3.639353 0 0 0 0 21.181341
5.3682747 -0.12385572 4.3579292 0 0 0 0 21.186285
5.4313898 0.11463624 4.0931692 0 0 0 0 21.191233
5.476644 0.33008891 3.8634555 0 0 0 0 21.19618
5.5189319 0.53452218 3.644731 0 0 0 0 21.201128
5.3725252 -0.010818202 4.3512511 0 0 0 0 21.206076
5.4377017 0.23364837 4.0944948 0 0 0 0 21.211023
5.4779811 0.45410869 3.8668211 0 0 0 0 21.215967
5.5223279 0.66551906 3.6551018 0 0 0 0 21.220915
5.3818054 0.10319401 4.3495474 0 0 0 0 21.225863
5.4379988 0.35368356 4.0928559 0 0 0 0 21.23081
5.4753108 0.57814133 3.8692086 0 0 0 0 21.235758
5.5317497 0.79648817 3.6704378 0 0 0 0 21.240702
5.3800402 0.21725452 4.3399053 0 0 0 0 21.245649
5.4373059 0.47371638 4.0932221 0 0 0 0 21.250597
5.4867244 0.70610571 3.8845255 0 0 0 0 21.255545
5.5231261 0.92752379 3.6778753 0 0 0 0 21.260492
5.3963776 0.3322241 4.3481627 0 0 0 0 21.26544
5.4506783 0.59568596 4.1045132 0 0 0 0 21.270384
5.485086 0.83212358 3.8919108 0 0 0 0 21.275331
5.5335898 1.0624758 3.6992137 0 0 0 0 21.280279
5.3986659 0.4482522 4.3475013 0 0 0 0 21.285227
5.4560394 0.71768129 4.1138492 0 0 0 0 21.290174
5.4945073 0.96008855 3.9092379 0 0 0 0 21.295122
5.5350246 1.1954612 3.7165978 0 0 0 0 21.300066
5.3838749 0.56235605 4.333931 0 0 0 0 21.305014
5.4563851 0.84069699 4.1202149 0 0 0 0 21.309961
5.4979196 1.089074 3.9246008 0 0 0 0 21.314909
5.5374889 1.331434 3.7379827 0 0 0 0 21.319857
5.407279 0.6822834 4.352159 0 0 0 0 21.324804
5.4557347 0.96371287 4.1275859 0 0 0 0 21.329748
5.4933157 1.2190876 3.9370105 0 0 0 0 21.334696
5.5339375 1.4664276 3.7573984 0 0 0 0 21.339643
5.3995476 0.79834461 4.3485527 0 0 0 0 21.344591
5.4561086 1.0877165 4.1389527 0 0 0 0 21.349539
5.4947472 1.3500711 3.9553881 0 0 0 0 21.354483
5.5364289 1.6053911 3.782789 0 0 0 0 21.35943
5.3988624 0.91737074 4.351913 0 0 0 0 21.364378
5.4605145 1.2156999 4.1543059 0 0 0 0 21.369326
5.4971986 1.4830449 3.976764 0 0 0 0 21.374273
5.5349212 1.745365 3.8082039 0 0 0 0 21.379221
5.4072342 1.0393517 4.3642292 0 0 0 0 21.384165
5.4588985 1.3427064 4.1666899 0 0 0 0 21.389112
5.4886189 1.6150591 3.9931984 0 0 0 0 21.39406
5.5304203 1.8863444 3.8346372 0 0 0 0 21.399008
5.4095855 1.1603556 4.3735757 0 0 0 0 21.403955
5.4573016 1.4707056 4.1820755 0 0 0 0 21.408903
5.4941177 1.7520083 4.0215659 0 0 0 0 21.413847
5.5309563 2.0292964 3.8670461 0 0 0 0 21.418795
5.4129658 1.2843472 4.3869238 0 0 0 0 21.423742
5.4627557 1.6016674 4.2054281 0 0 0 0 21.42869
5.4946036 1.8889754 4.0479603 0 0 0 0 21.433638
5.5274963 2.1742587 3.8994818 0 0 0 0 21.438585
5.4153419 1.4093438 4.3992786 0 0 0 0 21.443529
5.4581804 1.7326671 4.2238359 0 0 0 0 21.448477
5.4890876 2.0279605 4.0733924 0 0 0 0 21.453424
5.5371194 2.326159 3.9438601 0 0 0 0 21.458372
5.4157305 1.5353409 4.4136467 0 0 0 0 21.46332
5.451601 1.8646743 4.2412572 0 0 0 0 21.468264
5.4946446 2.1718905 4.1097741 0 0 0 0 21.473211
5.5246553 2.4731472 3.9753492 0 0 0 0 21.478159
5.4121122 1.6613507 4.4270368 0 0 0 0 21.483107
5.4530883 2.0016372 4.2686443 0 0 0 0 21.488054
5.4881635 2.3148663 4.1402197 0 0 0 0 21.493002
5.524272 2.6260757 4.0187845 0 0 0 0 21.497946
5.4235992 1.796286 4.4553638 0 0 0 0 21.502893
5.4485607 2.1376202 4.2940626 0 0 0 0 21.507841
5.4726453 2.4548769 4.1657081 0 0 0 0 21.512789
5.5208998 2.7820098 4.0632429 0 0 0 0 21.517736
5.4099526 1.9233334 4.4638104 0 0 0 0 21.522684
5.44908 2.2795758 4.3254657 0 0 0 0 21.527628
5.4792757 2.6077812 4.2121029 0 0 0 0 21.532576
5.51755 2.9409368 4.1107078 0 0 0 0 21.537523
5.4104061 2.0573092 4.4871945 0 0 0 0 21.542471
5.4496198 2.4235249 4.3598728 0 0 0 0 21.547419
5.4798956 2.7617056 4.2565331 0 0 0 0 21.552366
5.5082011 3.1008794 4.1582069 0 0 0 0 21.55731
5.4179215 2.1962452 4.5195508 0 0 0 0 21.562258
5.4491739 2.5694714 4.3962893 0 0 0 0 21.567205
5.4775248 2.9156332 4.3029795 0 0 0 0 21.572153
5.5079255 3.268775 4.2156744 0 0 0 0 21.577101
5.4194179 2.3372066 4.5479445 0 0 0 0 21.582045
5.4437232 2.7164333 4.431736 0 0 0 0 21.586992
5.4792023 3.0785387 4.354424 0 0 0 0 21.59194
5.5046587 3.4386764 4.2741618 0 0 0 0 21.596888
5.4030728 2.471832 4.564642 0 0 0 0 21.350924
5.4476042 2.870939 4.4773784 0 0 0 0 21.355871
5.4701056 3.2370782 4.4001584 0 0 0 0 21.360815
5.4936624 3.6091981 4.3299465 0 0 0 0 21.365763
5.4237437 2.6276875 4.6159678 0 0 0 0 21.37071
5.4462376 3.027868 4.5218296 0 0 0 0 21.375658
5.4617958 3.4010081 4.4516649 0 0 0 0 21.380606
5.4904871 3.7890732 4.3984628 0 0 0 0 21.38555
5.4172721 2.7746639 4.6464238 0 0 0 0 21.390497
5.4298029 3.1788578 4.5573511 0 0 0 0 21.395445
5.4605622 3.5738959 4.5131536 0 0 0 0 21.400393
5.4853363 3.9749496 4.4690037 0 0 0 0 21.40534
5.4098268 2.9236331 4.6808891 0 0 0 0 21.410288
5.4375525 3.3497276 4.6167836 0 0 0 0 21.415232
5.4492912 3.7438219 4.5696893 0 0 0 0 21.420179
5.4691424 4.1558661 4.5345931 0 0 0 0 21.425127
5.4134665 3.0825479 4.726316 0 0 0 0 21.430075
5.4252071 3.5106783 4.6643038 0 0 0 0 21.435022
5.4440994 3.923708 4.6362143 0 0 0 0 21.43997
5.4711123 4.3556857 4.6211257 0 0 0 0 21.444914
5.4100909 3.2404854 4.7697787 0 0 0 0 21.449862
5.4209466 3.683584 4.7218065 0 0 0 0 21.454809
5.4409566 4.1105752 4.708744 0 0 0 0 21.459757
5.4630728 4.5575366 4.7057185 0 0 0 0 21.464705
5.4037371 3.4034259 4.8152695 0 0 0 0 21.469652
5.4277902 3.8674283 4.7932734 0 0 0 0 21.474596
5.4378576 4.3044305 4.7862897 0 0 0 0 21.479544
5.4560742 4.7653732 4.7953181 0 0 0 0 21.484491
5.4004245 3.5723469 4.8657565 0 0 0 0 21.489439
5.4205871 4.0493259 4.8578129 0 0 0 0 21.494387
5.4307742 4.5012913 4.8658638 0 0 0 0 21.499331
5.4440861 4.9762201 4.8859525 0 0 0 0 21.504278
5.3981647 3.7472486 4.9232516 0 0 0 0 21.509226
5.4043489 4.2292581 4.9173965 0 0 0 0 21.514174
5.4267669 4.7091231 4.9544458 0 0 0 0 21.519121
5.440238 5.2060065 4.9935856 0 0 0 0 21.524069
5.3929067 3.9261606 4.9797716 0 0 0 0 21.529013
5.4062901 4.4300895 4.9999285 0 0 0 0 21.53396
5.4147372 4.9159832 5.0400691 0 0 0 0 21.538908
5.4233327 5.4298429 5.0942755 0 0 0 0 21.543856
5.3957605 4.1170163 5.0512748 0 0 0 0 21.548803
5.3921537 4.6259885 5.071537 0 0 0 0 21.553751
5.4118447 5.1407795 5.142684 0 0 0 0 21.558695
5.4145555 5.6726232 5.2099652 0 0 0 0 21.563643
5.3845439 4.3029318 5.112843 0 0 0 0 21.56859
5.3851237 4.8338361 5.1571336 0 0 0 0 21.573538
5.3948894 5.3596311 5.237361 0 0 0 0 21.578485
5.3907261 5.9094567 5.3197222 0 0 0 0 21.583433
5.3794136 4.4998064 5.1854029 0 0 0 0 21.588377
5.3852034 5.0576353 5.2557282 0 0 0 0 21.593325
5.3850598 5.5984316 5.346045 0 0 0 0 21.598272
5.3810873 6.1721992 5.4524617 0 0 0 0 21.60322
5.3733335 4.7066717 5.2629914 0 0 0 0 21.608168
5.371223 5.2764893 5.3463879 0 0 0 0 21.613115
5.3692536 5.8392382 5.4587655 0 0 0 0 21.618059
5.3705263 6.4499259 5.5932412 0 0 0 0 21.623007
5.3652859 4.9185324 5.3446007 0 0 0 0 21.627954
5.3593302 5.509315 5.4470677 0 0 0 0 21.632902
5.3676343 6.106957 5.5934715 0 0 0 0 21.63785
5.3519831 6.7296662 5.7370672 0 0 0 0 21.642794
5.3562989 5.1403794 5.433239 0 0 0 0 21.647741
5.3505225 5.7531071 5.5587559 0 0 0 0 21.652689
5.3428922 6.3627729 5.712275 0 0 0 0 21.657637
5.339601 7.0333471 5.8999157 0 0 0 0 21.662584
5.3513947 5.3741922 5.5318818 0 0 0 0 21.667532
5.3337321 6.0029168 5.6715007 0 0 0 0 21.672476
5.3273277 6.6425133 5.8530831 0 0 0 0 21.677423
5.3192511 7.3450408 6.0658255 0 0 0 0 21.682371
5.3364735 5.6090384 5.6275806 0 0 0 0 21.687319
5.3180127 6.2647057 5.7922668 0 0 0 0 21.692266
5.3108416 6.935236 6.0029263 0 0 0 0 21.697214
5.297998 7.6707091 6.2437716 0 0 0 0 21.702158
5.3196015 5.8518753 5.7293077 0 0 0 0 21.707106
5.3064256 6.5454464 5.9290543 0 0 0 0 21.712053
5.2894096 7.237957 6.1588182 0 0 0 0 21.717001
5.2526193 7.9814734 6.4068131 0 0 0 0 21.721949
5.3199739 6.129601 5.8600225 0 0 0 0 21.726896
5.2868495 6.8302064 6.0668931 0 0 0 0 21.73184
5.276185 7.5726013 6.3387399 0 0 0 0 21.736788
5.2387109 8.3610306 6.6248441 0 0 0 0 21.741735
5.3073101 6.4053712 5.9858027 0 0 0 0 21.746683
5.2764783 7.1458864 6.2287545 0 0 0 0 21.751631
5.2620716 7.9252181 6.5317082 0 0 0 0 21.756575
5.2432017 8.8034363 6.8879213 0 0 0 0 21.761522
5.2846437 6.6841702 6.1106434 0 0 0 0 21.76647
5.257134 7.4695845 6.3926821 0 0 0 0 21.771418
5.2248654 8.2669191 6.7137742 0 0 0 0 21.776365
5.0565906 8.9368868 6.9103079 0 0 0 0 21.781313
5.2802544 7.0028453 6.2684774 0 0 0 0 21.786257
5.2419562 7.8182259 6.5766435 0 0 0 0 21.791204
5.1857853 8.6305923 6.9099007 0 0 0 0 21.796152
4.8103008 8.965663 6.8567686 0 0 0 0 21.8011
5.2406373 7.2956777 6.3974404 0 0 0 0 21.806047
5.2036753 8.1559563 6.7477045 0 0 0 0 21.810995
4.9768257 8.7212009 6.8883042 0 0 0 0 21.815939
4.5791674 9.0153551 6.8221931 0 0 0 0 21.820887
5.2209463 7.6346383 6.5657382 0 0 0 0 21.971048
5.1378064 8.4760723 6.901186 0 0 0 0 21.975996
4.7380815 8.7572279 6.8300281 0 0 0 0 21.98094
4.345511 9.0503111 6.7818584 0 0 0 0 21.985888
5.2017608 7.9962993 6.7477407 0 0 0 0 21.990835
4.9338274 8.5726728 6.8735628 0 0 0 0 21.995783
4.5291238 8.8428183 6.8114023 0 0 0 0 22.000731
5.1514077 8.3380852 6.908864 0 0 0 0 22.010622
4.7086067 8.6303873 6.8189597 0 0 0 0 22.01557
3.5689974 7.3789773 5.6141911 0 0 0 0 22.020517
4.9392986 8.4257507 6.8612604 0 0 0 0 22.030413
4.5077167 8.7349463 6.8043318 0 0 0 0 22.035357
4.1051297 8.9890137 6.7711158 0 0 0 0 22.040304
4.7393475 8.5363417 6.832643 0 0 0 0 22.0502
4.2926273 8.8045864 6.7686958 0 0 0 0 22.055147
3.8545847 8.9738445 6.6894689 0 0 0 0 22.060095
4.5353746 8.6379395 6.8040223 0 0 0 0 22.069986
3.3356936 8.2774801 6.1086679 0 0 0 0 22.079882
3.1882102 9.1217766 6.5704522 0 0 0 0 22.084829
4.3324223 8.7395239 6.7793932 0 0 0 0 22.089777
3.4183469 9.0621014 6.6300941 0 0 0 0 22.099669
2.9659967 9.133419 6.5377059 0 0 0 0 22.104616
3.3466563 8.2654648 6.1246367 0 0 0 0 22.114511
3.1930683 9.0757818 6.5843692 0 0 0 0 22.119459
2.699805 8.9854193 6.3948197 0 0 0 0 22.124403
3.4232051 9.0431356 6.6320767 0 0 0 0 22.134298
2.9677982 9.0884542 6.5406394 0 0 0 0 22.139246
2.4794745 8.9700747 6.3519955 0 0 0 0 22.144194
3.3987424 8.2783222 6.1524429 0 0 0 0 22.149141
3.1959243 9.0668306 6.5813837 0 0 0 0 22.154085
2.7016199 8.951458 6.3947768 0 0 0 0 22.159033
2.2621608 8.9547129 6.3121514 0 0 0 0 22.16398
3.4752357 9.0600204 6.6498899 0 0 0 0 22.168928
2.9808552 9.1204329 6.5566916 0 0 0 0 22.173876
2.4843364 8.9531031 6.352973 0 0 0 0 22.17882
2.0488534 8.937336 6.2742786 0 0 0 0 22.183767
3.2490215 9.1047029 6.6022372 0 0 0 0 22.188715
2.713695 8.994441 6.4088573 0 0 0 0 22.193663
2.270103 8.9597206 6.318161 0 0 0 0 22.19861
1.8385504 8.9169455 6.2383804 0 0 0 0 22.203558
3.0228055 9.1463823 6.5555749 0 0 0 0 22.208502
2.4934523 9.0130901 6.3671064 0 0 0 0 22.213449
2.0568552 8.9603348 6.2833281 0 0 0 0 22.218397
1.6281692 8.8815708 6.1944451 0 0 0 0 22.223345
2.7578363 9.0633459 6.4238267 0 0 0 0 22.228292
2.2741678 9.0207424 6.3223219 0 0 0 0 22.23324
1.8425473 8.9489632 6.2424693 0 0 0 0 22.238184
1.4208077 8.8451777 6.154489 0 0 0 0 22.243132
2.5366776 9.1059847 6.3871336 0 0 0 0 22.248079
2.055943 9.0353708 6.2855444 0 0 0 0 22.253027
1.6322893 8.9425631 6.2085986 0 0 0 0 22.257975
1.2154454 8.8057766 6.1155128 0 0 0 0 22.262922
2.3144925 9.1396255 6.349422 0 0 0 0 22.267866
1.8407277 9.0469837 6.2517419 0 0 0 0 22.272814
1.4188495 8.9022141 6.155663 0 0 0 0 22.277761
1.0151632 8.7773371 6.0865326 0 0 0 0 22.282709
2.0913103 9.1722641 6.3127103 0 0 0 0 22.287657
1.6234396 9.0436144 6.2109122 0 0 0 0 22.292601
1.2105458 8.8828115 6.1187463 0 0 0 0 22.297548
0.81787992 8.7458868 6.0585275 0 0 0 0 22.302496
1.8670636 9.1889153 6.2709646 0 0 0 0 22.307444
1.4060915 9.0282583 6.1640534 0 0 0 0 22.312391
1.0073534 8.8763618 6.0968304 0 0 0 0 22.317339
0.61949891 8.6954594 6.0204816 0 0 0 0 22.322283
1.6438333 9.205554 6.2322106 0 0 0 0 22.32723
1.1939079 9.0348396 6.1382146 0 0 0 0 22.332178
0.80098921 8.8399611 6.0558591 0 0 0 0 22.337126
0.4250384 8.6290407 5.9743757 0 0 0 0 22.342073
1.4196247 9.2221842 6.1974587 0 0 0 0 22.347021
0.98061895 9.0214453 6.1013331 0 0 0 0 22.351965
0.59969264 8.8115253 6.0238771 0 0 0 0 22.356913
0.23721533 8.6654339 6.0024695 0 0 0 0 22.36186
1.1963668 9.2268181 6.1586714 0 0 0 0 22.366808
0.7673111 9.0020523 6.0634351 0 0 0 0 22.371756
0.39828637 8.7611141 5.9808421 0 0 0 0 22.376703
0.048156146 8.8256264 6.119853 0 0 0 0 22.381647
0.97310048 9.2254486 6.1208673 0 0 0 0 22.386595
0.55708569 8.9926243 6.0365415 0 0 0 0 22.391542
0.20402038 8.8993845 6.0692024 0 0 0 0 22.39649
-0.14322855 8.7641668 6.0857353 0 0 0 0 22.401438
0.7477724 9.2110949 6.0770416 0 0 0 0 22.406382
0.34662953 8.9412518 5.9845495 0 0 0 0 22.411329
0.0054705041 8.9877348 6.1264672 0 0 0 0 22.416277
-0.3326546 8.6937103 6.0475845 0 0 0 0 22.421225
0.52653646 9.208704 6.0452189 0 0 0 0 22.426172
0.14320421 9.2313337 6.1653028 0 0 0 0 22.43112
-0.1948981 8.9352961 6.0914149 0 0 0 0 22.436064
-0.51811653 8.6142492 6.0063906 0 0 0 0 22.441011
0.30126268 9.1797981 5.9986925 0 0 0 0 23.10084
-0.071060784 9.194335 6.1296177 0 0 0 0 23.105787
-0.397156 8.8762159 6.054575 0 0 0 0 23.110731
-0.70229501 8.5470591 5.9754019 0 0 0 0 23.115679
0.084755011 9.4829054 6.1744657 0 0 0 0 23.120626
-0.28242362 9.1468954 6.0905914 0 0 0 0 23.125574
-0.59254926 8.8117361 6.0164299 0 0 0 0 23.130522
-0.88273525 8.4625483 5.9361358 0 0 0 0 23.135466
-0.14155708 9.4544945 6.137557 0 0 0 0 23.140413
-0.49288493 9.0794754 6.0405154 0 0 0 0 23.145361
-0.78498358 8.737258 5.9742455 0 0 0 0 23.150309
-1.0581715 8.3770218 5.8978405 0 0 0 0 23.155256
-0.36794674 9.4111004 6.0916123 0 0 0 0 23.160204
-0.70020103 9.0340042 6.0094686 0 0 0 0 23.165148
-0.97447324 8.6507845 5.9260178 0 0 0 0 23.170095
-1.2296296 8.28549 5.8575101 0 0 0 0 23.175043
-0.59323353 9.3796682 6.0606866 0 0 0 0 23.179991
-0.90568417 8.9555702 5.9593382 0 0 0 0 23.184938
-1.1628013 8.5892611 5.8988376 0 0 0 0 23.189886
-1.4019883 8.20893 5.830215 0 0 0 0 23.19483
-0.81465405 9.3212605 6.0146785 0 0 0 0 23.199778
-1.1157118 8.9560213 5.9654016 0 0 0 0 23.204725
-1.3472199 8.508749 5.8615937 0 0 0 0 23.209673
-1.5684261 8.116375 5.7938538 0 0 0 0 23.214621
-1.0360917 9.2568502 5.9676561 0 0 0 0 23.219568
-1.3094181 8.8296099 5.8911023 0 0 0 0 23.224512
-1.5306369 8.4262304 5.8253384 0 0 0 0 23.22946
-1.7318547 8.0228081 5.7594733 0 0 0 0 23.234407
-1.2506088 9.1714401 5.9135504 0 0 0 0 23.239355
-1.507838 8.753129 5.8519344 0 0 0 0 23.244303
-1.7061275 8.3277111 5.7810073 0 0 0 0 23.249247
-1.8942535 7.933229 5.7290955 0 0 0 0 23.254194
-1.4699094 9.124979 5.885551 0 0 0 0 23.259142
-1.703244 8.6756334 5.8157473 0 0 0 0 23.26409
-1.8835428 8.2401714 5.746707 0 0 0 0 23.269037
-2.0506947 7.832643 5.6946616 0 0 0 0 23.273985
-1.6814011 9.0385466 5.8364234 0 0 0 0 23.278929
-1.8956503 8.595129 5.7805362 0 0 0 0 23.283876
-2.0549943 8.1446266 5.7083583 0 0 0 0 23.288824
-2.2031543 7.7300544 5.6572027 0 0 0 0 23.293772
-1.8918457 8.9570942 5.7942991 0 0 0 0 23.298719
-2.0841463 8.4956341 5.7352624 0 0 0 0 23.303667
-2.2234409 8.0460682 5.6719866 0 0 0 0 23.308611
-2.3624313 7.6534243 5.6448331 0 0 0 0 23.313559
-2.1002574 8.8786259 5.7571688 0 0 0 0 23.318506
-2.269593 8.4021168 5.6969848 0 0 0 0 23.323454
-2.1749876 7.2271419 5.1229653 0 0 0 0 23.328402
-2.2750392 6.8394456 5.0806279 0 0 0 0 23.333349
-2.3037562 8.7801628 5.7109685 0 0 0 0 23.338293
-2.2214012 7.5202451 5.121829 0 0 0 0 23.343241
-2.3253474 7.1415205 5.0965309 0 0 0 0 23.348188
-2.4142966 6.7657676 5.0691648 0 0 0 0 23.353136
-2.511107 8.7056646 5.6838379 0 0 0 0 23.358084
-2.3917041 7.4476523 5.1015215 0 0 0 0 23.363028
-2.7186658 7.7583256 5.5808287 0 0 0 0 23.367975
-2.54072 6.663106 5.0365734 0 0 0 0 23.372923
-2.4559603 7.7947731 5.1095877 0 0 0 0 23.377871
-2.808953 8.0995083 5.5860085 0 0 0 0 23.382818
-2.8780766 7.6577268 5.5514007 0 0 0 0 23.387766
-2.9400935 7.2399073 5.5278091 0 0 0 0 23.39271
-2.6737587 7.8161483 5.1507154 0 0 0 0 23.397657
-2.9794564 7.9839578 5.5446024 0 0 0 0 23.402605
-3.0354714 7.5571165 5.5249619 0 0 0 0 23.407553
-3.066659 7.107276 5.4801488 0 0 0 0 23.4125
-3.0896509 8.3701801 5.5499735 0 0 0 0 23.417448
-3.1479578 7.8663993 5.50418 0 0 0 0 23.422392
-3.1790285 7.4265175 5.4783883 0 0 0 0 23.42734
-3.2079647 7.0166016 5.466651 0 0 0 0 23.432287
-3.2840815 8.2676592 5.5177102 0 0 0 0 23.437235
-3.3153958 7.7568178 5.4727678 0 0 0 0 23.442183
-3.3343842 7.3288865 5.457943 0 0 0 0 23.44713
-3.0203707 6.2433705 4.91605 0 0 0 0 23.452074
-3.4616659 8.1341381 5.4672947 0 0 0 0 23.457022
-3.4838204 7.6482325 5.4433613 0 0 0 0 23.461969
-3.4768574 7.2082572 5.4233828 0 0 0 0 23.466917
-3.1406922 6.1506577 4.8984451 0 0 0 0 23.471865
-3.6500559 8.0305824 5.4429955 0 0 0 0 23.476809
-3.6521823 7.547626 5.4229703 0 0 0 0 23.481756
-3.6222632 7.0976129 5.3978577 0 0 0 0 23.486704
-3.258019 6.0549374 4.8808179 0 0 0 0 23.491652
-3.8236258 7.8930411 5.3965483 0 0 0 0 23.496599
-3.8037188 7.4130278 5.381422 0 0 0 0 23.501547
-3.7587318 6.9729638 5.3652568 0 0 0 0 23.506491
-3.3753095 5.9642057 4.8682003 0 0 0 0 23.511438
-3.9951463 7.7614789 5.3571024 0 0 0 0 23.516386
-3.9601648 7.2924123 5.3519258 0 0 0 0 23.521334
-3.9080317 6.8762932 5.3547792 0 0 0 0 23.526281
-3.5361433 5.9444318 4.9179492 0 0 0 0 23.531229
-4.1735597 7.6448975 5.3327212 0 0 0 0 23.536173
-4.1066804 7.1567917 5.3143477 0 0 0 0 23.541121
-3.6632841 6.117898 4.8219399 0 0 0 0 23.546068
-3.9534082 6.3344598 5.3158369 0 0 0 0 23.551016
-4.3371034 7.5033169 5.2922115 0 0 0 0 23.555964
-4.2521615 7.025157 5.2817721 0 0 0 0 23.560911
-3.7896016 6.0181856 4.807344 0 0 0 0 23.565855
-4.0668311 6.214746 5.2891316 0 0 0 0 23.570803
-4.4950175 7.3578625 5.2518797 0 0 0 0 23.292757
-3.9957874 6.2638197 4.7690001 0 0 0 0 23.297701
-4.2908435 6.4903922 5.2619734 0 0 0 0 23.302649
-4.1766768 6.0941329 5.266542 0 0 0 0 23.307596
-4.2343082 6.5633836 4.7428346 0 0 0 0 23.312544
-4.1717811 6.2151246 4.7987671 0 0 0 0 23.317492
-4.4123211 6.3587098 5.2312851 0 0 0 0 23.322439
-4.2910352 5.9824033 5.2508631 0 0 0 0 23.327383
-4.8110409 7.0746598 5.1868176 0 0 0 0 23.332331
-4.6779337 6.6313429 5.1991916 0 0 0 0 23.337278
-4.5436754 6.2440109 5.2176819 0 0 0 0 23.342226
-4.3885283 5.8486757 5.2170515 0 0 0 0 23.347174
-4.9496579 6.9110403 5.1421399 0 0 0 0 23.352118
-4.827292 6.5126781 5.186667 0 0 0 0 23.357065
-4.6541796 6.1033063 5.1849174 0 0 0 0 23.362013
-4.4889665 5.7219353 5.1912689 0 0 0 0 23.366961
-5.0852699 6.7464108 5.0984449 0 0 0 0 23.371908
-4.946856 6.3580041 5.1479154 0 0 0 0 23.376856
-4.7755775 5.9785943 5.1662416 0 0 0 0 23.3818
-4.5913472 5.6021814 5.173511 0 0 0 0 23.386747
-5.2357373 6.6037707 5.0738702 0 0 0 0 23.391695
-5.0763307 6.2163243 5.1212397 0 0 0 0 23.396643
-4.8820662 5.8388753 5.135458 0 0 0 0 23.40159
-4.6887646 5.4764266 5.1507139 0 0 0 0 23.406538
-5.3821936 6.4591141 5.0522704 0 0 0 0 23.411482
-5.1938481 6.0656285 5.0894852 0 0 0 0 23.41643
-4.9895248 5.7011461 5.109683 0 0 0 0 23.421377
-4.7722564 5.3386626 5.1178222 0 0 0 0 23.426325
-5.5336075 6.3194542 5.0367045 0 0 0 0 23.431273
-5.3153133 5.9219255 5.064764 0 0 0 0 23.43622
-5.0919905 5.561408 5.0828786 0 0 0 0 23.441164
-4.8745899 5.2228904 5.1070709 0 0 0 0 23.446112
-5.6472449 6.1417747 4.9918685 0 0 0 0 23.451059
-5.436758 5.7782125 5.0440421 0 0 0 0 23.456007
-5.1944237 5.4246578 5.0610795 0 0 0 0 23.460955
-4.9620047 5.09411 5.0852165 0 0 0 0 23.465902
-5.5432758 5.6224875 5.0132198 0 0 0 0 23.475794
-5.2928667 5.2849002 5.0382538 0 0 0 0 23.480742
-4.9451332 4.8643236 4.9616289 0 0 0 0 23.485689
-5.9519506 5.8694086 4.9807568 0 0 0 0 23.490637
-5.6507559 5.4697514 4.9884081 0 0 0 0 23.495581
-5.3843451 5.1391382 5.0103807 0 0 0 0 23.500528
-4.9371433 4.6535239 4.853127 0 0 0 0 23.505476
-6.0247464 5.6586804 4.916646 0 0 0 0 23.510424
-5.7125134 5.2739987 4.9252777 0 0 0 0 23.515371
-5.4251142 4.9513555 4.9411659 0 0 0 0 23.520319
-5.0195103 4.5307174 4.8372617 0 0 0 0 23.525263
-6.1303244 5.4819579 4.8817701 0 0 0 0 23.53021
-5.3505764 4.6655407 4.7721734 0 0 0 0 23.540106
-5.0958819 4.4068995 4.820364 0 0 0 0 23.545053
-4.9779572 4.2356706 3.865402 0 0 0 0 23.550001
-5.4459147 4.5387435 4.76336 0 0 0 0 23.559893
-5.1732502 4.2820811 4.8044691 0 0 0 0 23.56484
-6.3304353 5.1284699 4.819963 0 0 0 0 23.569788
-5.8169856 4.6596355 4.703433 0 0 0 0 23.574736
-5.5223527 4.3969364 4.7404218 0 0 0 0 23.579683
-5.2406502 4.1532516 4.7835164 0 0 0 0 23.584627
-6.2310143 4.8006139 4.6437554 0 0 0 0 23.589575
-5.9292927 4.5258517 4.7036853 0 0 0 0 23.594522
-5.5838685 4.2431197 4.7063842 0 0 0 0 23.59947
-5.31002 4.0264149 4.7675767 0 0 0 0 23.604418
-6.3155541 4.6258335 4.613781 0 0 0 0 23.609362
-5.9928489 4.3570418 4.667623 0 0 0 0 23.614309
-5.3783836 3.8995733 4.7526326 0 0 0 0 23.624205
-6.4488258 4.4870706 4.6231222 0 0 0 0 23.629152
-4.8636017 3.3626833 3.7129521 0 0 0 0 23.6341
-5.7754321 3.9944818 4.7077708 0 0 0 0 23.639044
-5.4377856 3.7677255 4.7316341 0 0 0 0 23.643991
-6.5582156 4.3282914 4.616303 0 0 0 0 23.648939
-6.1388054 4.0374103 4.6186295 0 0 0 0 23.653887
-5.0421166 3.3203485 4.038734 0 0 0 0 23.658834
-5.487226 3.6308687 4.7045755 0 0 0 0 23.663782
-6.5700297 4.1114397 4.5468826 0 0 0 0 23.668726
-6.2132483 3.8805847 4.5996461 0 0 0 0 23.673674
-5.9202075 3.7128067 4.6788564 0 0 0 0 23.678621
-5.0602469 3.193871 4.27455 0 0 0 0 23.683569
-6.6405492 3.9336188 4.5208325 0 0 0 0 23.688517
-6.2767167 3.7197442 4.576601 0 0 0 0 23.693464
-5.9667053 3.5569499 4.6477413 0 0 0 0 23.698408
-5.5870361 3.3631325 4.6614766 0 0 0 0 23.703356
-6.7000918 3.7507803 4.4917188 0 0 0 0 23.708303
-6.3481326 3.5649025 4.5616069 0 0 0 0 23.713251
-5.9972553 3.3960783 4.6075377 0 0 0 0 23.718199
-5.6264863 3.2242579 4.6323657 0 0 0 0 23.723143
-6.7815118 3.5839484 4.4807458 0 0 0 0 23.72809
-6.4075856 3.4030461 4.5415397 0 0 0 0 23.733038
-6.0486789 3.2482071 4.5874634 0 0 0 0 23.737986
-5.7962403 3.1594169 4.7150464 0 0 0 0 23.742933
-6.8420081 3.4050961 4.4586453 0 0 0 0 23.747881
-6.4680114 3.2441828 4.5254846 0 0 0 0 23.752825
-6.1130328 3.1073387 4.5784674 0 0 0 0 23.757772
-5.7640133 2.9835012 4.6345081 0 0 0 0 23.76272
-6.8952303 3.2265272 4.4357562 0 0 0 0 23.507174
-6.5251555 3.085583 4.510623 0 0 0 0 23.512121
-6.1581769 2.9597011 4.5595374 0 0 0 0 23.517065
-5.8061318 2.8488367 4.6155601 0 0 0 0 23.522013
-6.9656496 3.0556688 4.427721 0 0 0 0 23.52696
-6.5785999 2.9237099 4.4935255 0 0 0 0 23.531908
-6.1986275 2.8088155 4.5364027 0 0 0 0 23.536856
-5.8544788 2.7189438 4.6045108 0 0 0 0 23.5418
-7.0151401 2.8757896 4.4085631 0 0 0 0 23.546747
-6.6170759 2.7578158 4.4713464 0 0 0 0 23.551695
-6.2509904 2.6659243 4.5273433 0 0 0 0 23.556643
-5.8878937 2.5820425 4.5823736 0 0 0 0 23.56159
-7.0397086 2.6888852 4.3762679 0 0 0 0 23.566538
-6.6535497 2.591917 4.4491572 0 0 0 0 23.571482
-6.2864161 2.5160189 4.5081863 0 0 0 0 23.576429
-5.9252639 2.4491341 4.5672646 0 0 0 0 23.581377
-7.0891595 2.5119922 4.3631177 0 0 0 0 23.586325
-6.7945766 2.4670808 4.5005713 0 0 0 0 23.591272
-6.56778 2.458252 4.6664357 0 0 0 0 23.59622
-6.2045145 2.4103327 4.7405467 0 0 0 0 23.601164
-7.4095874 2.4253039 4.5204926 0 0 0 0 23.606112
-6.9943714 2.3562791 4.5933032 0 0 0 0 23.611059
-6.6041961 2.3053408 4.6502762 0 0 0 0 23.616007
-6.228951 2.2664151 4.7163496 0 0 0 0 23.620955
-7.4510512 2.2413926 4.5072865 0 0 0 0 23.625902
-7.0258379 2.1853616 4.5740786 0 0 0 0 23.630846
-6.6306381 2.1484168 4.6300592 0 0 0 0 23.635794
-6.2603312 2.1274929 4.7011976 0 0 0 0 23.640741
-7.0642495 2.0184391 4.5638976 0 0 0 0 23.650637
-6.6690187 1.9964961 4.6199121 0 0 0 0 23.655581
-6.2946959 1.9885699 4.6890607 0 0 0 0 23.660528
-0.49614182 0.12284956 0.26268107 0 0 0 0 23.665476
-7.0906982 1.8475043 4.5476489 0 0 0 0 23.670424
-6.7023935 1.8445628 4.6107411 0 0 0 0 23.675371
-6.320075 1.8486344 4.6738782 0 0 0 0 23.680319
-7.1280808 1.6815685 4.5424657 0 0 0 0 23.69021
-6.7387595 1.691631 4.6035829 0 0 0 0 23.695158
-6.3643675 1.7147059 4.6738009 0 0 0 0 23.700106
-0.49915788 0.098846093 0.26170692 0 0 0 0 23.705053
-7.1465192 1.5116146 4.5271821 0 0 0 0 23.710001
-6.7571721 1.5366808 4.5873332 0 0 0 0 23.714945
-6.3847466 1.5737597 4.6585927 0 0 0 0 23.719893
-7.1569743 1.3396502 4.5088558 0 0 0 0 23.729788
-6.7845349 1.3837299 4.5801315 0 0 0 0 23.734735
