# .PCD v0.7 - Point Cloud Data file format
VERSION 0.7
FIELDS x y z normal_x normal_y normal_z intensity curvature
SIZE 4 4 4 4 4 4 4 4
TYPE F F F F F F F F
COUNT 1 1 1 1 1 1 1 1
WIDTH 976
HEIGHT 1
VIEWPOINT 0 0 0 1 0 0 0
POINTS 976
DATA ascii
-3.3504329 3.8651125 5.3816772 0 0 0 0 25.55393
-3.265712 3.5305276 5.3770485 0 0 0 0 25.558876
-3.1620686 3.1868279 5.3633685 0 0 0 0 25.563824
-3.5215967 4.1452322 5.3844113 0 0 0 0 25.568771
-3.4301043 3.7806203 5.3657279 0 0 0 0 25.573719
-3.3274136 3.4419208 5.357058 0 0 0 0 25.578665
-3.2216463 3.1101844 5.3613915 0 0 0 0 25.583612
-3.6043918 4.0477781 5.3524494 0 0 0 0 25.588558
-3.4959002 3.6820533 5.3337312 0 0 0 0 25.593506
-3.3881185 3.3523054 5.3370638 0 0 0 0 25.598454
-3.2633786 3.017451 5.3353553 0 0 0 0 25.603401
-3.6901469 3.9533308 5.3284974 0 0 0 0 25.608347
-3.5755446 3.5985463 5.3247828 0 0 0 0 25.613293
-3.447799 3.2646756 5.3210697 0 0 0 0 25.61824
-3.3070686 2.9287214 5.3153286 0 0 0 0 25.623188
-3.769923 3.8558431 5.3025289 0 0 0 0 25.628136
-3.6393344 3.4989576 5.2957802 0 0 0 0 25.633083
-3.5025136 3.1730173 5.3000603 0 0 0 0 25.638029
-3.3527124 2.8439929 5.3033109 0 0 0 0 25.642975
-3.8457375 3.7533317 5.2725458 0 0 0 0 25.647923
-3.7050734 3.4043701 5.2737875 0 0 0 0 25.65287
-3.5592036 3.0833652 5.2830577 0 0 0 0 25.657818
-3.3993406 2.7602656 5.2942972 0 0 0 0 25.662764
-3.9235139 3.6538212 5.2495694 0 0 0 0 25.667711
-3.7757597 3.3137989 5.2628112 0 0 0 0 25.672657
-3.6118948 2.9926832 5.267045 0 0 0 0 25.677605
-3.4469447 2.6785376 5.2892876 0 0 0 0 25.682552
-4.0052423 3.5583229 5.2356071 0 0 0 0 25.6875
-3.8355143 3.2161689 5.2398019 0 0 0 0 25.692446
-3.6616008 2.8999822 5.2490239 0 0 0 0 25.697393
-3.4816318 2.5887439 5.2682409 0 0 0 0 25.702339
-4.0770388 3.4547679 5.2126131 0 0 0 0 25.707287
-3.8952661 3.1175325 5.2197914 0 0 0 0 25.712234
-3.7172437 2.8133056 5.2410226 0 0 0 0 25.717182
-3.5202777 2.5019631 5.2562065 0 0 0 0 25.722128
-4.1408792 3.3461668 5.1825957 0 0 0 0 25.727074
-3.9599609 3.0239139 5.2097974 0 0 0 0 25.732021
-3.7599695 2.7175593 5.2199831 0 0 0 0 25.736969
-3.5539374 2.4141548 5.2391605 0 0 0 0 25.741917
-4.21662 3.2466187 5.1706147 0 0 0 0 25.746864
-4.012732 2.9222317 5.186769 0 0 0 0 25.75181
-3.8056664 2.6238234 5.2049522 0 0 0 0 25.756756
-3.5865905 2.3263364 5.224113 0 0 0 0 25.761703
-4.2853985 3.1420274 5.154613 0 0 0 0 25.766651
-4.0605259 2.8175189 5.1607261 0 0 0 0 25.771599
-3.8483627 2.5300672 5.1889148 0 0 0 0 25.776545
-3.6281707 2.2445555 5.2240911 0 0 0 0 25.781492
-4.3372717 3.027344 5.1225634 0 0 0 0 25.786438
-4.1202097 2.7228563 5.1547203 0 0 0 0 25.791386
-3.8761511 2.4272358 5.1548357 0 0 0 0 25.796333
-3.6111262 2.1294947 5.1439071 0 0 0 0 25.801281
-4.4109926 2.9267652 5.118576 0 0 0 0 25.806227
-4.1679673 2.6201293 5.1366796 0 0 0 0 25.811174
-3.9277525 2.3415117 5.1568274 0 0 0 0 25.81612
-3.5890853 2.0144069 5.0597134 0 0 0 0 25.821068
-4.4638376 2.8130751 5.0935302 0 0 0 0 25.826015
-4.2137322 2.5163903 5.1166344 0 0 0 0 25.830963
-3.9604819 2.2426929 5.1357636 0 0 0 0 25.835909
-3.5719748 1.9063386 4.9855399 0 0 0 0 25.840855
-4.4212513 2.6428969 4.9652171 0 0 0 0 25.845802
-4.2644429 2.4166665 5.108604 0 0 0 0 25.85075
-3.9921808 2.1468613 5.1187024 0 0 0 0 25.855698
-3.5916128 1.8194373 4.9664683 0 0 0 0 25.860645
-4.402462 2.4928312 4.8699803 0 0 0 0 25.865591
-4.2356086 2.2745452 5.0083585 0 0 0 0 25.870537
-4.0358133 2.0560865 5.1166711 0 0 0 0 25.875484
-3.6181912 1.7375646 4.9594178 0 0 0 0 25.880432
-4.4532433 2.3841128 4.8539371 0 0 0 0 25.88538
-4.1778917 2.1222751 4.8790426 0 0 0 0 25.890326
-4.0575457 1.9561971 5.0925846 0 0 0 0 25.895273
-3.6437633 1.6556818 4.9543648 0 0 0 0 25.900219
-4.4984951 2.2752345 4.8388805 0 0 0 0 25.646923
-4.2171178 2.0232968 4.8679667 0 0 0 0 25.651869
-3.9425652 1.7964038 4.9001017 0 0 0 0 25.656816
-3.6679366 1.5754899 4.949245 0 0 0 0 25.661762
-4.5452909 2.1654921 4.826828 0 0 0 0 25.66671
-4.2498689 1.9204698 4.8528962 0 0 0 0 25.671658
-3.9637613 1.70067 4.8795772 0 0 0 0 25.676605
-3.6880066 1.4927737 4.9387779 0 0 0 0 25.681551
-4.583631 2.0527906 4.8082323 0 0 0 0 25.686497
-4.2890682 1.8217964 4.8463669 0 0 0 0 25.691444
-3.9923944 1.6108046 4.8735242 0 0 0 0 25.696392
-3.7066011 1.40885 4.9307146 0 0 0 0 25.70134
-4.6184402 1.939968 4.7911592 0 0 0 0 25.706287
-4.3197918 1.7199459 4.8343019 0 0 0 0 25.711233
-4.0160537 1.517912 4.8624578 0 0 0 0 25.716179
-3.7192044 1.3248938 4.9166389 0 0 0 0 25.721127
-4.6572356 1.8271637 4.7790942 0 0 0 0 25.726074
-4.3425431 1.6150497 4.8162169 0 0 0 0 25.731022
-4.0396976 1.4260148 4.8543925 0 0 0 0 25.735968
-3.7337885 1.2419442 4.9075694 0 0 0 0 25.740915
-4.6890378 1.7133154 4.7650146 0 0 0 0 25.745861
-4.3682666 1.512165 4.804141 0 0 0 0 25.750809
-4.0702991 1.3371497 4.8563452 0 0 0 0 25.755756
-3.7483616 1.1599927 4.8995008 0 0 0 0 25.760704
-4.7088819 1.5954003 4.7409067 0 0 0 0 25.76565
-4.3929844 1.4092714 4.7930632 0 0 0 0 25.770597
-4.0819826 1.2411854 4.8382525 0 0 0 0 25.775543
-3.762928 1.0780382 4.8934331 0 0 0 0 25.780491
-4.7346849 1.4805124 4.7258148 0 0 0 0 25.785439
-4.4157033 1.3053628 4.7829809 0 0 0 0 25.790386
-4.0986214 1.1492432 4.8281746 0 0 0 0 25.795332
-3.768522 0.99403632 4.8783455 0 0 0 0 25.800278
-4.7574883 1.3646029 4.7117167 0 0 0 0 25.805225
-4.4324241 1.2014186 4.769887 0 0 0 0 25.810173
-4.107286 1.054255 4.8130784 0 0 0 0 25.815121
-3.7790849 0.91205651 4.8712702 0 0 0 0 25.820068
-4.7802734 1.2496878 4.7016191 0 0 0 0 25.825014
-4.4391704 1.0954193 4.7487717 0 0 0 0 25.82996
-4.126894 0.9633199 4.8120074 0 0 0 0 25.834908
-3.7896345 0.83107382 4.8661966 0 0 0 0 25.839855
-4.8020482 1.1357652 4.6915221 0 0 0 0 25.844803
-4.4588628 0.99248344 4.7436857 0 0 0 0 25.849749
-4.134542 0.869322 4.7989111 0 0 0 0 25.854696
-3.7971919 0.74907404 4.8591161 0 0 0 0 25.859642
-4.8188343 1.0198114 4.6804128 0 0 0 0 25.86459
-4.4665775 0.88848245 4.7285757 0 0 0 0 25.869537
-4.1451621 0.77733564 4.7918229 0 0 0 0 25.874485
-3.8027463 0.66706127 4.8520322 0 0 0 0 25.879431
-4.8246369 0.90279526 4.6622815 0 0 0 0 25.884378
-4.4842572 0.78552896 4.7264862 0 0 0 0 25.889324
-4.1458077 0.68329489 4.7767134 0 0 0 0 25.894272
-3.8043039 0.58502638 4.8419409 0 0 0 0 25.89922
-4.8374109 0.78681248 4.6531658 0 0 0 0 25.904167
-4.4919534 0.68151993 4.7173767 0 0 0 0 25.909113
-4.1564145 0.59130311 4.7736263 0 0 0 0 25.914059
-3.8088429 0.50400442 4.8368568 0 0 0 0 25.919006
-4.8461838 0.6708051 4.6430426 0 0 0 0 25.923954
-4.492662 0.57647222 4.7032533 0 0 0 0 25.928902
-4.1580377 0.49826232 4.7635207 0 0 0 0 25.933849
-3.8083885 0.42295665 4.8267636 0 0 0 0 25.938795
-4.1566534 0.40620372 4.7524109 0 0 0 0 25.953636
-3.8069296 0.34190133 4.8176689 0 0 0 0 25.958584
-0.55192769 0.050456833 0.51211423 0 0 0 0 25.96353
-0.53689778 0.044318605 0.54608369 0 0 0 0 25.968477
-4.1572585 0.31415287 4.7453055 0 0 0 0 25.973423
-3.8114426 0.26187178 4.8185878 0 0 0 0 25.978371
-0.54102349 0.036389004 0.50109798 0 0 0 0 25.983318
-0.52299494 0.031237053 0.53106302 0 0 0 0 25.988266
-3.8059757 0.18179366 4.807487 0 0 0 0 25.998159
-0.50616086 0.022197172 0.46803632 0 0 0 0 26.003105
-0.53203493 0.020272598 0.53908855 0 0 0 0 26.008053
-3.7935178 0.10167897 4.7903738 0 0 0 0 26.017948
-0.48825628 0.010094792 0.45000961 0 0 0 0 26.022894
-0.51413053 0.0081700282 0.52106178 0 0 0 0 26.02784
-3.7940228 0.021624373 4.7912865 0 0 0 0 26.037735
-0.48531002 6.8648471e-05 0.44701385 0 0 0 0 26.042683
-0.49522316 -0.0029359211 0.50103456 0 0 0 0 26.04763
-3.7905266 -0.057450414 4.7881918 0 0 0 0 26.057522
-0.47937348 -0.010973692 0.4420113 0 0 0 0 26.062469
-0.4832938 -0.013007311 0.48902187 0 0 0 0 26.067417
-3.7820351 -0.13655144 4.7810893 0 0 0 0 26.077311
-0.47243842 -0.022020888 0.43600702 0 0 0 0 26.082258
-0.4803513 -0.024034347 0.48702508 0 0 0 0 26.087204
-3.7765319 -0.21563953 4.7789922 0 0 0 0 26.097099
-0.47249156 -0.033031635 0.43601599 0 0 0 0 26.102047
-0.47940463 -0.035051286 0.48703215 0 0 0 0 26.106993
-3.7620349 -0.29377362 4.7688799 0 0 0 0 26.116886
-3.7525089 -0.37409809 4.7649479 0 0 0 0 26.578346
-0.47724134 -0.056277994 0.44453117 0 0 0 0 26.583294
-0.47716761 -0.057328932 0.48753545 0 0 0 0 26.58824
-3.743959 -0.45220318 4.764853 0 0 0 0 26.598133
-0.49219719 -0.070272096 0.50456935 0 0 0 0 26.608028
-3.7284205 -0.53033936 4.7567463 0 0 0 0 26.617922
-0.48333088 -0.080276266 0.454559 0 0 0 0 26.622868
-0.49424198 -0.082277097 0.50958151 0 0 0 0 26.627815
-3.7118704 -0.60748309 4.7506394 0 0 0 0 26.637711
-0.49928114 -0.094268262 0.51759887 0 0 0 0 26.647604
-3.6973164 -0.68561929 4.7485361 0 0 0 0 26.657497
-0.48542607 -0.10429331 0.46057993 0 0 0 0 26.662445
-0.51732004 -0.11019957 0.5386346 0 0 0 0 26.667393
-3.6827538 -0.76275498 4.7464337 0 0 0 0 26.677286
-0.55534506 -0.13104381 0.58369952 0 0 0 0 26.68718
-3.6661873 -0.8399027 4.7453289 0 0 0 0 26.697075
-0.54240334 -0.1411185 0.57368767 0 0 0 0 26.706968
-3.6516182 -0.91804188 4.7472267 0 0 0 0 26.716862
-0.5295614 -0.15313579 0.51466852 0 0 0 0 26.721809
-0.53845686 -0.15315168 0.57268947 0 0 0 0 26.726757
-3.645 -1.0326539 4.3200951 0 0 0 0 26.731703
-3.6360395 -0.99518728 4.750124 0 0 0 0 26.73665
-3.3939047 -1.0911027 3.4036009 0 0 0 0 26.741596
-3.4832408 -1.0990558 3.8117497 0 0 0 0 26.746544
-3.5954456 -1.1049562 4.2899404 0 0 0 0 26.751492
-3.610472 -1.0713767 4.7420063 0 0 0 0 26.756439
-3.3553274 -1.1673657 3.396462 0 0 0 0 26.761385
-3.4376631 -1.1713454 3.7926025 0 0 0 0 26.766331
-3.544879 -1.1752613 4.2587862 0 0 0 0 26.771278
-3.5878913 -1.1475548 4.7398939 0 0 0 0 26.776226
-3.3087332 -1.2386637 3.3813152 0 0 0 0 26.781174
-3.3860707 -1.2396609 3.7674503 0 0 0 0 26.786121
-3.5082955 -1.2485059 4.2456541 0 0 0 0 26.791067
-3.5613036 -1.2217504 4.7337775 0 0 0 0 26.796013
-3.2651293 -1.3099478 3.3701746 0 0 0 0 26.800961
-3.3504751 -1.3139068 3.76232 0 0 0 0 26.805908
-3.4567091 -1.316816 4.2165022 0 0 0 0 26.810856
-3.5357099 -1.2959417 4.7296634 0 0 0 0 26.815802
-3.2295251 -1.385199 3.3710442 0 0 0 0 26.820749
-3.3088684 -1.3851798 3.7521834 0 0 0 0 26.825695
-3.4181061 -1.3880717 4.2053704 0 0 0 0 26.830643
-3.5181162 -1.3751037 4.7405586 0 0 0 0 26.83559
-3.1949096 -1.4594454 3.3739171 0 0 0 0 26.840538
-3.2742536 -1.4584231 3.7520571 0 0 0 0 26.845484
-3.3824978 -1.4603146 4.1992431 0 0 0 0 26.850431
-3.4805176 -1.4453461 4.7234302 0 0 0 0 26.855377
-3.1492844 -1.5297421 3.3677764 0 0 0 0 26.860325
-3.2316318 -1.5287024 3.7449212 0 0 0 0 26.865273
-3.3358836 -1.5286058 4.1821017 0 0 0 0 26.87022
-3.4469109 -1.5175761 4.7163057 0 0 0 0 26.875166
-3.1176612 -1.6059783 3.3786535 0 0 0 0 26.880112
-3.1890042 -1.5989823 3.7397859 0 0 0 0 26.885059
-3.3022656 -1.6018418 4.1819782 0 0 0 0 26.890007
-3.4193029 -1.5927814 4.7181902 0 0 0 0 26.894955
-3.0790238 -1.6782453 3.3835239 0 0 0 0 26.899902
-3.1543682 -1.6712276 3.744663 0 0 0 0 26.904848
-3.2646377 -1.6730967 4.1798511 0 0 0 0 26.909794
-3.3866861 -1.6650069 4.7140694 0 0 0 0 26.914742
-3.0373805 -1.7495267 3.3873911 0 0 0 0 26.919689
-3.1157279 -1.7424915 3.747535 0 0 0 0 26.924637
-3.2240031 -1.7423625 4.1737213 0 0 0 0 26.929583
-3.3480644 -1.7352591 4.7049417 0 0 0 0 26.93453
-3.0007336 -1.8227867 3.3982654 0 0 0 0 26.939476
-3.0760794 -1.8127598 3.750407 0 0 0 0 26.944424
-3.1853616 -1.8126225 4.1735945 0 0 0 0 26.949371
-3.3144376 -1.8074912 4.7038207 0 0 0 0 26.954319
-2.9620793 -1.8950565 3.409138 0 0 0 0 26.959265
-3.0354257 -1.8830341 3.7552779 0 0 0 0 26.964212
-3.1467199 -1.8838834 4.1754675 0 0 0 0 26.969158
-3.2748001 -1.8757464 4.6946945 0 0 0 0 26.974106
-2.9264271 -1.9703158 3.4270129 0 0 0 0 26.979053
-3.0017769 -1.9582818 3.772156 0 0 0 0 26.984001
-3.1090653 -1.9541408 4.1803436 0 0 0 0 26.988947
-3.2341609 -1.945009 4.6885667 0 0 0 0 26.993893
-2.8947792 -2.0485587 3.4508922 0 0 0 0 26.99884
-2.9661198 -2.0315361 3.7860336 0 0 0 0 27.003788
-3.0694139 -2.0254078 4.1852164 0 0 0 0 27.008736
-3.2025282 -2.0202363 4.6964478 0 0 0 0 27.013683
-2.8531113 -2.1208451 3.4657617 0 0 0 0 27.018629
-2.9284532 -2.103801 3.8009098 0 0 0 0 27.023575
-3.0327575 -2.0976624 4.1950936 0 0 0 0 27.028522
-3.1588769 -2.0875106 4.6883183 0 0 0 0 27.03347
-2.8219442 -2.2005377 3.495424 0 0 0 0 26.778713
-2.8972595 -2.181484 3.8265791 0 0 0 0 26.783661
-2.9995372 -2.172339 4.212769 0 0 0 0 26.788609
-3.1226337 -2.1591783 4.691999 0 0 0 0 26.793556
-2.7832935 -2.2768238 3.5192914 0 0 0 0 26.798502
-2.8616135 -2.2577512 3.8484509 0 0 0 0 26.803448
-2.9588871 -2.2436206 4.2216377 0 0 0 0 26.808395
-3.0829906 -2.2294483 4.6948695 0 0 0 0 26.813343
-2.7486491 -2.3570948 3.5511613 0 0 0 0 26.818291
-2.8199542 -2.3310478 3.8673162 0 0 0 0 26.823238
-2.9282489 -2.3228648 4.2485151 0 0 0 0 26.828184
-3.0483618 -2.3057003 4.7077432 0 0 0 0 26.83313
-2.7069888 -2.4333982 3.5780249 0 0 0 0 26.838078
-2.7893147 -2.4132986 3.9021919 0 0 0 0 26.843025
-2.8885977 -2.3971469 4.2653832 0 0 0 0 26.847973
-3.0057099 -2.3749835 4.7096114 0 0 0 0 26.852919
-2.6743522 -2.5186648 3.6188946 0 0 0 0 26.857866
-2.7496552 -2.4895885 3.9280591 0 0 0 0 26.862812
-2.8519502 -2.4744174 4.2882543 0 0 0 0 26.86776
-2.9700751 -2.4522429 4.7264829 0 0 0 0 26.872707
-2.6377058 -2.6019506 3.6577604 0 0 0 0 26.877655
-2.719022 -2.5758445 3.9699314 0 0 0 0 26.882601
-2.815305 -2.5536911 4.3151236 0 0 0 0 26.887548
-2.9274175 -2.5225279 4.7323513 0 0 0 0 26.892494
-2.6000571 -2.6862435 3.6996243 0 0 0 0 26.897442
-2.6863842 -2.6621113 4.0128012 0 0 0 0 26.90239
-2.7796545 -2.6339631 4.3469944 0 0 0 0 26.907337
-2.8857698 -2.596812 4.7442183 0 0 0 0 26.912283
-2.5644181 -2.7745304 3.7474878 0 0 0 0 26.917229
-2.6487327 -2.7454009 4.0526667 0 0 0 0 26.922176
-2.7420106 -2.7152429 4.3768611 0 0 0 0 26.927124
-2.8461192 -2.6730914 4.7630868 0 0 0 0 26.932072
-2.5267828 -2.86483 3.7983468 0 0 0 0 26.937019
-2.6040647 -2.8237193 4.0845261 0 0 0 0 26.941965
-2.7063711 -2.8005197 4.4157276 0 0 0 0 26.946911
-2.8004591 -2.7453928 4.7729497 0 0 0 0 26.951859
-2.4861317 -2.9521427 3.8472047 0 0 0 0 26.956806
-2.5764577 -2.9229758 4.1473923 0 0 0 0 26.961754
-2.666714 -2.8818128 4.450593 0 0 0 0 26.9667
-2.7527912 -2.8167038 4.7828121 0 0 0 0 26.971647
-2.456538 -3.0574179 3.9190626 0 0 0 0 26.976593
-2.5358129 -3.0112863 4.19525 0 0 0 0 26.981541
-2.6300809 -2.9710989 4.4954553 0 0 0 0 26.986488
-2.7021153 -2.8860259 4.7896719 0 0 0 0 26.991436
-2.4189208 -3.156728 3.9839141 0 0 0 0 26.996382
-2.4991832 -3.1055827 4.2521076 0 0 0 0 27.001329
-2.5974619 -3.0663719 4.5503192 0 0 0 0 27.006275
-2.650434 -2.9553542 4.7985306 0 0 0 0 27.011223
-2.3793101 -3.2590516 4.0527601 0 0 0 0 27.016171
-2.4595494 -3.1998954 4.3099623 0 0 0 0 27.021118
-2.5568302 -3.15768 4.5981741 0 0 0 0 27.026064
-2.5927312 -3.0187047 4.7993875 0 0 0 0 27.03101
-2.3386977 -3.3623819 4.1246042 0 0 0 0 27.035957
-2.4159148 -3.2942266 4.3668103 0 0 0 0 27.040905
-2.5182042 -3.252984 4.6540289 0 0 0 0 27.045853
-2.5420504 -3.0910311 4.8152461 0 0 0 0 27.0508
-2.2970939 -3.4697225 4.2024436 0 0 0 0 27.055746
-2.3833337 -3.4075265 4.4516578 0 0 0 0 27.060692
-2.4826021 -3.3562808 4.719882 0 0 0 0 27.065639
-2.4843457 -3.156383 4.8211021 0 0 0 0 27.070587
-2.2615383 -3.5920479 4.2982779 0 0 0 0 27.075535
-2.345747 -3.5188465 4.5314999 0 0 0 0 27.080481
-2.4389782 -3.4536107 4.7777281 0 0 0 0 27.085428
-2.4206238 -3.216758 4.8199539 0 0 0 0 27.090374
-2.2189596 -3.7094049 4.3901062 0 0 0 0 27.095322
-2.3031447 -3.6271894 4.6093378 0 0 0 0 27.100269
-2.3742645 -3.5230117 4.7975702 0 0 0 0 27.105217
-2.3609104 -3.2821198 4.8288078 0 0 0 0 27.110163
-2.1733851 -3.8287783 4.4839296 0 0 0 0 27.11511
-2.2615716 -3.7455387 4.7001677 0 0 0 0 27.120056
-2.301511 -3.5814393 4.8044114 0 0 0 0 27.125004
-2.2971818 -3.3434958 4.8326607 0 0 0 0 27.129951
-2.1298487 -3.9601536 4.5917439 0 0 0 0 27.134899
-2.2169974 -3.8639014 4.7899938 0 0 0 0 27.139845
-2.2277546 -3.6408741 4.8152514 0 0 0 0 27.144791
-2.2324457 -3.4038751 4.8365135 0 0 0 0 27.149738
-2.0863318 -4.0995393 4.7115507 0 0 0 0 27.154686
-2.1412508 -3.9323654 4.8208222 0 0 0 0 27.159634
-2.1539965 -3.7003067 4.8260922 0 0 0 0 27.164581
-2.1697271 -3.4712532 4.8513637 0 0 0 0 27.169527
-2.0267396 -4.2179828 4.8073554 0 0 0 0 27.174473
-2.0534267 -3.9788647 4.8266549 0 0 0 0 27.17942
-2.0802369 -3.7617431 4.8429313 0 0 0 0 27.184368
-2.1039896 -3.5336385 4.8602147 0 0 0 0 27.189316
-1.9278719 -4.2585416 4.8171782 0 0 0 0 27.194262
-1.9716492 -4.0403485 4.8514833 0 0 0 0 27.199209
-2.0024519 -3.8161895 4.8517733 0 0 0 0 27.204155
-2.033221 -3.5880399 4.8610668 0 0 0 0 27.209103
-1.8340274 -4.3070822 4.8380017 0 0 0 0 27.21405
-1.8818009 -4.0828528 4.8573194 0 0 0 0 27.218998
-1.9246693 -3.8726375 4.8646135 0 0 0 0 27.223944
-1.9664805 -3.6524322 4.8759155 0 0 0 0 27.228891
-1.7381622 -4.3516283 4.8578277 0 0 0 0 27.233837
-1.7919588 -4.1283584 4.8681526 0 0 0 0 27.238785
-1.84688 -3.929086 4.8804545 0 0 0 0 27.243732
-1.895727 -3.7138402 4.8877625 0 0 0 0 27.24868
-1.6391008 -4.3869414 4.8683143 0 0 0 0 27.005215
-1.7049109 -4.1756015 4.8836565 0 0 0 0 27.010162
-1.763806 -3.9752846 4.8849745 0 0 0 0 27.015108
-1.821649 -3.7659774 4.8892999 0 0 0 0 27.020054
-1.538193 -4.4205217 4.8811383 0 0 0 0 27.025002
-1.6140536 -4.2181292 4.8974872 0 0 0 0 27.029949
-1.6819967 -4.025763 4.8978109 0 0 0 0 27.034897
-1.7499011 -3.8284063 4.9061399 0 0 0 0 27.039843
-1.441304 -4.4610887 4.9049635 0 0 0 0 27.04479
-1.5221876 -4.258657 4.9093194 0 0 0 0 27.049736
-1.5971783 -4.0742526 4.9086461 0 0 0 0 27.054684
-1.676146 -3.8898435 4.9229789 0 0 0 0 27.059631
-1.3403802 -4.4926639 4.9197917 0 0 0 0 27.064579
-1.4303228 -4.3011866 4.9261503 0 0 0 0 27.069525
-1.5113367 -4.1177421 4.9164853 0 0 0 0 27.074472
-1.5963476 -3.9392958 4.9258208 0 0 0 0 27.079418
-1.24046 -4.5272388 4.9416203 0 0 0 0 27.084366
-1.337435 -4.338716 4.9399862 0 0 0 0 27.089314
-1.4255053 -4.1652346 4.9303217 0 0 0 0 27.094261
-1.5195745 -3.9977429 4.9416599 0 0 0 0 27.099207
-1.1395118 -4.5558119 4.9604545 0 0 0 0 27.104153
-1.2445521 -4.3792486 4.9598198 0 0 0 0 27.1091
-1.3416864 -4.2187247 4.9551558 0 0 0 0 27.114048
-1.4377605 -4.0452018 4.9455028 0 0 0 0 27.118996
-1.03855 -4.5813794 4.9772921 0 0 0 0 27.123943
-1.1506613 -4.4187841 4.9806547 0 0 0 0 27.128889
-1.2528212 -4.2592235 4.9649963 0 0 0 0 27.133835
-1.3559586 -4.0976663 4.9573417 0 0 0 0 27.138783
-0.93758839 -4.6089501 5.0001297 0 0 0 0 27.14373
-1.0537271 -4.4473224 4.9914961 0 0 0 0 27.148678
-1.1639683 -4.3047276 4.9828329 0 0 0 0 27.153624
-1.2741669 -4.1551375 4.9781761 0 0 0 0 27.158571
-0.83460814 -4.6325254 5.0209684 0 0 0 0 27.163517
-0.95779824 -4.478858 5.0083375 0 0 0 0 27.168465
-1.0730941 -4.3452349 4.9966722 0 0 0 0 27.173412
-1.1883365 -4.2016134 4.9860168 0 0 0 0 27.17836
-0.73059261 -4.6470947 5.0338163 0 0 0 0 27.183306
-0.86085582 -4.5073938 5.0231814 0 0 0 0 27.188253
-0.98121554 -4.3857465 5.0125108 0 0 0 0 27.193199
-1.1025085 -4.2500906 4.9978566 0 0 0 0 27.198147
-0.62961984 -4.6756644 5.0656557 0 0 0 0 27.203094
-0.76290989 -4.5369368 5.0430236 0 0 0 0 27.208042
-0.88830894 -4.4202571 5.0253553 0 0 0 0 27.212988
-1.0146818 -4.300581 5.0146918 0 0 0 0 27.217934
-0.52555531 -4.6792202 5.0725169 0 0 0 0 27.222881
-0.66393036 -4.5574722 5.0538745 0 0 0 0 27.227829
-0.79441798 -4.4597764 5.0441942 0 0 0 0 27.232777
-0.92482072 -4.3420691 5.0225344 0 0 0 0 27.237724
-0.41731957 -4.6347427 5.0294218 0 0 0 0 27.24267
-0.56701684 -4.5990219 5.0917082 0 0 0 0 27.247616
-0.69849366 -4.4912968 5.0570388 0 0 0 0 27.252563
-0.83296454 -4.3865714 5.0363712 0 0 0 0 27.257511
-0.31107074 -4.5872502 4.9853349 0 0 0 0 27.262459
-0.46702066 -4.6175594 5.1055617 0 0 0 0 27.267405
-0.6025725 -4.5248179 5.0738831 0 0 0 0 27.272352
-0.74212742 -4.4380755 5.060204 0 0 0 0 27.277298
-0.20464779 -4.4907036 4.8912978 0 0 0 0 27.282246
-0.3618505 -4.5870671 5.0684586 0 0 0 0 27.287193
-0.50565636 -4.561347 5.0967231 0 0 0 0 27.292141
-0.64724404 -4.4775858 5.0730438 0 0 0 0 27.297087
-0.10318029 -4.3811145 4.7842832 0 0 0 0 27.302034
-0.25752038 -4.5105166 4.9824047 0 0 0 0 27.30698
-0.40670016 -4.5878754 5.1115713 0 0 0 0 27.311928
-0.55035591 -4.5161023 5.0848823 0 0 0 0 27.316875
-0.0090385824 -4.3665948 4.7831831 0 0 0 0 27.321823
-0.15623577 -4.4479666 4.9143419 0 0 0 0 27.326769
-0.30460283 -4.57337 5.0814576 0 0 0 0 27.331715
-0.45551437 -4.5706272 5.1187086 0 0 0 0 27.336662
0.086184859 -4.3290529 4.7591052 0 0 0 0 27.34161
-0.057987083 -4.3964114 4.8602738 0 0 0 0 27.346558
-0.19923326 -4.4797912 4.9664207 0 0 0 0 27.351505
-0.3545351 -4.5851364 5.1085672 0 0 0 0 27.356451
0.177536 -4.2544489 4.6960726 0 0 0 0 27.361397
0.036267161 -4.3438344 4.8072128 0 0 0 0 27.366344
-0.099961318 -4.4162159 4.8883629 0 0 0 0 27.371292
-0.24824651 -4.5095692 5.0015101 0 0 0 0 27.37624
0.26874715 -4.2218909 4.6819968 0 0 0 0 27.381187
0.12953556 -4.2882485 4.7541575 0 0 0 0 27.386133
-0.0037269706 -4.3646383 4.8262982 0 0 0 0 27.391079
-0.14593853 -4.4289756 4.8914652 0 0 0 0 27.396027
0.35701954 -4.1712961 4.6489453 0 0 0 0 27.400974
0.21887022 -4.2126184 4.6791296 0 0 0 0 27.405922
0.091474079 -4.3230648 4.7762265 0 0 0 0 27.410868
-0.046709415 -4.3733959 4.8134003 0 0 0 0 27.415815
0.44521728 -4.1437263 4.6438718 0 0 0 0 27.420761
0.30903745 -4.1880503 4.6640491 0 0 0 0 27.425709
0.18281356 -4.2414274 4.6852012 0 0 0 0 27.430656
0.048585482 -4.2987747 4.716362 0 0 0 0 27.435604
0.53143883 -4.1091366 4.6318083 0 0 0 0 27.44055
0.39918953 -4.1684866 4.6559639 0 0 0 0 27.445496
0.27400261 -4.2048378 4.6451311 0 0 0 0 27.450443
0.14368245 -4.2842197 4.6882629 0 0 0 0 27.455391
0.70869505 -4.6746998 5.3049979 0 0 0 0 27.460339
0.48543757 -4.1208706 4.6189137 0 0 0 0 27.465286
0.36512673 -4.1892734 4.632041 0 0 0 0 27.470232
0.23689844 -4.2346144 4.6232038 0 0 0 0 27.475178
0.80924445 -4.6550841 5.3201041 0 0 0 0 27.58238
0.58174658 -4.1553092 4.6759577 0 0 0 0 27.587326
0.45466027 -4.1505957 4.5951653 0 0 0 0 27.592274
0.32941839 -4.1959524 4.5743203 0 0 0 0 27.597221
0.91139901 -4.6475968 5.3509946 0 0 0 0 27.602169
0.76307958 -4.7058287 5.3201733 0 0 0 0 27.607115
0.62873435 -4.7691298 5.2883248 0 0 0 0 27.612062
0.42542106 -4.213428 4.5891929 0 0 0 0 27.617008
1.0106109 -4.6230745 5.3649077 0 0 0 0 27.621956
0.87017703 -4.7103653 5.3520451 0 0 0 0 27.626904
0.74169195 -4.8107238 5.3471508 0 0 0 0 27.631851
1.9277995 -4.3191061 5.3443046 0 0 0 0 27.84457
1.9644134 -4.1581001 5.2014494 0 0 0 0 27.864359
1.9700595 -4.1949081 5.0254598 0 0 0 0 27.889095
2.0075419 -4.2849197 4.9053736 0 0 0 0 27.91383
2.0381951 -4.1068616 4.7385421 0 0 0 0 27.933617
2.7235653 -3.2497413 5.1621237 0 0 0 0 27.826252
2.7270675 -3.1216044 5.0592856 0 0 0 0 27.846039
2.7604723 -3.0326688 5.0183663 0 0 0 0 27.865828
2.7854936 -3.184598 4.8321953 0 0 0 0 27.870775
2.8228006 -2.9769218 5.0333729 0 0 0 0 27.885616
2.7770293 -3.0413833 4.7063885 0 0 0 0 27.890564
2.8371017 -3.2015321 4.5781589 0 0 0 0 27.89551
2.9040887 -2.939292 5.0803351 0 0 0 0 27.905403
2.8393643 -2.9796212 4.7064013 0 0 0 0 27.910351
2.830652 -3.0553281 4.4533525 0 0 0 0 27.915298
2.8738129 -3.1903751 4.3021722 0 0 0 0 27.920246
2.9414725 -2.8583858 5.0554023 0 0 0 0 27.925192
2.9166632 -2.9329505 4.7313781 0 0 0 0 27.930138
2.8830211 -2.9784939 4.4283943 0 0 0 0 27.935085
2.877351 -3.0512323 4.1923442 0 0 0 0 27.940033
2.9509008 -2.7533057 4.9855332 0 0 0 0 27.944981
3.0069392 -2.8983605 4.7803254 0 0 0 0 27.949928
2.9493592 -2.9147444 4.4254036 0 0 0 0 27.954874
2.9217606 -2.9593415 4.1474118 0 0 0 0 27.95982
3.0381813 -2.7217143 5.0504818 0 0 0 0 27.964767
3.0682852 -2.8335886 4.7823434 0 0 0 0 27.969715
3.044631 -2.8791699 4.4683447 0 0 0 0 27.974663
2.9940903 -2.897619 4.145411 0 0 0 0 27.979609
3.1264706 -2.6881256 5.1164317 0 0 0 0 27.984556
3.0687456 -2.7154486 4.6944995 0 0 0 0 27.989502
3.1149685 -2.8174422 4.4743476 0 0 0 0 27.99445
3.0913692 -2.8580444 4.1803536 0 0 0 0 27.999397
3.2147675 -2.6525333 5.1823835 0 0 0 0 28.004345
3.1580324 -2.6778486 4.7454515 0 0 0 0 28.009291
3.1673405 -2.7406082 4.4573903 0 0 0 0 28.014238
3.1687033 -2.797348 4.187346 0 0 0 0 28.019184
3.2990785 -2.6119149 5.2433467 0 0 0 0 28.024132
3.2043977 -2.6029894 4.733501 0 0 0 0 28.029079
3.1947563 -2.6436276 4.4084873 0 0 0 0 28.034027
3.2510297 -2.7406807 4.2033272 0 0 0 0 28.038973
3.3774085 -2.5632558 5.2933269 0 0 0 0 28.043919
3.3416305 -2.5986693 4.8553553 0 0 0 0 28.048866
3.2581072 -2.5768604 4.4125051 0 0 0 0 28.053814
3.3084106 -2.6618676 4.1883655 0 0 0 0 28.058762
3.4637303 -2.5206442 5.3582902 0 0 0 0 28.063709
3.4309516 -2.5520587 4.9053183 0 0 0 0 28.068655
3.4013381 -2.5695541 4.5233545 0 0 0 0 28.073601
3.346828 -2.5679469 4.1524439 0 0 0 0 28.078548
3.5510576 -2.477036 5.4252534 0 0 0 0 28.083496
3.51928 -2.5034404 4.9552846 0 0 0 0 28.088444
3.4976544 -2.5239732 4.573307 0 0 0 0 28.093391
3.4860809 -2.5495996 4.2433105 0 0 0 0 28.098337
3.6353984 -2.4284065 5.487226 0 0 0 0 28.103283
3.6106112 -2.4558392 5.0122466 0 0 0 0 28.108231
3.5889907 -2.4713595 4.6162739 0 0 0 0 28.113178
3.5774226 -2.4929779 4.2762809 0 0 0 0 28.118126
3.7177536 -2.3757637 5.5482059 0 0 0 0 28.123072
3.7029541 -2.4052389 5.069211 0 0 0 0 28.128019
3.6843331 -2.4187665 4.665235 0 0 0 0 28.132965
3.6817532 -2.4434257 4.3252277 0 0 0 0 28.137913
3.812099 -2.3301876 5.626163 0 0 0 0 28.14286
3.8012998 -2.3566716 5.1361651 0 0 0 0 28.147808
3.7856798 -2.3672042 4.7221885 0 0 0 0 28.152754
3.7860994 -2.3898699 4.3741779 0 0 0 0 28.1577
3.8974655 -2.2755566 5.6921415 0 0 0 0 28.162647
3.9006565 -2.3051052 5.2031212 0 0 0 0 28.167595
3.8800447 -2.3085999 4.7711577 0 0 0 0 28.172543
3.8844709 -2.3282785 4.4171453 0 0 0 0 28.17749
3.9618416 -2.2088017 5.7281613 0 0 0 0 28.182436
3.9660466 -2.2323453 5.2281451 0 0 0 0 28.187382
3.9904068 -2.2560806 4.8391008 0 0 0 0 28.192329
3.990845 -2.2687278 4.4700999 0 0 0 0 28.197277
4.0702147 -2.1622982 5.8281012 0 0 0 0 28.202225
4.0624208 -2.1747565 5.2921124 0 0 0 0 28.207172
4.0338273 -2.1651895 4.8291717 0 0 0 0 28.212118
4.0902319 -2.2031355 4.5150704 0 0 0 0 28.217064
4.1715984 -2.1097503 5.9180574 0 0 0 0 28.222012
4.1608086 -2.1151774 5.3610787 0 0 0 0 28.226959
4.1562037 -2.1137321 4.9140978 0 0 0 0 28.231907
4.1876388 -2.1325309 4.5600486 0 0 0 0 28.236853
4.2809877 -2.0592461 6.0210013 0 0 0 0 28.2418
4.3331833 -2.088007 5.5249147 0 0 0 0 28.246746
4.3905444 -2.1108818 5.129827 0 0 0 0 28.251694
4.3979821 -2.1145308 4.7278252 0 0 0 0 28.256641
4.3923969 -2.0047491 6.1269464 0 0 0 0 28.261589
4.3926082 -2.0032039 5.5449595 0 0 0 0 28.266535
4.5279531 -2.0564954 5.2327375 0 0 0 0 28.271482
4.5034175 -2.0389605 4.7817988 0 0 0 0 28.276428
4.4961638 -1.942728 6.222765 0 0 0 0 28.623547
4.5024228 -1.9382243 5.6307721 0 0 0 0 28.628494
4.6378312 -1.9814759 5.3035727 0 0 0 0 28.633442
4.6703053 -1.9852434 4.9025397 0 0 0 0 28.638388
4.569561 -1.8669864 6.275785 0 0 0 0 28.643335
4.6388292 -1.8817966 5.7496953 0 0 0 0 28.648281
5.6851025 -2.2816195 6.4370236 0 0 0 0 28.653229
4.627965 -1.7831658 6.310832 0 0 0 0 28.663124
4.7452502 -1.8092107 5.8316712 0 0 0 0 28.66807
5.6816325 -2.1364443 6.373208 0 0 0 0 28.673016
4.6673622 -1.692245 6.3209095 0 0 0 0 28.682911
4.9376988 -1.7630591 6.0205164 0 0 0 0 28.687859
5.8081656 -2.0369205 6.4581876 0 0 0 0 28.692806
4.716763 -1.6043757 6.3459711 0 0 0 0 28.702698
5.0401502 -1.6804451 6.0995078 0 0 0 0 28.707645
5.9067006 -1.9262542 6.5132122 0 0 0 0 28.712593
4.7471604 -1.5094092 6.348063 0 0 0 0 28.722488
5.1636186 -1.6009333 6.2044706 0 0 0 0 28.727434
5.2731047 -1.5929803 5.7703514 0 0 0 0 28.73238
4.7885633 -1.4175 6.3671384 0 0 0 0 28.742275
5.3351173 -1.5316584 6.3683653 0 0 0 0 28.747223
5.3475928 -1.4872127 5.8103995 0 0 0 0 28.752169
4.8249617 -1.3245652 6.3812208 0 0 0 0 28.762062
5.4406133 -1.4370483 6.4533648 0 0 0 0 28.76701
5.5001144 -1.3998251 5.9373345 0 0 0 0 28.771957
4.8583603 -1.2296146 6.3923087 0 0 0 0 28.781851
5.5140982 -1.3332794 6.5044131 0 0 0 0 28.786798
5.6876783 -1.3126013 6.1012259 0 0 0 0 28.791744
4.8907604 -1.13366 6.404398 0 0 0 0 28.80164
5.5735831 -1.2234391 6.539484 0 0 0 0 28.806587
5.9052782 -1.2265186 6.3010812 0 0 0 0 28.811533
6.9513006 -1.3729954 6.7716708 0 0 0 0 28.816479
4.9301639 -1.0397408 6.4274774 0 0 0 0 28.821426
5.6240678 -1.1105555 6.5675683 0 0 0 0 28.826374
6.047863 -1.1170665 6.4200501 0 0 0 0 28.831322
6.2855577 -1.0916952 6.0917897 0 0 0 0 28.836269
4.9545574 -0.94174653 6.4325781 0 0 0 0 28.841215
5.6075077 -0.9833445 6.5187478 0 0 0 0 28.846161
6.2565093 -1.0139265 6.6109328 0 0 0 0 28.851109
6.3301358 -0.94976574 6.1069083 0 0 0 0 28.856056
4.977953 -0.84274846 6.4386811 0 0 0 0 28.861004
5.659997 -0.86947232 6.5538297 0 0 0 0 28.86595
6.3771262 -0.888363 6.7129445 0 0 0 0 28.870897
6.5758529 -0.83377808 6.3187585 0 0 0 0 28.875843
5.0083489 -0.74578494 6.4547729 0 0 0 0 28.880791
5.7064834 -0.75357085 6.5839214 0 0 0 0 28.885738
6.4256892 -0.75145447 6.7400537 0 0 0 0 28.890686
6.897675 -0.71313691 6.6055202 0 0 0 0 28.895632
5.0767937 -0.65201008 6.5228157 0 0 0 0 28.900579
5.736958 -0.63459277 6.5980344 0 0 0 0 28.905525
6.4792652 -0.61257017 6.7751584 0 0 0 0 28.910473
7.093431 -0.56990099 6.7734575 0 0 0 0 28.915421
5.2073169 -0.56253684 6.6707792 0 0 0 0 28.920368
5.7554264 -0.51255858 6.6011643 0 0 0 0 28.925314
6.4647827 -0.46636879 6.7443519 0 0 0 0 28.93026
7.2702055 -0.41557354 6.9274273 0 0 0 0 28.935207
5.2817888 -0.46278676 6.7488203 0 0 0 0 28.940155
5.7828994 -0.3925688 6.6172819 0 0 0 0 28.945103
6.5143604 -0.32546905 6.7824626 0 0 0 0 28.95005
7.3228769 -0.24967229 6.9665585 0 0 0 0 28.954996
5.3001981 -0.35676476 6.7589345 0 0 0 0 28.959942
5.8193913 -0.270623 6.646389 0 0 0 0 28.96489
6.5439186 -0.18247674 6.8025985 0 0 0 0 28.969837
7.2564187 -0.081227228 6.8958344 0 0 0 0 28.974785
5.3246069 -0.25176978 6.7750401 0 0 0 0 28.979731
5.9610233 -0.15017499 6.7993684 0 0 0 0 28.984678
6.5634727 -0.037440635 6.8167481 0 0 0 0 28.989624
7.3381248 0.085537434 6.9699306 0 0 0 0 28.994572
5.3390102 -0.14472963 6.7831593 0 0 0 0 28.999519
5.9474554 -0.024993448 6.7765384 0 0 0 0 29.004467
6.5720119 0.10764415 6.8229103 0 0 0 0 29.009413
7.3547645 0.25459617 6.9871054 0 0 0 0 29.01436
5.3634305 -0.03673796 6.8052669 0 0 0 0 29.019306
5.8988423 0.10134985 6.7157507 0 0 0 0 29.024254
6.5875597 0.25269407 6.8400636 0 0 0 0 29.029202
7.3553891 0.42472443 6.9933 0 0 0 0 29.034149
5.3698215 0.071339041 6.8063955 0 0 0 0 29.039095
5.8862724 0.22551936 6.7009168 0 0 0 0 29.044041
6.60111 0.39975199 6.8572197 0 0 0 0 29.048988
7.4080806 0.59761667 7.051434 0 0 0 0 29.053936
5.3792171 0.17940022 6.81352 0 0 0 0 29.058884
5.88272 0.35164517 6.6980739 0 0 0 0 29.063831
6.5996437 0.54687434 6.8643937 0 0 0 0 29.068777
7.6460705 0.79367602 7.292367 0 0 0 0 29.073723
5.3896194 0.28945559 6.8236446 0 0 0 0 29.078671
5.8841739 0.47774512 6.7042236 0 0 0 0 29.083618
6.59517 0.69400936 6.8695703 0 0 0 0 29.088566
7.6497283 0.97278595 7.3145638 0 0 0 0 29.093512
5.3992982 0.39920828 6.8361578 0 0 0 0 28.844715
5.8939505 0.6034013 6.7207284 0 0 0 0 28.849661
6.58706 0.83960199 6.8740816 0 0 0 0 28.854607
7.6328058 1.1461945 7.3190603 0 0 0 0 28.859554
5.410728 0.51025301 6.852284 0 0 0 0 28.864502
5.8984418 0.73148185 6.7358789 0 0 0 0 28.86945
6.5796103 0.98574501 6.8842645 0 0 0 0 28.874397
7.6154647 1.3223943 7.3292842 0 0 0 0 28.879343
5.4171519 0.62232172 6.8634167 0 0 0 0 28.884289
5.8889055 0.85762757 6.7380447 0 0 0 0 28.889236
6.5641584 1.1339221 6.8904581 0 0 0 0 28.894184
7.5840988 1.4966551 7.3305225 0 0 0 0 28.899132
5.4105525 0.7334516 6.8615642 0 0 0 0 28.904079
5.8954048 0.98769486 6.7601929 0 0 0 0 28.909025
6.5426855 1.279125 6.8926558 0 0 0 0 28.913971
7.5587511 1.6738836 7.3417549 0 0 0 0 28.918919
5.3919311 0.84363723 6.8477249 0 0 0 0 28.923866
5.8818665 1.114854 6.7643633 0 0 0 0 28.928814
6.8028216 1.4880013 7.1965628 0 0 0 0 28.93376
7.5313926 1.8491173 7.3549871 0 0 0 0 28.938707
5.362278 0.95087576 6.8198953 0 0 0 0 28.943653
5.8613124 1.2410444 6.7625403 0 0 0 0 28.948601
6.7763672 1.6402248 7.2017713 0 0 0 0 28.953548
7.4900055 2.0214109 7.3592329 0 0 0 0 28.958496
5.3236094 1.0571531 6.7850757 0 0 0 0 28.963442
5.8537912 1.3711698 6.7787037 0 0 0 0 28.968388
6.7428961 1.7904764 7.2039857 0 0 0 0 28.973335
7.4446139 2.1937175 7.3644819 0 0 0 0 28.978283
5.2849383 1.1634283 6.751255 0 0 0 0 28.983231
5.8342409 1.4983495 6.7838788 0 0 0 0 28.988178
6.701407 1.9387615 7.2012072 0 0 0 0 28.993124
7.3962102 2.3640332 7.3707318 0 0 0 0 28.99807
5.2502689 1.2686812 6.7244282 0 0 0 0 29.003017
5.8106894 1.6265446 6.7880583 0 0 0 0 29.007965
6.6619234 2.0880327 7.2044258 0 0 0 0 29.012913
7.3357792 2.5313997 7.3679924 0 0 0 0 29.01786
5.2065778 1.371974 6.6886086 0 0 0 0 29.022806
5.788137 1.7547326 6.7952361 0 0 0 0 29.027752
6.6164312 2.2373273 7.2046509 0 0 0 0 29.0327
7.2613106 2.6928232 7.3572636 0 0 0 0 29.037647
5.1839428 1.4811615 6.6837687 0 0 0 0 29.042595
5.7575669 1.8809539 6.797421 0 0 0 0 29.047541
6.5669222 2.3836365 7.203877 0 0 0 0 29.052488
7.1988683 2.8581884 7.3605223 0 0 0 0 29.057434
5.163312 1.5913383 6.6819263 0 0 0 0 29.062382
5.7179756 2.005214 6.7916141 0 0 0 0 29.067329
6.5154057 2.5289505 7.2041035 0 0 0 0 29.072277
7.1344252 3.0235555 7.3677816 0 0 0 0 29.077223
5.1346622 1.6995497 6.6730914 0 0 0 0 29.08217
5.685401 2.1314383 6.7967997 0 0 0 0 29.087116
6.4618902 2.6752684 7.2063317 0 0 0 0 29.092064
7.0499196 3.179008 7.3580551 0 0 0 0 29.097012
5.1200552 1.8136915 6.6852436 0 0 0 0 29.101959
5.6508231 2.2576678 6.8029861 0 0 0 0 29.106905
6.3963375 2.8156364 7.1995683 0 0 0 0 29.111851
6.9614005 3.3324733 7.3473306 0 0 0 0 29.116798
5.0894046 1.922906 6.67941 0 0 0 0 29.121746
5.6052184 2.3809447 6.7991824 0 0 0 0 29.126694
6.3327861 2.9559906 7.1978016 0 0 0 0 29.131641
6.8618417 3.4789824 7.3286119 0 0 0 0 29.136587
5.0677819 2.0360756 6.6875682 0 0 0 0 29.141533
5.559618 2.5052171 6.7993784 0 0 0 0 29.146481
6.2632194 3.094367 7.1930385 0 0 0 0 29.151428
6.7793293 3.6324084 7.3318768 0 0 0 0 29.156376
5.0431542 2.149256 6.6947289 0 0 0 0 29.161322
5.5170193 2.629473 6.8045702 0 0 0 0 29.166269
6.1906452 3.2317514 7.1892772 0 0 0 0 29.171215
6.6817737 3.7788951 7.3241525 0 0 0 0 29.176163
5.0195355 2.2644281 6.7068896 0 0 0 0 29.18111
5.4664035 2.7517602 6.8047686 0 0 0 0 29.186058
6.1240835 3.3711052 7.1935091 0 0 0 0 29.191004
6.5832119 3.9243805 7.3184271 0 0 0 0 29.195951
4.9778628 2.3726821 6.6970644 0 0 0 0 29.200897
5.4107742 2.8720653 6.8029699 0 0 0 0 29.205845
6.0384626 3.5005376 7.1817532 0 0 0 0 29.210793
6.4645686 4.0549507 7.2927108 0 0 0 0 29.21574
4.9392023 2.4829175 6.6952372 0 0 0 0 29.220686
5.352129 2.9903827 6.7971725 0 0 0 0 29.225632
5.9588637 3.6339383 7.1799932 0 0 0 0 29.230579
6.3579717 4.1934586 7.2859859 0 0 0 0 29.235527
4.9015455 2.5941453 6.6964078 0 0 0 0 29.240475
5.2864661 3.1057255 6.7883792 0 0 0 0 29.245422
5.8692212 3.7593789 7.1692362 0 0 0 0 29.250368
6.2463489 4.326983 7.2762604 0 0 0 0 29.255314
4.860889 2.706383 6.6975822 0 0 0 0 29.260262
5.2218075 3.2220595 6.7835841 0 0 0 0 29.265209
5.7755623 3.8818321 7.1564798 0 0 0 0 29.270157
6.1035948 4.4356403 7.2325501 0 0 0 0 29.275103
4.8232431 2.8206031 6.7057543 0 0 0 0 29.28005
5.1571469 3.3383896 6.7807884 0 0 0 0 29.284996
5.6819062 4.00528 7.1467237 0 0 0 0 29.289944
5.790134 4.4110527 6.9849267 0 0 0 0 29.294891
4.7705455 2.9268887 6.6959352 0 0 0 0 29.299839
5.0864697 3.4517412 6.7749958 0 0 0 0 29.304785
5.5822225 4.1227469 7.1349673 0 0 0 0 29.309732
5.6734533 4.5305791 6.9751906 0 0 0 0 29.314678
4.7160454 3.0353065 6.6895981 0 0 0 0 29.56838
5.0168757 3.567277 6.7746816 0 0 0 0 29.573326
5.3007407 4.1012836 6.8897848 0 0 0 0 29.578274
5.551589 4.6454325 6.9629312 0 0 0 0 29.583221
4.6733651 3.1495302 6.6987662 0 0 0 0 29.588169
4.9471827 3.6825995 6.7768793 0 0 0 0 29.593115
5.1789207 4.1948128 6.8500218 0 0 0 0 29.598061
5.4278364 4.7539525 6.9491811 0 0 0 0 29.603008
4.6166444 3.256809 6.6939435 0 0 0 0 29.607956
4.8644366 3.7879736 6.7640824 0 0 0 0 29.612904
5.0882244 4.3122029 6.8552423 0 0 0 0 29.617851
5.2960458 4.8545003 6.9274316 0 0 0 0 29.622797
4.5559063 3.3611012 6.6861215 0 0 0 0 29.627743
4.7826948 3.8943386 6.7552843 0 0 0 0 29.63269
4.9804497 4.413661 6.839467 0 0 0 0 29.637638
5.167264 4.9560285 6.9136782 0 0 0 0 29.642586
4.49719 3.4703789 6.6862998 0 0 0 0 29.647533
4.7009544 4.0006981 6.7504845 0 0 0 0 29.652479
4.8726711 4.5141139 6.8256893 0 0 0 0 29.657425
5.036469 5.0545578 6.8999228 0 0 0 0 29.662373
4.4314413 3.5736837 6.6774807 0 0 0 0 29.66732
4.6101813 4.10109 6.7366886 0 0 0 0 29.672268
4.761878 4.6115737 6.8109117 0 0 0 0 29.677214
4.8966198 5.1411209 6.8741665 0 0 0 0 29.682161
4.3687072 3.6799707 6.6766591 0 0 0 0 29.687107
4.5244241 4.2044568 6.7318878 0 0 0 0 29.692055
4.6470642 4.7040439 6.7941332 0 0 0 0 29.697002
4.7527399 5.2196946 6.845407 0 0 0 0 29.70195
4.2989535 3.7832828 6.6698418 0 0 0 0 29.706896
4.4316425 4.3028464 6.7220902 0 0 0 0 29.711842
4.5342598 4.7984996 6.7833519 0 0 0 0 29.716789
4.6219273 5.3132057 6.8386431 0 0 0 0 29.721737
4.2312098 3.8885813 6.6690221 0 0 0 0 29.726685
4.3338327 4.3952532 6.7062912 0 0 0 0 29.731632
4.4194465 4.8909578 6.7725701 0 0 0 0 29.736578
4.4730082 5.3817883 6.8068776 0 0 0 0 29.741524
4.1524286 3.9869208 6.657208 0 0 0 0 29.746471
4.2410512 4.4936318 6.7024908 0 0 0 0 29.751419
4.295577 4.9704494 6.7497869 0 0 0 0 29.756367
4.330112 5.455339 6.7851086 0 0 0 0 29.761314
4.077662 4.0882387 6.6533904 0 0 0 0 29.76626
4.1362114 4.5800576 6.6816926 0 0 0 0 29.771206
4.1757226 5.0529184 6.7349997 0 0 0 0 29.776154
4.1861982 5.5238876 6.7633352 0 0 0 0 29.781101
3.9958706 4.1845808 6.6435757 0 0 0 0 29.786049
4.037406 4.6734505 6.6758919 0 0 0 0 29.790995
4.0558681 5.1353812 6.7232118 0 0 0 0 29.795942
4.0442891 5.5934234 6.7455587 0 0 0 0 29.800888
3.9090562 4.2769408 6.6267619 0 0 0 0 29.805836
3.9275367 4.7528858 6.653091 0 0 0 0 29.810783
3.9269636 5.2058759 6.7004223 0 0 0 0 29.815731
3.8872781 5.6380162 6.7047777 0 0 0 0 29.820677
3.8282731 4.375268 6.6249447 0 0 0 0 29.825624
3.8277225 4.8442731 6.6502872 0 0 0 0 29.83057
3.7950301 5.2693782 6.6726294 0 0 0 0 29.835518
3.7393126 5.6925654 6.6799936 0 0 0 0 29.840466
3.7384539 4.4666281 6.6121306 0 0 0 0 29.845413
3.7128282 4.9177179 6.625484 0 0 0 0 29.850359
3.6711383 5.3418412 6.6608334 0 0 0 0 29.855305
3.5943537 5.7480965 6.6602054 0 0 0 0 29.860252
3.6456258 4.555995 6.5993171 0 0 0 0 29.8652
3.6049747 5.0001264 6.6166787 0 0 0 0 29.870148
3.5361814 5.3993454 6.6320367 0 0 0 0 29.875095
3.5098157 5.9033561 6.7594252 0 0 0 0 29.880041
3.5497837 4.6423688 6.5845032 0 0 0 0 29.884987
3.4951091 5.0795383 6.6068726 0 0 0 0 29.889935
3.4012129 5.4528432 6.6052356 0 0 0 0 29.894882
3.4172404 6.050642 6.8516464 0 0 0 0 29.89983
3.457968 4.7347193 6.5806875 0 0 0 0 29.904776
3.3771994 5.1489787 6.5860653 0 0 0 0 29.909723
3.270262 5.5103197 6.5854316 0 0 0 0 29.914669
3.2702842 6.1061583 6.8438554 0 0 0 0 29.919617
3.3550942 4.8141117 6.560873 0 0 0 0 29.924564
3.2582769 5.214417 6.5662551 0 0 0 0 29.929512
3.1544216 5.5937219 6.6006293 0 0 0 0 29.934458
3.1122227 6.1357217 6.8100557 0 0 0 0 29.939405
3.2592678 4.9044671 6.5580573 0 0 0 0 29.944351
3.1383452 5.2778549 6.5454431 0 0 0 0 29.949299
3.1151836 5.8227725 6.7898521 0 0 0 0 29.954247
2.9591892 6.1712561 6.7872529 0 0 0 0 29.959194
3.1553991 4.9848504 6.5452414 0 0 0 0 29.96414
3.0123732 5.3313127 6.5156288 0 0 0 0 29.969086
2.9772024 5.8732591 6.7700453 0 0 0 0 29.974033
2.8071508 6.2047815 6.7664466 0 0 0 0 29.978981
3.0475013 5.0582461 6.5264239 0 0 0 0 29.983929
2.8954742 5.4017229 6.5108156 0 0 0 0 29.988876
2.8372028 5.9187484 6.7482357 0 0 0 0 29.993822
2.650049 6.2213254 6.7326322 0 0 0 0 29.998768
2.9396186 5.1356339 6.5136075 0 0 0 0 30.003716
2.8703051 5.6507134 6.720036 0 0 0 0 30.008663
2.6951797 5.9572396 6.7244225 0 0 0 0 30.013611
2.4868784 6.219893 6.6828094 0 0 0 0 30.018557
2.8236754 5.1980524 6.4857864 0 0 0 0 30.023504
2.7443638 5.7121491 6.7072225 0 0 0 0 30.02845
2.556175 5.9997125 6.7086067 0 0 0 0 30.033398
2.3459089 6.2683511 6.6899981 0 0 0 0 30.038345
2.7110808 5.2637033 6.4656525 0 0 0 0 29.779505
2.6209068 5.778831 6.7041202 0 0 0 0 29.784452
2.4136281 6.0275102 6.6795154 0 0 0 0 29.789398
2.189302 6.264246 6.6469183 0 0 0 0 29.794346
2.6668112 5.4777827 6.6278744 0 0 0 0 29.799294
2.4869041 5.8223219 6.677309 0 0 0 0 29.804241
2.2675428 6.048039 6.6456981 0 0 0 0 29.809187
2.0402048 6.2777705 6.6260972 0 0 0 0 29.814133
2.5711131 5.5951042 6.6710773 0 0 0 0 29.81908
2.3508992 5.8648124 6.6524982 0 0 0 0 29.824028
2.1265118 6.0805354 6.6288834 0 0 0 0 29.828976
1.8850436 6.2753181 6.59127 0 0 0 0 29.833923
2.4451668 5.6545615 6.6492686 0 0 0 0 29.838869
2.2189217 5.9132791 6.6376853 0 0 0 0 29.843815
1.9824264 6.0990434 6.6020598 0 0 0 0 29.848763
1.7359042 6.2768359 6.5654378 0 0 0 0 29.85371
2.3212409 5.7190037 6.63446 0 0 0 0 29.858658
2.0758035 5.9278002 6.5878587 0 0 0 0 29.863604
1.8383174 6.1115494 6.570231 0 0 0 0 29.868551
1.5826941 6.2603726 6.5235958 0 0 0 0 29.873497
2.1902475 5.7664728 6.6056442 0 0 0 0 29.878445
1.9438238 5.9742537 6.5790415 0 0 0 0 29.883392
1.6952133 6.1240444 6.5433993 0 0 0 0 29.88834
1.4365544 6.2598677 6.5027566 0 0 0 0 29.893286
2.064312 5.8279104 6.593833 0 0 0 0 29.898233
1.8057783 6.0047321 6.5542183 0 0 0 0 29.903179
1.551079 6.1285424 6.5105619 0 0 0 0 29.908127
1.2893497 6.2423706 6.467905 0 0 0 0 29.913074
1.9323127 5.8733716 6.5680141 0 0 0 0 29.918022
1.6667029 6.0272121 6.5243888 0 0 0 0 29.922968
1.4099686 6.1380191 6.4867239 0 0 0 0 29.927914
1.1451927 6.2358499 6.4470572 0 0 0 0 29.932861
1.7983071 5.9168339 6.5431948 0 0 0 0 29.937809
1.5286468 6.053679 6.5025601 0 0 0 0 29.942757
1.2688472 6.1434913 6.463882 0 0 0 0 29.947704
1.0009805 6.2143321 6.4151974 0 0 0 0 29.95265
1.6683446 5.9702692 6.5333767 0 0 0 0 29.957596
1.3905665 6.0731435 6.4777246 0 0 0 0 29.962543
1.1266874 6.1389675 6.4320321 0 0 0 0 29.967491
0.85572803 6.1818185 6.37433 0 0 0 0 29.972439
1.5343717 6.0207114 6.5235596 0 0 0 0 29.977385
1.2524964 6.0946002 6.4578891 0 0 0 0 29.982332
0.98553193 6.1344328 6.4041805 0 0 0 0 29.987278
0.71757591 6.1732588 6.3624706 0 0 0 0 29.992226
1.3922359 6.0302029 6.4717197 0 0 0 0 29.997173
1.1123848 6.1050634 6.4290466 0 0 0 0 30.002121
0.84739238 6.1328802 6.3833261 0 0 0 0 30.007067
0.57731694 6.1367192 6.3245931 0 0 0 0 30.012014
1.2551992 6.0636535 6.4498911 0 0 0 0 30.01696
0.97328871 6.118515 6.4072042 0 0 0 0 30.021908
0.70824438 6.1283259 6.3624701 0 0 0 0 30.026855
0.43908566 6.1061621 6.2957172 0 0 0 0 30.031803
1.115123 6.086113 6.4210558 0 0 0 0 30.036749
0.83315259 6.1209698 6.3773537 0 0 0 0 30.041695
0.56902522 6.1047788 6.3245993 0 0 0 0 30.046642
0.30382475 6.0665951 6.2618303 0 0 0 0 30.05159
0.97915614 6.1365356 6.4222341 0 0 0 0 30.056538
0.69504368 6.1294074 6.3575044 0 0 0 0 30.061485
0.43182257 6.0842161 6.2937284 0 0 0 0 30.066431
0.16962782 6.0430088 6.2449527 0 0 0 0 30.071377
0.83498454 6.1330109 6.3733826 0 0 0 0 30.076324
0.55487239 6.1208558 6.3236437 0 0 0 0 30.081272
0.29665899 6.0726337 6.2758594 0 0 0 0 30.08622
0.03737168 6.0024209 6.2160606 0 0 0 0 30.091166
0.69596583 6.1684375 6.3675508 0 0 0 0 30.096113
0.41574645 6.1232867 6.3037887 0 0 0 0 30.101059
0.16040577 6.0370655 6.2349749 0 0 0 0 30.106007
-0.09087339 5.9638143 6.191165 0 0 0 0 30.110954
0.55385697 6.179883 6.339705 0 0 0 0 30.115902
0.27651751 6.0977302 6.258913 0 0 0 0 30.120848
0.028240956 6.0234637 6.2200994 0 0 0 0 30.125795
-0.21916883 5.911212 6.1532588 0 0 0 0 30.130741
0.41071126 6.1803308 6.305851 0 0 0 0 30.135689
0.13938005 6.0951447 6.2410507 0 0 0 0 30.140636
-0.10501814 5.9838762 6.1822071 0 0 0 0 30.145584
-0.34542844 5.8665915 6.1273551 0 0 0 0 30.15053
0.26761362 6.1927638 6.2870035 0 0 0 0 30.155476
0.003212 6.0835557 6.2171793 0 0 0 0 30.160423
-0.23620929 5.9612651 6.1643229 0 0 0 0 30.165371
-0.46970966 5.8149638 6.0974445 0 0 0 0 30.170319
0.12438069 6.1682143 6.2341299 0 0 0 0 30.175266
-0.13396755 6.0679665 6.1923051 0 0 0 0 30.180212
-0.36546823 5.9196544 6.1294231 0 0 0 0 30.185158
-0.59195739 5.7713199 6.0775361 0 0 0 0 30.190105
-0.018792601 6.1586485 6.199265 0 0 0 0 30.195053
-0.27119076 6.0393777 6.1584215 0 0 0 0 30.200001
-0.49371168 5.8810334 6.1005235 0 0 0 0 30.204948
-0.71126902 5.7096748 6.0406122 0 0 0 0 30.209894
-0.16093118 6.1570654 6.1774039 0 0 0 0 30.21484
-0.40539247 6.0157719 6.131537 0 0 0 0 30.219788
-0.61997837 5.8344045 6.0686154 0 0 0 0 30.224735
-0.7476204 5.0991778 5.4232473 0 0 0 0 30.229683
-0.30312538 6.1394873 6.1425304 0 0 0 0 30.234629
-0.53963065 5.9811659 6.0966444 0 0 0 0 30.239576
-0.67815506 5.2699375 5.4963026 0 0 0 0 30.244522
-0.85383898 5.0574732 5.4103251 0 0 0 0 30.24947
-0.44926295 6.1279888 6.1178422 0 0 0 0 30.776672
-0.67477584 5.937541 6.0569096 0 0 0 0 30.78162
-0.79093665 5.2121592 5.4545727 0 0 0 0 30.786566
-0.96045625 5.0145779 5.3975911 0 0 0 0 30.791513
-0.59043807 6.1103296 6.0899496 0 0 0 0 30.796459
-0.73167461 5.3540144 5.4676156 0 0 0 0 30.801407
-0.898215 5.1474261 5.4076266 0 0 0 0 30.806355
-1.0617017 4.9558158 5.3706431 0 0 0 0 30.811302
-0.66433811 5.5238419 5.4996686 0 0 0 0 30.816248
-0.84890372 5.3082972 5.4306874 0 0 0 0 30.821194
-1.115739 5.6515861 5.9640989 0 0 0 0 30.826141
-1.1619159 4.9060416 5.3546991 0 0 0 0 30.831089
-0.79054171 5.4901438 5.4637537 0 0 0 0 30.836037
-1.0693827 5.8374629 5.9871755 0 0 0 0 30.840984
-1.2310152 5.5878572 5.9261565 0 0 0 0 30.84593
-1.2542133 4.8282633 5.3097315 0 0 0 0 30.850876
-1.0149736 6.0463185 6.018259 0 0 0 0 30.855824
-1.1976156 5.7917581 5.9562526 0 0 0 0 30.860771
-1.3492476 5.5371222 5.904222 0 0 0 0 30.865719
-1.3514204 4.7784729 5.2977839 0 0 0 0 30.870665
-1.1522112 6.0026379 5.9793434 0 0 0 0 30.875612
-1.3238585 5.741046 5.924324 0 0 0 0 30.880558
-1.4645013 5.4783802 5.8752809 0 0 0 0 30.885506
-1.4446584 4.7176776 5.274826 0 0 0 0 30.890453
-1.291424 5.9659514 5.9504318 0 0 0 0 30.895401
-1.4500817 5.6953235 5.9013977 0 0 0 0 30.900347
-1.5777526 5.4186287 5.8493361 0 0 0 0 30.905294
-1.536883 4.659873 5.2578683 0 0 0 0 30.91024
-1.4306175 5.9342546 5.9305229 0 0 0 0 30.915188
-1.5723486 5.6335959 5.8644581 0 0 0 0 30.920135
-1.6870148 5.3538656 5.8203845 0 0 0 0 30.925083
-1.6300886 4.6070628 5.2489142 0 0 0 0 30.930029
-1.5648711 5.8805528 5.8925958 0 0 0 0 30.934975
-1.693597 5.576859 5.8345199 0 0 0 0 30.939922
-1.799247 5.298099 5.8024406 0 0 0 0 30.94487
-1.7173338 4.5402451 5.2249465 0 0 0 0 30.949818
-1.6921723 5.8088398 5.8396525 0 0 0 0 30.954765
-1.8158338 5.5221152 5.8115826 0 0 0 0 30.959711
-1.9025364 5.2213206 5.7654767 0 0 0 0 30.964657
-1.7946328 4.4544153 5.1799603 0 0 0 0 30.969604
-1.8293699 5.771122 5.8247356 0 0 0 0 30.974552
-1.9340857 5.4613624 5.7826381 0 0 0 0 30.9795
-1.8182375 4.6644421 5.1941004 0 0 0 0 30.984446
-1.8967395 4.4315929 5.2100282 0 0 0 0 30.989393
-1.960619 5.7143965 5.7928019 0 0 0 0 30.994339
-2.0523374 5.3986039 5.7566919 0 0 0 0 30.999287
-1.9223969 4.626636 5.20016 0 0 0 0 31.004234
-2.1220362 4.6798434 5.5663385 0 0 0 0 31.009182
-2.0868962 5.6456604 5.7538571 0 0 0 0 31.014128
-2.1656058 5.3288345 5.7247372 0 0 0 0 31.019075
-2.0066793 4.5458112 5.1591806 0 0 0 0 31.024021
-2.2550008 4.7040405 5.6634526 0 0 0 0 31.028969
-2.2211037 5.5999217 5.7409301 0 0 0 0 31.033916
-2.28284 5.2690611 5.7077899 0 0 0 0 31.038864
-2.0969138 4.4799852 5.1372132 0 0 0 0 31.04381
-2.3432481 4.6322036 5.6474786 0 0 0 0 31.048756
-2.3453774 5.52917 5.7059813 0 0 0 0 31.053703
-2.1655166 4.702106 5.1383891 0 0 0 0 31.058651
-2.3074379 4.6582456 5.4004683 0 0 0 0 31.063599
-2.4245234 4.5493555 5.6204929 0 0 0 0 31.068546
-2.4686463 5.4584107 5.6740303 0 0 0 0 31.073492
-2.2677419 4.6402984 5.1184311 0 0 0 0 31.07844
-2.5080855 4.7945023 5.6226902 0 0 0 0 31.083385
-2.5047927 4.4675026 5.5945072 0 0 0 0 31.088333
-2.5958869 5.395648 5.655086 0 0 0 0 31.093281
-2.3749256 4.5914874 5.1164827 0 0 0 0 31.098227
-2.6003599 4.7126727 5.5937119 0 0 0 0 31.103174
-2.5850453 4.3896422 5.5765228 0 0 0 0 31.108122
-2.4595551 4.815649 5.0906682 0 0 0 0 31.113068
