# .PCD v0.7 - Point Cloud Data file format
VERSION 0.7
FIELDS x y z normal_x normal_y normal_z intensity curvature
SIZE 4 4 4 4 4 4 4 4
TYPE F F F F F F F F
COUNT 1 1 1 1 1 1 1 1
WIDTH 929
HEIGHT 1
VIEWPOINT 0 0 0 1 0 0 0
POINTS 929
DATA ascii
0.4822289 -0.91395319 -0.035424713 0 0 0 0 27.624306
0.46122235 -0.91797948 -0.040360272 0 0 0 0 27.629253
0.44021055 -0.91700578 -0.045299925 0 0 0 0 27.634199
0.40617034 -0.88904572 -0.050228186 0 0 0 0 27.639147
0.48920366 -0.87794471 -0.033440765 0 0 0 0 27.644093
0.46418983 -0.87497514 -0.038371876 0 0 0 0 27.64904
0.44718185 -0.87999791 -0.044317003 0 0 0 0 27.653988
0.37907487 -0.78107107 -0.04621578 0 0 0 0 27.658936
0.4660306 -0.79496199 -0.030804303 0 0 0 0 27.415802
0.42999265 -0.76800483 -0.034724552 0 0 0 0 27.42075
0.41097465 -0.76403069 -0.040670358 0 0 0 0 27.425697
0.38294402 -0.74606556 -0.04560427 0 0 0 0 27.430643
0.47301105 -0.76495308 -0.028816702 0 0 0 0 27.435591
0.45700511 -0.77197564 -0.034761265 0 0 0 0 27.440536
0.42997628 -0.75801015 -0.040694505 0 0 0 0 27.445484
0.40795034 -0.74904001 -0.047636755 0 0 0 0 27.450432
0.47398257 -0.72895157 -0.027818128 0 0 0 0 27.455379
0.4619821 -0.74096972 -0.033769105 0 0 0 0 27.460325
0.44096059 -0.73599845 -0.040710691 0 0 0 0 27.465273
0.42294341 -0.73502386 -0.047656868 0 0 0 0 27.470219
0.49298838 -0.72192979 -0.025842346 0 0 0 0 27.475166
0.47597668 -0.72595417 -0.032786965 0 0 0 0 27.480114
0.45895913 -0.72697926 -0.040734116 0 0 0 0 27.485062
0.43793401 -0.72100866 -0.048676684 0 0 0 0 27.490007
0.50698406 -0.70791435 -0.024859017 0 0 0 0 27.494953
0.49397629 -0.71793514 -0.03280919 0 0 0 0 27.499901
0.47995943 -0.72195774 -0.041761745 0 0 0 0 27.504848
0.46294194 -0.72298276 -0.049709041 0 0 0 0 27.509796
0.52698845 -0.70189261 -0.023884404 0 0 0 0 27.514744
0.52499318 -0.72590226 -0.032851689 0 0 0 0 27.51969
0.49395272 -0.70794314 -0.0417783 0 0 0 0 27.524635
0.48494563 -0.72096032 -0.050736565 0 0 0 0 27.529583
0.55299938 -0.70186454 -0.022920094 0 0 0 0 27.534531
0.54098755 -0.71288574 -0.032872181 0 0 0 0 27.539478
0.52496707 -0.71591121 -0.042820524 0 0 0 0 27.544424
0.51094884 -0.72093451 -0.052772451 0 0 0 0 27.549372
0.57400382 -0.69584197 -0.021947414 0 0 0 0 27.554317
0.55698448 -0.6998685 -0.031892385 0 0 0 0 27.559265
0.545968 -0.70888937 -0.042848803 0 0 0 0 27.564213
0.66410768 -0.89078134 -0.06499663 0 0 0 0 27.56916
0.58699757 -0.67982817 -0.02096195 0 0 0 0 27.574106
0.57297897 -0.68685216 -0.03191229 0 0 0 0 27.579054
0.60301059 -0.74583095 -0.044933528 0 0 0 0 27.584
0.59098893 -0.7548545 -0.057887442 0 0 0 0 27.588947
0.60599792 -0.66980803 -0.019986745 0 0 0 0 27.593895
0.63702935 -0.72878581 -0.033010431 0 0 0 0 27.598843
0.61099237 -0.72082341 -0.044942252 0 0 0 0 27.603788
0.63000464 -0.66578281 -0.019019173 0 0 0 0 27.613682
0.63700527 -0.69578606 -0.032004789 0 0 0 0 27.618629
0.63299119 -0.71180105 -0.044973601 0 0 0 0 27.623577
0.65500355 -0.68376738 -0.031027976 0 0 0 0 27.638416
0.63897228 -0.68579572 -0.04497749 0 0 0 0 27.643364
0.88820744 -0.88452846 -0.03742671 0 0 0 0 27.658205
0.66097236 -0.67777365 -0.045007393 0 0 0 0 27.663153
0.6429376 -0.67880487 -0.059952755 0 0 0 0 27.668098
0.78205544 -0.76365298 -0.051212706 0 0 0 0 27.682941
0.940193 -0.85347736 -0.036515586 0 0 0 0 27.697781
0.72798538 -0.67870772 -0.047110707 0 0 0 0 27.702728
0.97421879 -0.81942624 -0.014602792 0 0 0 0 27.712624
0.93615973 -0.81148297 -0.035504751 0 0 0 0 27.717569
0.96218145 -0.77344024 -0.01357461 0 0 0 0 27.73241
0.98316967 -0.81343651 -0.035587158 0 0 0 0 27.737358
0.95711446 -0.8114813 -0.05751479 0 0 0 0 27.742306
0.94114083 -0.72146273 -0.011528512 0 0 0 0 27.752197
0.96612859 -0.76345557 -0.034549467 0 0 0 0 27.757145
0.98510563 -0.79745543 -0.058561645 0 0 0 0 27.762093
0.84304333 -0.61856586 -0.011329914 0 0 0 0 27.771988
0.97711152 -0.73644578 -0.033563673 0 0 0 0 27.776934
0.97607017 -0.75246626 -0.057539936 0 0 0 0 27.781879
1.5625414 -1.0898281 -0.0097195245 0 0 0 0 27.791775
0.89603221 -0.64352876 -0.030399932 0 0 0 0 27.796722
0.9560324 -0.70248741 -0.055494633 0 0 0 0 27.801668
0.89304328 -0.59451622 -0.0084050084 0 0 0 0 27.811562
0.91001934 -0.62251651 -0.030416794 0 0 0 0 27.816509
0.87595934 -0.61256802 -0.051331501 0 0 0 0 27.821457
0.86391318 -0.61859787 -0.073288456 0 0 0 0 27.826405
0.91800511 -0.59750968 -0.029421588 0 0 0 0 27.836296
0.90095496 -0.59954458 -0.051369257 0 0 0 0 27.841244
0.89991105 -0.61256468 -0.075348049 0 0 0 0 27.846191
0.92194414 -0.58252609 -0.052399807 0 0 0 0 27.861032
0.92389995 -0.5975439 -0.077384442 0 0 0 0 27.865978
4.9503937 -2.8264024 0.014426797 0 0 0 0 27.870926
4.9482527 -2.6801951 0.019645497 0 0 0 0 27.63797
4.4657435 -2.4808018 -0.097273096 0 0 0 0 27.642918
4.9411144 -2.5362158 0.024605403 0 0 0 0 27.657757
4.4426045 -2.3368382 -0.093275346 0 0 0 0 27.662704
4.0471787 -2.1713362 -0.19239178 0 0 0 0 27.667652
3.7208164 -2.0367515 -0.27965963 0 0 0 0 27.6726
4.9790025 -2.4161897 0.029471109 0 0 0 0 27.677546
4.4434819 -2.2098501 -0.090324365 0 0 0 0 27.682491
4.0470619 -2.0513484 -0.19043496 0 0 0 0 27.687439
3.700696 -1.911783 -0.27765808 0 0 0 0 27.692387
4.9588652 -2.2712243 0.034464665 0 0 0 0 27.697334
4.4473619 -2.0848589 -0.087378666 0 0 0 0 27.70228
4.0279422 -1.9243792 -0.18743509 0 0 0 0 27.707228
3.6895821 -1.7948056 -0.27667245 0 0 0 0 27.712173
4.9287267 -2.1262698 0.03848391 0 0 0 0 27.717121
4.4362426 -1.9588833 -0.084395267 0 0 0 0 27.722069
4.012825 -1.8024067 -0.18544091 0 0 0 0 27.727016
3.6884797 -1.6878178 -0.27570361 0 0 0 0 27.731962
4.9426131 -2.0022688 0.043409541 0 0 0 0 27.73691
4.433126 -1.8379 -0.082427494 0 0 0 0 27.741856
4.0437293 -1.704388 -0.18554279 0 0 0 0 27.746803
3.6733747 -1.5748436 -0.27370384 0 0 0 0 27.751751
4.9114838 -1.8643152 0.047437765 0 0 0 0 27.756699
4.4220119 -1.7159244 -0.079439871 0 0 0 0 27.761644
3.9996114 -1.5774444 -0.18247887 0 0 0 0 27.76659
3.6672742 -1.4708617 -0.2737191 0 0 0 0 27.771538
4.9163694 -1.7423251 0.050388891 0 0 0 0 27.776485
4.4269056 -1.6029328 -0.077484645 0 0 0 0 27.781433
4.0045123 -1.4724519 -0.1815199 0 0 0 0 27.786381
3.6471746 -1.3618926 -0.27170292 0 0 0 0 27.791327
4.9112568 -1.6193445 0.054364871 0 0 0 0 27.796272
4.4147987 -1.4859581 -0.074489549 0 0 0 0 27.80122
4.0124159 -1.3694564 -0.18056619 0 0 0 0 27.806168
3.6380813 -1.2609128 -0.27070749 0 0 0 0 27.811115
4.9161496 -1.5003537 0.058319721 0 0 0 0 27.816063
4.4196973 -1.3759667 -0.072530739 0 0 0 0 27.821009
3.9873137 -1.2574937 -0.17853695 0 0 0 0 27.825954
3.6149864 -1.1549463 -0.26868087 0 0 0 0 27.830902
4.9170432 -1.3813671 0.062285174 0 0 0 0 27.83585
4.4105935 -1.2629894 -0.070538945 0 0 0 0 27.840797
3.9852197 -1.1555083 -0.17755662 0 0 0 0 27.845743
3.6108985 -1.059962 -0.26869246 0 0 0 0 27.850691
4.9289436 -1.2683693 0.066228747 0 0 0 0 27.855637
4.396493 -1.1520174 -0.068532787 0 0 0 0 27.860584
3.9711263 -1.0505342 -0.17554848 0 0 0 0 27.865532
3.5948105 -0.9619891 -0.26767632 0 0 0 0 27.87048
4.8968306 -1.1434169 0.06927225 0 0 0 0 27.875425
4.3883953 -1.0440389 -0.066538692 0 0 0 0 27.880371
3.972038 -0.9525457 -0.1745715 0 0 0 0 27.885319
3.600729 -0.87199473 -0.26770782 0 0 0 0 27.890266
4.614656 -0.97072011 0.066893131 0 0 0 0 27.895214
4.3662982 -0.93507469 -0.064510532 0 0 0 0 27.900162
3.9499476 -0.85158032 -0.17353985 0 0 0 0 27.905107
3.589644 -0.77801734 -0.26770014 0 0 0 0 27.910053
4.9076333 -0.92043608 0.075196862 0 0 0 0 27.915001
4.3662057 -0.8300882 -0.062532879 0 0 0 0 27.919949
3.9448617 -0.75459772 -0.17254649 0 0 0 0 27.924896
3.5705643 -0.68604714 -0.26667103 0 0 0 0 27.929844
4.8725286 -0.80148619 0.078253374 0 0 0 0 27.93479
4.3591161 -0.72710872 -0.060536064 0 0 0 0 27.939735
3.9407778 -0.6586141 -0.17155436 0 0 0 0 27.944683
3.5794866 -0.5980497 -0.26670688 0 0 0 0 27.949631
4.8934355 -0.69348037 0.081182025 0 0 0 0 27.954578
4.3440237 -0.62313783 -0.059520077 0 0 0 0 27.959524
3.9256923 -0.56064141 -0.17053653 0 0 0 0 27.964472
4.6162953 -0.5507744 0.078808568 0 0 0 0 27.974365
4.3469372 -0.52214837 -0.057545144 0 0 0 0 27.979313
3.9226103 -0.46765745 -0.17054372 0 0 0 0 27.984261
4.8932481 -0.47351068 0.087140612 0 0 0 0 27.994152
4.3408489 -0.42116854 -0.056547865 0 0 0 0 27.9991
3.9095328 -0.37368184 -0.16852704 0 0 0 0 28.004047
4.8831534 -0.36353648 0.089144938 0 0 0 0 28.013943
4.3307648 -0.32019183 -0.054540474 0 0 0 0 28.018888
3.8994522 -0.28070471 -0.1685165 0 0 0 0 28.023834
4.8650603 -0.25457001 0.091169707 0 0 0 0 28.03373
4.3266816 -0.22320992 -0.053544119 0 0 0 0 28.038677
3.9053738 -0.18971185 -0.16854255 0 0 0 0 28.043625
4.8689723 -0.14758122 0.094143502 0 0 0 0 28.053516
4.3105974 -0.12323969 -0.052520759 0 0 0 0 28.058464
3.8872991 -0.098741643 -0.16751054 0 0 0 0 28.063412
4.8798847 -0.040585678 0.097101189 0 0 0 0 28.073305
4.3145142 -0.024249936 -0.051544163 0 0 0 0 28.078253
3.8832238 -0.0067577399 -0.16651247 0 0 0 0 28.083199
4.8637938 0.068382911 0.099122539 0 0 0 0 28.093094
4.3094354 0.073731832 -0.049544785 0 0 0 0 28.098042
3.8731489 0.083219655 -0.1664982 0 0 0 0 28.102987
4.867784 0.17524545 0.10156456 0 0 0 0 28.256302
4.2994413 0.17060106 -0.048094958 0 0 0 0 28.26125
3.8681655 0.17410898 -0.16608071 0 0 0 0 28.266197
4.8386998 0.28220245 0.10361966 0 0 0 0 28.276091
4.302362 0.26858902 -0.048111606 0 0 0 0 28.281036
3.8530977 0.26308283 -0.16505218 0 0 0 0 28.285984
4.8536139 0.39120054 0.10557172 0 0 0 0 28.295879
4.2672892 0.36454314 -0.046038412 0 0 0 0 28.300825
3.841028 0.35205892 -0.16503029 0 0 0 0 28.305773
4.837532 0.49716982 0.10759821 0 0 0 0 28.315666
4.2772102 0.46353766 -0.04607103 0 0 0 0 28.320614
3.8369572 0.44304243 -0.16502795 0 0 0 0 28.325562
4.8494473 0.60716498 0.10955781 0 0 0 0 28.335455
4.2771354 0.56152362 -0.045079298 0 0 0 0 28.340401
3.815892 0.53101104 -0.16398402 0 0 0 0 28.345348
4.833365 0.71513444 0.11158379 0 0 0 0 28.355244
4.2600608 0.65949398 -0.044048093 0 0 0 0 28.360189
3.8248198 0.62500656 -0.1640128 0 0 0 0 28.365135
4.8332825 0.82411855 0.11357285 0 0 0 0 28.375031
4.2609849 0.75948089 -0.043059111 0 0 0 0 28.379978
3.7817607 0.70795536 -0.16291459 0 0 0 0 28.384926
4.8391991 0.93510813 0.11554742 0 0 0 0 28.394817
4.2469125 0.85745412 -0.042034034 0 0 0 0 28.399765
3.7726927 0.79893464 -0.16289946 0 0 0 0 28.404713
4.8141174 1.0420688 0.11659587 0 0 0 0 28.414606
4.2348375 0.95542866 -0.042013157 0 0 0 0 28.419554
3.7756233 0.8919248 -0.16291258 0 0 0 0 28.4245
3.3884385 0.83849889 -0.26698387 0 0 0 0 28.429447
4.8090363 1.1530485 0.11859649 0 0 0 0 28.434395
4.2347627 1.0574148 -0.04102185 0 0 0 0 28.439342
3.7605586 0.98089874 -0.16288169 0 0 0 0 28.444288
3.3653836 0.91946805 -0.26593217 0 0 0 0 28.449236
4.842947 1.275064 0.12150199 0 0 0 0 28.454182
4.2386842 1.1614038 -0.041040402 0 0 0 0 28.459129
3.7604868 1.0758855 -0.16388847 0 0 0 0 28.464077
3.3733132 1.0084624 -0.26895574 0 0 0 0 28.469025
3.9470346 1.1332273 0.098682508 0 0 0 0 28.47397
3.611784 1.0788312 -0.035511617 0 0 0 0 28.478916
3.4645238 1.0806162 -0.15216792 0 0 0 0 28.483864
3.3572547 1.0924374 -0.26892138 0 0 0 0 28.488811
3.7480083 1.1670327 0.094166078 0 0 0 0 28.493759
3.414777 1.1066443 -0.034031264 0 0 0 0 28.498707
3.0866063 1.0422783 -0.1372384 0 0 0 0 28.503653
2.8384392 1.0009917 -0.22964156 0 0 0 0 28.508598
3.7349477 1.2540088 0.095194861 0 0 0 0 28.513546
3.2477703 1.1344854 -0.032620575 0 0 0 0 28.518494
2.9166203 1.0621225 -0.12981832 0 0 0 0 28.523441
2.6784642 1.0168481 -0.2192432 0 0 0 0 28.528387
4.7476273 1.7129134 0.12568432 0 0 0 0 28.533335
3.2277207 1.2104574 -0.031572141 0 0 0 0 28.53828
2.8625891 1.1180663 -0.12868313 0 0 0 0 28.543228
2.5694687 1.0477487 -0.21197061 0 0 0 0 28.548176
4.7195487 1.8208718 0.125741 0 0 0 0 28.553123
4.1413274 1.6622474 -0.03785127 0 0 0 0 28.558069
3.7061496 1.547775 -0.16479291 0 0 0 0 28.563017
2.5684204 1.1187392 -0.21296582 0 0 0 0 28.567963
4.7134657 1.9398509 0.12774171 0 0 0 0 28.57291
4.1422486 1.7722341 -0.037864402 0 0 0 0 28.577858
3.6580982 1.6297214 -0.1636821 0 0 0 0 28.582806
3.2719612 1.5193084 -0.27073985 0 0 0 0 28.587751
4.696382 2.0558193 0.12776928 0 0 0 0 28.592697
4.1151791 1.8721962 -0.037808444 0 0 0 0 28.597645
3.6510258 1.7307026 -0.16467467 0 0 0 0 28.602592
3.2608962 1.6102872 -0.27271986 0 0 0 0 28.60754
4.6842985 2.1767936 0.12978289 0 0 0 0 28.612488
4.1150956 1.989182 -0.037823074 0 0 0 0 28.617434
3.6279619 1.8256706 -0.16462763 0 0 0 0 28.622379
3.2408371 1.7002594 -0.27267912 0 0 0 0 28.627327
4.6632156 2.2937584 0.12981938 0 0 0 0 28.632275
4.0850272 2.0901418 -0.037760645 0 0 0 0 28.637222
3.6178927 1.92765 -0.16461352 0 0 0 0 28.642168
3.2277746 1.7922374 -0.27365479 0 0 0 0 28.647116
4.6651244 2.4257448 0.13179593 0 0 0 0 28.652061
4.0699511 2.200115 -0.037736855 0 0 0 0 28.657009
3.6018231 2.0286236 -0.16558525 0 0 0 0 28.661957
3.2087119 1.8852103 -0.27461773 0 0 0 0 28.666904
4.6690302 2.5597322 0.13276756 0 0 0 0 28.67185
4.0618691 2.3180943 -0.037733208 0 0 0 0 28.676798
3.6047425 2.1426136 -0.16660659 0 0 0 0 28.681744
3.1906512 1.9771842 -0.27558196 0 0 0 0 28.686691
4.6379485 2.678689 0.1328259 0 0 0 0 28.691639
4.0557866 2.4380751 -0.037734702 0 0 0 0 28.696587
3.5806775 2.2425814 -0.1665595 0 0 0 0 28.701532
3.1775818 2.0771618 -0.27756205 0 0 0 0 28.706478
4.392962 2.6684597 0.1264326 0 0 0 0 28.711426
4.0487013 2.5620553 -0.037736099 0 0 0 0 28.716373
3.5596068 2.3475511 -0.16752197 0 0 0 0 28.721321
3.1705091 2.1821446 -0.279558 0 0 0 0 28.726269
4.3264413 2.7619824 0.12836647 0 0 0 0 29.253885
4.0431771 2.6876712 -0.036015324 0 0 0 0 29.258833
3.5380995 2.454215 -0.16586863 0 0 0 0 29.263779
3.1560075 2.2848616 -0.27900323 0 0 0 0 29.268726
4.5092807 3.0231071 0.13492283 0 0 0 0 29.273674
4.0141115 2.8046358 -0.035960793 0 0 0 0 29.278622
3.5270321 2.5711949 -0.16685356 0 0 0 0 29.283567
3.1369479 2.3888366 -0.28096807 0 0 0 0 29.288513
4.3342752 3.0469587 0.13032134 0 0 0 0 29.293461
4.002037 2.934613 -0.035946816 0 0 0 0 29.298409
3.514962 2.6901731 -0.16883723 0 0 0 0 29.303356
3.1318803 2.504822 -0.28296688 0 0 0 0 29.308304
4.2772164 3.1529009 0.12944005 0 0 0 0 29.31325
3.9869611 3.0655878 -0.036927026 0 0 0 0 29.318195
3.5228782 2.8291662 -0.17087087 0 0 0 0 29.323143
3.0938337 2.5987842 -0.28288829 0 0 0 0 29.328091
4.0342531 3.1147037 0.12300266 0 0 0 0 29.333038
3.9359045 3.1735368 -0.036823649 0 0 0 0 29.337984
3.5717618 3.0081882 -0.17500605 0 0 0 0 29.342932
3.0877604 2.7217686 -0.28588828 0 0 0 0 29.347878
3.8522656 3.1145539 0.11842181 0 0 0 0 29.352825
3.6909711 3.1173458 -0.035251558 0 0 0 0 29.357773
3.4947321 3.0871217 -0.17283908 0 0 0 0 29.36272
3.1426325 2.9057937 -0.29504022 0 0 0 0 29.367666
3.6712828 3.1054058 0.11284154 0 0 0 0 29.372614
3.4950144 3.0921919 -0.03379529 0 0 0 0 29.37756
3.3727372 3.1210239 -0.1695606 0 0 0 0 29.382507
3.0776019 2.986738 -0.29290119 0 0 0 0 29.387455
3.5392773 3.1322958 0.10914414 0 0 0 0 29.392403
3.3010621 3.0580406 -0.033340681 0 0 0 0 29.397348
3.1228471 3.0288389 -0.15896699 0 0 0 0 29.402294
3.0015817 3.0566759 -0.28973535 0 0 0 0 29.407242
3.3673003 3.1181571 0.10454468 0 0 0 0 29.412189
3.1400936 3.0459142 -0.032964509 0 0 0 0 29.417137
2.9499018 2.998708 -0.15355942 0 0 0 0 29.422085
2.8246579 3.016547 -0.27731568 0 0 0 0 29.427031
3.0091119 3.054811 -0.031659633 0 0 0 0 29.436924
2.808939 2.9926009 -0.14822882 0 0 0 0 29.441872
2.6477411 2.966419 -0.26489308 0 0 0 0 29.446819
2.6919591 3.005511 -0.14495635 0 0 0 0 29.461658
2.5207844 2.9633265 -0.25559419 0 0 0 0 29.466606
4.8130689 5.0971732 0.15589283 0 0 0 0 29.471554
2.5809796 3.0204268 -0.14069791 0 0 0 0 29.481447
2.3918321 2.9512327 -0.24728836 0 0 0 0 29.486395
4.5531192 5.0459695 0.14848922 0 0 0 0 29.491341
3.7802153 4.4053173 -0.041681174 0 0 0 0 29.496288
2.2988439 2.9791627 -0.24307413 0 0 0 0 29.506184
4.3791165 5.0758281 0.14287551 0 0 0 0 29.511129
4.0858283 4.9905162 -0.045508265 0 0 0 0 29.516075
2.2258358 3.033107 -0.23991276 0 0 0 0 29.52597
4.1781383 5.0696697 0.13732973 0 0 0 0 29.530918
3.8938613 4.9863696 -0.045074638 0 0 0 0 29.535866
3.2330329 4.3708315 -0.18448561 0 0 0 0 29.540812
2.1528296 3.0850518 -0.23675106 0 0 0 0 29.545757
3.9511874 5.0224943 0.13085188 0 0 0 0 29.550705
3.7578487 5.0452619 -0.04578235 0 0 0 0 29.555653
3.4936197 4.9619908 -0.20322758 0 0 0 0 29.5606
2.7859509 4.1994424 -0.3104803 0 0 0 0 29.565546
3.7612133 5.0083461 0.12428395 0 0 0 0 29.570494
3.5978615 5.0711389 -0.045429263 0 0 0 0 29.575439
3.2797086 4.8968368 -0.1957276 0 0 0 0 29.580387
2.742866 4.3574028 -0.31342486 0 0 0 0 29.585335
3.5782404 4.9952044 0.11869975 0 0 0 0 29.590282
3.3779409 4.9999771 -0.044915169 0 0 0 0 29.595228
3.1577003 4.9627447 -0.19247131 0 0 0 0 29.600176
2.8975136 4.8524871 -0.33791533 0 0 0 0 29.605122
3.4142561 5.0010781 0.11406766 0 0 0 0 29.610069
3.1879983 4.959837 -0.044476431 0 0 0 0 29.615017
3.0277009 5.0126476 -0.19019312 0 0 0 0 29.619965
2.7385659 4.8463755 -0.32855627 0 0 0 0 29.62491
3.2552726 5.0059562 0.10942464 0 0 0 0 29.629856
3.0160422 4.9397101 -0.044084281 0 0 0 0 29.634804
2.8188081 4.9225016 -0.18169725 0 0 0 0 29.639751
2.6395397 4.9403024 -0.32536244 0 0 0 0 29.644699
2.8550804 4.9275923 -0.043719012 0 0 0 0 29.654593
2.6598575 4.9083886 -0.17633632 0 0 0 0 29.659538
2.5065618 4.9742093 -0.31807584 0 0 0 0 29.664486
2.7250836 4.9644952 -0.044438351 0 0 0 0 29.674381
2.5138938 4.9082847 -0.17300873 0 0 0 0 29.679329
2.3336525 4.9160929 -0.30666989 0 0 0 0 29.684275
4.5873108 8.2288361 0.1595107 0 0 0 0 29.68922
2.3759234 4.9211879 -0.16870449 0 0 0 0 29.699116
2.1907034 4.9119959 -0.29734921 0 0 0 0 29.704063
4.2684307 8.0806026 0.14924972 0 0 0 0 29.709009
2.2649169 4.9831085 -0.1664764 0 0 0 0 29.718903
2.053745 4.9159036 -0.29004556 0 0 0 0 29.72385
3.9879274 7.9826069 0.13871744 0 0 0 0 29.43647
3.5527575 7.6851788 -0.066267572 0 0 0 0 29.441418
3.1775997 7.4508114 -0.24140392 0 0 0 0 29.446363
1.9223173 4.9278922 -0.28359246 0 0 0 0 29.451309
3.7030377 7.8573852 0.12940788 0 0 0 0 29.456257
3.2898769 7.5739808 -0.065631136 0 0 0 0 29.461205
2.8748417 7.2015944 -0.22761899 0 0 0 0 29.466152
3.3772283 7.6121359 0.1182376 0 0 0 0 29.476046
3.0160377 7.4027772 -0.064945087 0 0 0 0 29.480991
2.6309924 7.068419 -0.21801513 0 0 0 0 29.485939
3.0843949 7.4009128 0.10798045 0 0 0 0 29.495834
2.7691693 7.271594 -0.064336665 0 0 0 0 29.50078
2.3791847 6.8772402 -0.20736855 0 0 0 0 29.505728
2.1239359 6.8379769 -0.35885078 0 0 0 0 29.510674
2.881434 7.3807569 0.10144435 0 0 0 0 29.515621
2.4704196 6.9713774 -0.062542431 0 0 0 0 29.520569
2.1673121 6.7680898 -0.19984633 0 0 0 0 29.525517
1.9190742 6.7338362 -0.34434676 0 0 0 0 29.530462
3.4450729 9.4581518 0.12332555 0 0 0 0 29.53541
3.2962978 10.02293 -0.087684296 0 0 0 0 29.540356
1.9943552 6.7719655 -0.19546191 0 0 0 0 29.545303
1.7521223 6.7447209 -0.3349795 0 0 0 0 29.550251
3.3118904 9.7780447 0.11947984 0 0 0 0 29.555199
2.9754949 9.8116989 -0.08589188 0 0 0 0 29.560144
2.5553982 9.4843102 -0.26491335 0 0 0 0 29.56509
1.5951284 6.8086123 -0.32866171 0 0 0 0 29.570038
3.1347682 10.007908 0.11376429 0 0 0 0 29.574986
2.6467464 9.5194645 -0.084046662 0 0 0 0 29.579933
2.2755854 9.3121166 -0.25322816 0 0 0 0 29.584881
1.4530913 6.9305129 -0.32440475 0 0 0 0 29.589827
2.7790389 9.6446476 0.10069691 0 0 0 0 29.594772
2.3569429 9.301259 -0.08331944 0 0 0 0 29.59972
2.0047781 9.1269321 -0.24255754 0 0 0 0 29.604668
1.6894829 9.114625 -0.41295198 0 0 0 0 29.609615
2.7306001 10.358605 0.10047982 0 0 0 0 29.614561
2.1120324 9.236084 -0.083761908 0 0 0 0 29.619509
1.7678927 9.0467691 -0.23501021 0 0 0 0 29.624454
1.4506321 9.0094671 -0.39639041 0 0 0 0 29.629402
2.4925933 10.417431 0.091962747 0 0 0 0 29.63435
2.1242852 10.384082 -0.094324827 0 0 0 0 29.639297
1.548957 9.0346203 -0.22953564 0 0 0 0 29.644243
1.2366915 9.0223265 -0.38494092 0 0 0 0 29.649191
2.6104991 12.137505 0.097911917 0 0 0 0 29.654137
1.8793186 10.40491 -0.095815159 0 0 0 0 29.659084
1.5320433 10.39359 -0.25715718 0 0 0 0 29.664032
1.0326933 9.1101913 -0.37755212 0 0 0 0 29.66898
2.3324993 12.194305 0.088469781 0 0 0 0 29.673925
1.9061693 12.161914 -0.11171705 0 0 0 0 29.678871
1.2930661 10.448429 -0.25268248 0 0 0 0 29.683819
0.93180442 10.411102 -0.41698951 0 0 0 0 29.688766
2.8952327 17.268686 0.11286847 0 0 0 0 29.693714
1.6271846 12.217722 -0.11416398 0 0 0 0 29.698662
1.2149322 12.150358 -0.28536311 0 0 0 0 29.703608
0.80358118 12.191989 -0.47162226 0 0 0 0 29.708553
2.0900586 14.528128 0.081850298 0 0 0 0 29.713501
1.6801317 15.341738 -0.14281152 0 0 0 0 29.718449
0.93097723 12.188171 -0.27879885 0 0 0 0 29.723396
0.51570421 12.140807 -0.45500797 0 0 0 0 29.728342
1.8475649 15.356957 0.073941328 0 0 0 0 29.73329
1.4750092 17.109591 -0.16127454 0 0 0 0 29.738235
0.88692433 16.690096 -0.37097839 0 0 0 0 29.743183
0.22974928 12.199628 -0.44145826 0 0 0 0 29.748131
1.4747106 15.200701 0.060775526 0 0 0 0 29.753078
1.0651696 16.976318 -0.16238445 0 0 0 0 29.758024
0.50681466 16.98185 -0.36836627 0 0 0 0 29.762972
-0.072442055 16.807362 -0.58522016 0 0 0 0 29.767918
1.2585726 17.040554 0.054299302 0 0 0 0 29.772865
0.67222136 17.00606 -0.16461456 0 0 0 0 29.777813
0.10897927 16.875595 -0.35752264 0 0 0 0 29.782761
-0.46535689 16.847118 -0.5664652 0 0 0 0 29.787706
0.85665941 16.981283 0.040130094 0 0 0 0 29.792652
0.27831531 16.970804 -0.16681518 0 0 0 0 29.7976
-0.28293663 16.88735 -0.34875572 0 0 0 0 29.802547
-0.86022246 16.81588 -0.54567599 0 0 0 0 29.807495
0.46373382 16.938021 0.024930857 0 0 0 0 29.812443
-0.11757939 16.917549 -0.1690089 0 0 0 0 29.817389
-0.67280787 16.832109 -0.33896396 0 0 0 0 29.822334
-1.2490759 16.767647 -0.52389449 0 0 0 0 29.827282
0.068786308 16.931761 0.010710739 0 0 0 0 29.83223
-0.51147956 16.872299 -0.17121601 0 0 0 0 29.837177
-1.0666944 16.799868 -0.32918251 0 0 0 0 29.842123
-1.6409332 16.724417 -0.50211602 0 0 0 0 29.847071
-0.32011464 16.849508 -0.0044874451 0 0 0 0 29.852016
-0.89934659 16.777058 -0.17241444 0 0 0 0 29.856964
-1.4575766 16.757631 -0.320407 0 0 0 0 29.861912
-2.0257785 16.661194 -0.48034555 0 0 0 0 29.866859
-0.72216445 17.008251 -0.017788848 0 0 0 0 29.871805
-1.2973456 16.881809 -0.17670086 0 0 0 0 29.876753
-1.8645666 16.880386 -0.3136912 0 0 0 0 29.881699
-2.3091371 15.874047 -0.43939805 0 0 0 0 29.886646
-1.1130891 16.964001 -0.033013627 0 0 0 0 29.891594
-1.7164012 17.078552 -0.1810012 0 0 0 0 29.896542
-2.1569617 16.094223 -0.29172987 0 0 0 0 29.901487
-2.703099 15.97682 -0.4227066 0 0 0 0 29.906433
-2.0991766 16.9242 -0.18395001 0 0 0 0 29.670334
-2.526716 15.990865 -0.2826643 0 0 0 0 29.67528
-3.077878 15.929437 -0.40361449 0 0 0 0 29.680225
-2.3674767 16.003035 -0.17691861 0 0 0 0 29.690121
-2.9086347 15.998626 -0.27491954 0 0 0 0 29.695068
-3.4577415 15.890209 -0.38285363 0 0 0 0 29.700014
-2.2013087 16.110205 -0.075233415 0 0 0 0 29.704962
-2.7403791 15.954797 -0.18016189 0 0 0 0 29.709908
-3.2794878 15.912399 -0.26515123 0 0 0 0 29.714855
-3.8356128 15.858986 -0.36310604 0 0 0 0 29.719803
-2.5631788 15.98197 -0.089455672 0 0 0 0 29.724751
-3.1212893 15.920558 -0.18240346 0 0 0 0 29.729696
-3.6553679 15.863172 -0.25639868 0 0 0 0 29.734644
-4.2104535 15.783767 -0.34234667 0 0 0 0 29.73959
-2.9421175 15.954724 -0.1047052 0 0 0 0 29.744537
-3.5002034 15.889321 -0.18565574 0 0 0 0 29.749485
-4.0452738 15.849936 -0.24864507 0 0 0 0 29.754433
-3.32304 15.905482 -0.11894535 0 0 0 0 29.764324
-3.8811138 15.852086 -0.18890683 0 0 0 0 29.769272
-4.4271636 15.811709 -0.24089852 0 0 0 0 29.77422
-3.7029674 15.863243 -0.13319644 0 0 0 0 29.784115
-4.2569942 15.770859 -0.19114999 0 0 0 0 29.789061
-5.6295705 16.42993 -0.29502249 0 0 0 0 29.798954
-4.0939093 15.840999 -0.14844373 0 0 0 0 29.803902
-4.4928679 15.841753 -0.16469407 0 0 0 0 29.823689
-5.8512945 16.397865 -0.22455402 0 0 0 0 29.833584
-5.6922264 16.41699 -0.2108192 0 0 0 0 29.848425
-7.7108321 16.145798 -0.18607874 0 0 0 0 29.897896
-8.7240524 15.431303 -0.11392683 0 0 0 0 29.957258
-7.6427822 16.163891 -0.28814274 0 0 0 0 29.962206
-8.5891275 15.519389 -0.15719393 0 0 0 0 29.972099
-9.0487862 15.17515 -0.090235181 0 0 0 0 29.977047
-8.891861 15.225245 -0.14652263 0 0 0 0 29.991886
-9.2934523 14.804049 -0.06663087 0 0 0 0 29.996834
-9.2997026 15.103039 -0.1367607 0 0 0 0 30.011677
-9.1868105 13.919161 -0.04238347 0 0 0 0 30.016623
-8.6811886 15.419336 -0.33196163 0 0 0 0 30.021568
-9.1938572 15.169083 -0.23496839 0 0 0 0 30.026516
-9.1780405 14.160155 -0.12051156 0 0 0 0 30.031464
-9.0972261 13.114261 -0.019148592 0 0 0 0 30.036411
-9.0250006 15.179158 -0.34725475 0 0 0 0 30.041357
-9.1903114 14.390123 -0.22859779 0 0 0 0 30.046305
-9.0814486 13.319256 -0.10527188 0 0 0 0 30.05125
-9.0016851 12.364363 0.0010470439 0 0 0 0 30.056198
-9.171607 14.616103 -0.35373357 0 0 0 0 30.061146
-9.0787086 13.509231 -0.22036515 0 0 0 0 30.066093
-8.9909096 12.551352 -0.092059679 0 0 0 0 30.071039
-8.9211912 11.677453 0.019235553 0 0 0 0 30.075987
-9.0619965 13.708206 -0.35048532 0 0 0 0 30.080933
-8.9821577 12.705327 -0.21214665 0 0 0 0 30.08588
-8.9094191 11.85044 -0.080866665 0 0 0 0 30.090828
-8.8527422 11.055536 0.036411162 0 0 0 0 30.095776
-8.9584341 12.868304 -0.34726217 0 0 0 0 30.100721
-8.8956585 11.976417 -0.20494944 0 0 0 0 30.105667
-8.8439693 11.208518 -0.069677062 0 0 0 0 30.110615
-8.7843208 10.468618 0.0525681 0 0 0 0 30.115562
-8.8509159 12.091404 -0.34507802 0 0 0 0 30.12051
-8.8202 11.304499 -0.19876307 0 0 0 0 30.125458
-8.7975655 10.634584 -0.059489932 0 0 0 0 30.130404
-8.8640223 10.087614 0.068873256 0 0 0 0 30.135349
-8.7703104 11.396575 -0.34289286 0 0 0 0 30.189636
-8.7426453 10.680667 -0.19361222 0 0 0 0 30.194584
-8.7680721 10.109726 -0.049311467 0 0 0 0 30.19953
-9.2317944 10.036533 0.087479167 0 0 0 0 30.204475
-8.6968918 10.759652 -0.34172517 0 0 0 0 30.209423
-8.7032747 10.132726 -0.18843129 0 0 0 0 30.214371
-9.1349812 10.054557 -0.042693052 0 0 0 0 30.219318
-9.624691 9.9943571 0.10712991 0 0 0 0 30.224264
-8.6395121 10.182719 -0.34056085 0 0 0 0 30.229212
-9.0581884 10.058559 -0.19182536 0 0 0 0 30.234158
-9.5258923 10.005376 -0.035043824 0 0 0 0 30.239105
-10.020583 9.943182 0.1267838 0 0 0 0 30.244053
-8.9764261 10.076559 -0.35497117 0 0 0 0 30.249001
-9.4581242 10.01937 -0.19616763 0 0 0 0 30.253946
-9.9278049 9.956193 -0.027382577 0 0 0 0 30.258894
-10.459485 9.9129848 0.14849193 0 0 0 0 30.26384
-9.3843832 10.041361 -0.37230387 0 0 0 0 30.268787
-9.8640518 9.9651804 -0.2004994 0 0 0 0 30.273735
-10.345717 9.9080038 -0.019701939 0 0 0 0 30.278683
-10.875369 9.847805 0.16917224 0 0 0 0 30.283628
-9.7963295 9.9881649 -0.3886281 0 0 0 0 30.288574
-10.271975 9.9009924 -0.20482956 0 0 0 0 30.293522
-10.792631 9.8638029 -0.01098273 0 0 0 0 30.29847
-11.265235 9.7466421 0.18982056 0 0 0 0 30.303417
-10.213272 9.9259672 -0.40594649 0 0 0 0 30.308365
-10.732914 9.8637791 -0.21009298 0 0 0 0 30.313311
-11.206525 9.7766218 -0.0033038603 0 0 0 0 30.318256
-11.211903 9.2607203 0.20292522 0 0 0 0 30.323204
-10.68224 9.8967438 -0.42720267 0 0 0 0 30.328152
-11.153825 9.7775917 -0.21440536 0 0 0 0 30.333099
-11.151193 9.2796993 0.00580221 0 0 0 0 30.338045
-11.142581 8.7858057 0.21599787 0 0 0 0 30.342993
-11.082152 9.7795639 -0.44353682 0 0 0 0 30.347939
-11.093497 9.2736692 -0.21030448 0 0 0 0 30.352886
-11.08588 8.7997799 0.011883224 0 0 0 0 30.357834
-11.100285 8.3478765 0.22809559 0 0 0 0 30.362782
-11.006816 9.2526484 -0.44244987 0 0 0 0 30.367727
-11.03118 8.7847481 -0.20521511 0 0 0 0 30.372675
-11.035586 8.3538523 0.018971574 0 0 0 0 30.377621
-11.040998 7.9199553 0.23916054 0 0 0 0 30.382568
-10.959508 8.7687178 -0.44133919 0 0 0 0 30.387516
-10.969883 8.321826 -0.20113705 0 0 0 0 30.392464
-10.975297 7.911931 0.027040841 0 0 0 0 30.397409
-10.996731 7.5180249 0.24923639 0 0 0 0 30.402355
-10.880204 8.2848043 -0.4402805 0 0 0 0 30.407303
-10.904594 7.8709049 -0.19707195 0 0 0 0 30.412251
-10.919027 7.4950056 0.033104215 0 0 0 0 30.417198
-10.952469 7.1260948 0.26030648 0 0 0 0 30.422146
-10.833926 7.8448715 -0.43919051 0 0 0 0 30.427092
-10.85633 7.4539742 -0.19399631 0 0 0 0 30.432037
-10.87377 7.0970745 0.040175203 0 0 0 0 30.436985
-10.884215 6.7371764 0.27033657 0 0 0 0 30.441933
-10.774654 7.409946 -0.43812451 0 0 0 0 30.44688
-10.807076 7.0520439 -0.19093005 0 0 0 0 30.451826
-10.814521 6.7081499 0.046219267 0 0 0 0 30.456774
-10.844978 6.3762422 0.28039864 0 0 0 0 30.46172
-10.703391 6.9880271 -0.43608394 0 0 0 0 30.466667
-10.746824 6.6531191 -0.18688348 0 0 0 0 30.471615
-10.785291 6.3502092 0.052295335 0 0 0 0 30.476562
-10.654149 6.5950947 -0.43602288 0 0 0 0 30.486456
-0.39517221 0.20754944 0.0049027707 0 0 0 0 30.501297
-0.37218982 0.20555593 -0.011117795 0 0 0 0 30.51119
-0.37317109 0.19555898 -0.0041052797 0 0 0 0 30.516136
-0.34818608 0.19156684 -0.01912789 0 0 0 0 30.526031
-0.40113726 0.18755239 0.0059748404 0 0 0 0 30.540873
-0.35815123 0.17556842 -0.011071652 0 0 0 0 30.550766
-0.38713866 0.18055783 -0.0030229758 0 0 0 0 30.555714
-0.34315056 0.16757466 -0.019070331 0 0 0 0 30.565607
-0.41810563 0.17354998 0.0070606354 0 0 0 0 30.580448
-0.39312539 0.17055652 -0.010962024 0 0 0 0 30.590343
-0.42811191 0.17654359 -0.0019052165 0 0 0 0 30.595289
-0.36112225 0.15457074 -0.019982928 0 0 0 0 30.605183
-0.45007467 0.1635409 0.0091665369 0 0 0 0 30.620026
-0.42609915 0.16154572 -0.011854827 0 0 0 0 30.629917
-0.45308188 0.16253732 -0.0018084308 0 0 0 0 30.634865
-0.43410718 0.16253974 -0.022823067 0 0 0 0 30.64476
-0.48704344 0.15252985 0.011279185 0 0 0 0 30.659599
-0.47379249 0.15460412 -0.011082351 0 0 0 0 31.147373
-0.47177181 0.14560924 -7.5363285e-05 0 0 0 0 31.152321
-0.4547959 0.14560989 -0.023084017 0 0 0 0 31.162216
-0.40973046 0.10864001 0.0098898765 0 0 0 0 31.177055
-0.42375359 0.1166297 -0.010081132 0 0 0 0 31.186951
-0.40873373 0.10563932 -9.0167065e-05 0 0 0 0 31.191898
-0.39875534 0.10663784 -0.021089768 0 0 0 0 31.201792
-0.38469854 0.08365503 0.0099199247 0 0 0 0 31.216633
-0.38471824 0.086650416 -0.009067433 0 0 0 0 31.226526
-0.39070213 0.081651717 -5.1460454e-05 0 0 0 0 31.231474
-0.36671948 0.078656048 -0.019067381 0 0 0 0 31.241367
-0.36966848 0.062666014 0.009961783 0 0 0 0 31.256208
-0.3646872 0.063663304 -0.0090312101 0 0 0 0 31.266102
-0.37467197 0.060663115 -1.0918131e-05 0 0 0 0 31.271049
-0.36068985 0.059663709 -0.019014567 0 0 0 0 31.280945
-0.36364013 0.045673527 0.010013849 0 0 0 0 31.295784
-0.35065794 0.044673733 -0.0089884177 0 0 0 0 31.305679
-0.36464289 0.041672133 3.6697853e-05 0 0 0 0 31.310625
-0.34065858 0.03867656 -0.017978545 0 0 0 0 31.320518
-0.36161208 0.028679546 0.010070838 0 0 0 0 31.335361
-0.35362962 0.027678004 -0.0089251185 0 0 0 0 31.345255
-0.36961386 0.025676062 0.0011019268 0 0 0 0 31.350201
-0.34463179 0.022680167 -0.018914254 0 0 0 0 31.360096
-0.36458337 0.01268411 0.011133498 0 0 0 0 31.374935
-0.3606019 0.011680949 -0.0088575147 0 0 0 0 31.38483
-0.37258595 0.008680447 0.0011647081 0 0 0 0 31.389778
-0.34660369 0.0056848172 -0.018852385 0 0 0 0 31.399672
-0.36655495 -0.0033109568 0.012194701 0 0 0 0 31.414513
-0.35257325 -0.004310688 -0.007808317 0 0 0 0 31.424406
-0.37255833 -0.0083141197 0.0012236164 0 0 0 0 31.429354
-0.34457651 -0.0093091726 -0.018796116 0 0 0 0 31.439247
-0.36852798 -0.019306287 0.012255671 0 0 0 0 31.454088
-0.36254537 -0.022308631 -0.0077371141 0 0 0 0 31.463982
-0.3675313 -0.024307054 0.0012761264 0 0 0 0 31.468929
-0.3475489 -0.026304817 -0.018733475 0 0 0 0 31.478825
-0.37149975 -0.036301628 0.013317867 0 0 0 0 31.493664
-0.35651839 -0.038301304 -0.0076857256 0 0 0 0 31.503559
-0.37050268 -0.042302337 0.002338537 0 0 0 0 31.508507
-0.34252155 -0.043297879 -0.018680461 0 0 0 0 31.518398
-0.37247178 -0.053296309 0.014377468 0 0 0 0 31.533241
-0.36449075 -0.05729844 -0.0076172887 0 0 0 0 31.543135
-0.37047583 -0.059296925 0.0023969181 0 0 0 0 31.54808
-0.34549445 -0.060293488 -0.018618245 0 0 0 0 31.557976
-0.36244589 -0.068287879 0.014423676 0 0 0 0 31.572817
-0.3584643 -0.07329119 -0.0075661256 0 0 0 0 31.58271
-0.36744809 -0.076290332 0.0034516864 0 0 0 0 31.587658
-0.35146812 -0.079290234 -0.019552352 0 0 0 0 31.597551
-0.36641935 -0.086283788 0.014486685 0 0 0 0 31.612392
-0.37058493 -0.094327457 -0.0078661032 0 0 0 0 31.346542
-0.3965663 -0.10133258 0.0031745906 0 0 0 0 31.351488
-0.36659011 -0.10232787 -0.020848561 0 0 0 0 31.361382
-0.37253714 -0.10531728 0.015179683 0 0 0 0 31.376225
-0.37155715 -0.11332233 -0.0078058196 0 0 0 0 31.386118
-0.38853785 -0.11932395 0.0042232368 0 0 0 0 31.391064
-0.34956273 -0.1163163 -0.019811552 0 0 0 0 31.400959
-0.35851154 -0.11930721 0.015220266 0 0 0 0 31.415798
-0.34853113 -0.12430888 -0.0067769126 0 0 0 0 31.425694
-0.37851158 -0.13531508 0.0042689424 0 0 0 0 31.430641
-0.39353183 -0.15232611 -0.021694949 0 0 0 0 31.440535
-0.39547661 -0.15131328 0.018326947 0 0 0 0 31.455376
-0.45049086 -0.18633725 -0.00758463 0 0 0 0 31.465269
-0.45247203 -0.18533319 0.0064239381 0 0 0 0 31.470217
-0.38750431 -0.17231846 -0.021643579 0 0 0 0 31.48011
-0.44543755 -0.19432275 0.0224506 0 0 0 0 31.494951
-0.4104684 -0.19231838 -0.0075780363 0 0 0 0 31.504845
-0.44244409 -0.20532373 0.0074695949 0 0 0 0 31.509792
-0.3614794 -0.18130426 -0.020618644 0 0 0 0 31.519688
-0.43341178 -0.2123131 0.022493457 0 0 0 0 31.534527
-0.3914423 -0.20630641 -0.0065438598 0 0 0 0 31.544422
-0.43541694 -0.22731562 0.0075193336 0 0 0 0 31.54937
-0.35645238 -0.20129725 -0.020565877 0 0 0 0 31.559261
-0.44038203 -0.24030919 0.02356096 0 0 0 0 31.574104
-0.40741149 -0.24030566 -0.0064638942 0 0 0 0 31.583998
-0.44338632 -0.2583119 0.0085885683 0 0 0 0 31.588943
-0.36242354 -0.22829363 -0.020498792 0 0 0 0 31.598839
-6.5243015 -4.0731573 -0.04946449 0 0 0 0 31.603786
-6.6350222 -4.0861201 0.19365814 0 0 0 0 31.608732
-6.7797265 -4.119091 0.44682419 0 0 0 0 31.61368
-6.2485585 -4.1751208 -0.30077094 0 0 0 0 31.618626
-6.2902803 -4.1380601 -0.044739593 0 0 0 0 31.623573
-6.3480244 -4.1130104 0.18931286 0 0 0 0 31.628521
-6.4697433 -4.1339765 0.43444926 0 0 0 0 31.633469
-6.7834158 -4.7742596 -0.32803926 0 0 0 0 31.638414
-6.2392287 -4.3170195 -0.041776605 0 0 0 0 31.64336
-6.2869763 -4.2829666 0.19326194 0 0 0 0 31.648308
-6.3517151 -4.2609177 0.43332249 0 0 0 0 31.653255
-6.9367566 -4.9621234 0.22013363 0 0 0 0 31.668097
-7.0114679 -4.9370699 0.48820254 0 0 0 0 31.673042
-6.2251067 -4.7579641 -0.036732726 0 0 0 0 31.682938
-5.9920959 -4.8068724 -0.033004586 0 0 0 0 31.702724
-5.0541368 -4.6775436 -0.020127403 0 0 0 0 31.762089
-5.1079292 -4.626503 0.18591392 0 0 0 0 31.767036
-5.2206998 -4.6304774 0.40003201 0 0 0 0 31.771984
-5.1286736 -4.7604322 0.40094465 0 0 0 0 31.791771
-4.7117586 -4.5733099 0.3754375 0 0 0 0 31.81156
-4.5286541 -4.5974665 0.36941898 0 0 0 0 31.580227
-3.1543381 -4.4191303 -0.16322416 0 0 0 0 31.664326
-3.2411602 -4.3901091 0.0048642904 0 0 0 0 31.669273
-3.1751256 -4.5190763 0.0078185489 0 0 0 0 31.68906
-3.2229817 -4.4430485 0.15885131 0 0 0 0 31.694008
-3.2988262 -4.4050283 0.31092444 0 0 0 0 31.698956
-2.0285449 -3.5087526 -0.10769022 0 0 0 0 31.743477
-2.1893811 -3.6347656 0.01151688 0 0 0 0 31.748425
-1.912542 -3.5007107 -0.10181177 0 0 0 0 31.763266
-1.9944203 -3.492703 0.013276508 0 0 0 0 31.768211
-2.0952954 -3.5297022 0.12039579 0 0 0 0 31.773159
-2.2471378 -3.6467123 0.23858869 0 0 0 0 31.778107
-1.7915447 -3.4726682 -0.095941782 0 0 0 0 31.783054
-1.9084085 -3.5336704 0.016200138 0 0 0 0 31.788
-1.9793032 -3.5166628 0.11927379 0 0 0 0 31.792948
-2.0571916 -3.5126562 0.22535777 0 0 0 0 31.797894
-1.6785461 -3.4526289 -0.091059528 0 0 0 0 31.802841
-1.7834191 -3.4946289 0.018064365 0 0 0 0 31.807789
-1.860314 -3.4916234 0.11814748 0 0 0 0 31.812737
-1.9801832 -3.563628 0.22429354 0 0 0 0 31.817682
-1.5865375 -3.4705961 -0.086144432 0 0 0 0 31.82263
-1.674423 -3.4805923 0.019953316 0 0 0 0 31.827576
-1.7463254 -3.4675865 0.1160285 0 0 0 0 31.832523
-1.841213 -3.4965861 0.21613742 0 0 0 0 31.837471
-1.4655457 -3.4205563 -0.080274373 0 0 0 0 31.842419
-1.5644294 -3.4565563 0.021840526 0 0 0 0 31.847364
-1.6623209 -3.4965577 0.11595489 0 0 0 0 31.85231
-1.7462177 -3.5055552 0.2130471 0 0 0 0 31.857258
-1.3655448 -3.4085228 -0.075371705 0 0 0 0 31.862206
-1.4564368 -3.4275215 0.023730366 0 0 0 0 31.867153
-1.5353419 -3.4335194 0.11381663 0 0 0 0 31.872101
-1.6382307 -3.4855216 0.20893799 0 0 0 0 31.877047
-1.2695431 -3.4004912 -0.07046251 0 0 0 0 31.881992
-1.3574417 -3.4124899 0.024634361 0 0 0 0 31.88694
-1.4363492 -3.4194882 0.11272047 0 0 0 0 31.891888
-1.5172555 -3.4284866 0.2018088 0 0 0 0 31.896835
-1.174542 -3.3894606 -0.065551564 0 0 0 0 31.901781
-1.2604436 -3.4004595 0.027542554 0 0 0 0 31.906729
-1.3423544 -3.4134593 0.11163268 0 0 0 0 31.911674
-1.4222651 -3.4204581 0.19771913 0 0 0 0 31.916622
-1.0795425 -3.3714309 -0.060640749 0 0 0 0 31.92157
-1.1684452 -3.3934309 0.029458392 0 0 0 0 31.926517
-1.2453623 -3.39643 0.11054078 0 0 0 0 31.931463
-1.3272741 -3.40943 0.19463018 0 0 0 0 31.936411
-0.99154067 -3.3674035 -0.056718338 0 0 0 0 31.941357
-1.0754493 -3.3764029 0.03137238 0 0 0 0 31.946304
-1.1543685 -3.3854034 0.10945772 0 0 0 0 31.951252
-1.2362829 -3.4024038 0.19054754 0 0 0 0 31.9562
-0.90253842 -3.3613765 -0.051796112 0 0 0 0 31.961145
-0.98545218 -3.3643765 0.033291865 0 0 0 0 31.966091
-1.0653723 -3.3803775 0.10937929 0 0 0 0 31.971039
-1.1452937 -3.3873782 0.1864645 0 0 0 0 31.975986
-0.81553751 -3.3493507 -0.04687186 0 0 0 0 31.980934
-0.90145236 -3.3633518 0.035221018 0 0 0 0 31.985882
-0.9783774 -3.3733528 0.10830373 0 0 0 0 31.990828
-1.0563028 -3.3743536 0.18338527 0 0 0 0 31.995773
-0.73053759 -3.337326 -0.042944327 0 0 0 0 32.000721
-0.8134557 -3.3483272 0.037144456 0 0 0 0 32.005669
-0.89238286 -3.3603287 0.10822917 0 0 0 0 32.010616
-0.97031045 -3.3673303 0.18031155 0 0 0 0 32.015564
-0.64453769 -3.3203018 -0.038017556 0 0 0 0 32.020508
-0.72846019 -3.3323038 0.038071971 0 0 0 0 32.025455
-0.8083877 -3.3543062 0.10715929 0 0 0 0 32.030403
-0.88731688 -3.3653083 0.17724307 0 0 0 0 32.035351
-0.57053435 -3.3592618 -0.033977062 0 0 0 0 32.147053
-0.64746898 -3.3332617 0.041094832 0 0 0 0 32.152
-0.72340608 -3.3392634 0.10717155 0 0 0 0 32.156944
-0.80234182 -3.3482654 0.17425138 0 0 0 0 32.161896
-0.4865354 -3.3372409 -0.029043475 0 0 0 0 32.16684
-0.5684675 -3.3412428 0.043038364 0 0 0 0 32.171787
-0.64740503 -3.3572452 0.10711932 0 0 0 0 32.176735
-0.71934927 -3.3392463 0.17118718 0 0 0 0 32.181683
-0.39355254 -3.2302191 -0.02413257 0 0 0 0 32.18663
-0.48647115 -3.3222234 0.044975232 0 0 0 0 32.191574
-0.56640816 -3.3532264 0.10705941 0 0 0 0 32.196522
-0.65034235 -3.3912296 0.17114824 0 0 0 0 32.201469
-0.31954467 -3.2582016 -0.020177806 0 0 0 0 32.206417
-0.39748847 -3.2342036 0.04589447 0 0 0 0 32.211365
-0.48341599 -3.3292081 0.10599524 0 0 0 0 32.216309
-0.56735122 -3.3742118 0.16808479 0 0 0 0 32.221256
-0.2445367 -3.2881849 -0.016222715 0 0 0 0 32.226204
-0.32747599 -3.2961876 0.048859447 0 0 0 0 32.231152
-0.39543518 -3.2461898 0.10391735 0 0 0 0 32.236099
-0.47837174 -3.3071938 0.16200832 0 0 0 0 32.241047
-0.16753489 -3.2801678 -0.011275215 0 0 0 0 32.245995
-0.24947777 -3.286171 0.050805222 0 0 0 0 32.250938
-0.32742298 -3.3161747 0.10588593 0 0 0 0 32.255886
-0.39538756 -3.2531772 0.15794113 0 0 0 0 32.260834
-0.08754909 -3.1861513 -0.0073441616 0 0 0 0 32.265781
-0.17148441 -3.2531552 0.051748198 0 0 0 0 32.270729
-0.24942629 -3.310159 0.10583305 0 0 0 0 32.275673
-0.32737663 -3.3251629 0.15891039 0 0 0 0 32.280621
-0.013539989 -3.2241361 -0.0033836514 0 0 0 0 32.285568
-0.093491457 -3.2111397 0.053690914 0 0 0 0 32.290516
-0.16844341 -3.2331436 0.10376665 0 0 0 0 32.295464
-0.25237358 -3.359148 0.15886758 0 0 0 0 32.300407
0.061473977 -3.2931213 0.00058199262 0 0 0 0 32.305355
-0.019490035 -3.2181253 0.055646665 0 0 0 0 32.310303
-0.093452953 -3.1981297 0.10171409 0 0 0 0 32.31525
-0.16741098 -3.2031338 0.14878541 0 0 0 0 32.320198
0.13847397 -3.2751069 0.0055322316 0 0 0 0 32.325146
0.055526767 -3.3091114 0.059616324 0 0 0 0 32.330093
-0.019446841 -3.2361162 0.10367557 0 0 0 0 32.335037
-0.094415858 -3.1971209 0.1467402 0 0 0 0 32.339985
0.22450176 -3.4300916 0.010503787 0 0 0 0 32.344933
0.13052212 -3.2810981 0.061567347 0 0 0 0 32.34988
0.055564739 -3.3051026 0.10664199 0 0 0 0 32.354828
-0.020410584 -3.244108 0.14670363 0 0 0 0 32.359772
0.30550548 -3.4390774 0.015456802 0 0 0 0 32.364719
0.21755037 -3.441083 0.067538984 0 0 0 0 32.369667
0.13056171 -3.3000901 0.10659742 0 0 0 0 32.374615
0.053596895 -3.3020954 0.14766958 0 0 0 0 32.379562
0.45460445 -4.0500536 0.024446595 0 0 0 0 32.384506
0.29755184 -3.4500701 0.070493467 0 0 0 0 32.389458
0.21758655 -3.4510758 0.11156783 0 0 0 0 32.394402
0.12959561 -3.3160834 0.14662775 0 0 0 0 32.399349
0.55060464 -4.0470386 0.030385988 0 0 0 0 32.404297
0.44465157 -4.0490456 0.086482294 0 0 0 0 32.409245
0.29658225 -3.4410639 0.11152092 0 0 0 0 32.414192
0.2156156 -3.4470699 0.15059619 0 0 0 0 32.419136
0.53864831 -4.0430326 0.089423709 0 0 0 0 32.429031
0.2936101 -3.4420588 0.14855158 0 0 0 0 32.438927
1.2055943 -3.9439583 0.072002552 0 0 0 0 32.542812
1.2635785 -3.8209543 0.075967416 0 0 0 0 32.562599
1.1966221 -3.9559586 0.11204558 0 0 0 0 32.567547
1.2526014 -3.8219557 0.11101143 0 0 0 0 32.587334
1.1966362 -3.9579594 0.13708 0 0 0 0 32.592281
1.2526135 -3.8249576 0.13304693 0 0 0 0 32.612068
1.1946441 -3.9579618 0.15511572 0 0 0 0 32.61702
1.2534723 -3.8290851 0.14900981 0 0 0 0 33.290977
1.8164606 -3.1361277 0.11786099 0 0 0 0 33.394863
1.809462 -3.1361346 0.12490681 0 0 0 0 33.419598
1.8134586 -3.1341422 0.12194713 0 0 0 0 33.444332
1.7554523 -3.1941407 0.11598434 0 0 0 0 33.44928
0.72152573 -1.0720905 0.046467397 0 0 0 0 33.454227
1.816452 -3.1301496 0.11198802 0 0 0 0 33.46907
0.75153375 -1.0630935 0.048484839 0 0 0 0 33.474014
0.72153395 -1.0730923 0.046507098 0 0 0 0 33.478962
0.69653308 -1.0850915 0.042526893 0 0 0 0 33.48391
0.73654234 -1.0430948 0.046531714 0 0 0 0 33.498749
0.68453991 -1.0630924 0.03657179 0 0 0 0 33.508644
0.79555136 -1.0240996 0.052528448 0 0 0 0 33.513592
0.77554977 -1.0470989 0.048545774 0 0 0 0 33.518539
0.73954898 -1.0430969 0.042570263 0 0 0 0 33.523483
0.78555882 -1.0121011 0.048573472 0 0 0 0 33.538326
0.77755612 -1.0441011 0.043585129 0 0 0 0 33.543274
0.7465539 -1.0480993 0.03560707 0 0 0 0 33.548222
0.78357208 -0.92010236 0.052598875 0 0 0 0 33.553169
0.73456854 -0.94009966 0.039636798 0 0 0 0 33.563061
0.75858068 -0.89010262 0.046650741 0 0 0 0 33.577904
0.72657871 -0.88810056 0.037672825 0 0 0 0 33.582848
0.68357807 -0.87009758 0.028699694 0 0 0 0 33.587795
0.75659442 -0.8111037 0.051676605 0 0 0 0 33.592743
0.73559231 -0.82410246 0.044693712 0 0 0 0 33.597691
0.70459056 -0.82110029 0.03571517 0 0 0 0 33.602638
0.67758852 -0.82209843 0.026734769 0 0 0 0 33.607586
0.6826058 -0.73109961 0.040749732 0 0 0 0 33.617477
0.61660725 -0.68609434 0.030786214 0 0 0 0 33.622425
0.60860449 -0.70409387 0.022797363 0 0 0 0 33.627373
0.67361975 -0.66109991 0.045778729 0 0 0 0 33.63232
0.6626178 -0.67809922 0.039791208 0 0 0 0 33.637268
0.64461559 -0.68409789 0.030806681 0 0 0 0 33.642212
0.61861414 -0.68209571 0.021825517 0 0 0 0 33.64716
0.71662867 -0.67110509 0.049793404 0 0 0 0 33.652107
0.6926266 -0.67610317 0.040811349 0 0 0 0 33.657055
0.65662557 -0.6651001 0.030834379 0 0 0 0 33.662003
0.63762343 -0.67109853 0.021850077 0 0 0 0 33.666946
0.7196393 -0.64410686 0.04982549 0 0 0 0 33.671894
0.70163685 -0.65410537 0.040840767 0 0 0 0 33.676842
0.67263514 -0.65110284 0.030860636 0 0 0 0 33.681789
0.6566329 -0.65910143 0.02187499 0 0 0 0 33.686737
0.74764919 -0.6391111 0.052847371 0 0 0 0 33.691685
0.71664691 -0.63910824 0.041867908 0 0 0 0 33.696632
0.69864446 -0.64510661 0.031883072 0 0 0 0 33.701576
0.68064153 -0.65210497 0.020898152 0 0 0 0 33.706524
0.76865917 -0.62911487 0.054872517 0 0 0 0 33.711472
0.74665624 -0.63611275 0.04388921 0 0 0 0 33.716419
0.71865398 -0.63311005 0.031908389 0 0 0 0 33.721367
0.70365095 -0.64210862 0.02092215 0 0 0 0 33.726311
0.79066896 -0.61811882 0.055897649 0 0 0 0 33.731258
0.76866609 -0.62511671 0.044914216 0 0 0 0 33.736206
0.73966354 -0.62211365 0.031933635 0 0 0 0 33.741154
0.81756413 -0.61009735 0.058453538 0 0 0 0 33.476219
0.79055989 -0.61309636 0.045474723 0 0 0 0 33.481167
0.79855478 -0.64109737 0.033479519 0 0 0 0 33.486115
1.5675234 -1.3011421 0.043131523 0 0 0 0 33.491058
0.83957398 -0.59810048 0.060476884 0 0 0 0 33.49601
0.82856917 -0.61310041 0.047490526 0 0 0 0 33.500954
0.84256381 -0.6441018 0.035492603 0 0 0 0 33.505901
0.85758418 -0.5831036 0.062502429 0 0 0 0 33.515797
0.87157875 -0.61510503 0.050504588 0 0 0 0 33.520744
0.84057367 -0.61310357 0.034527231 0 0 0 0 33.525688
0.84256804 -0.63410419 0.020534795 0 0 0 0 33.530636
0.89459413 -0.57910812 0.065519705 0 0 0 0 33.535583
0.89058864 -0.59810835 0.051530071 0 0 0 0 33.540531
0.87258315 -0.60510767 0.035546701 0 0 0 0 33.545479
0.88857633 -0.63710928 0.02054799 0 0 0 0 33.550423
5.2345638 -3.2234147 0.39261234 0 0 0 0 33.55537
5.0965195 -3.2574093 0.29968792 0 0 0 0 33.560318
0.89959288 -0.59311163 0.036568884 0 0 0 0 33.565266
5.4555702 -3.1954503 0.41157323 0 0 0 0 33.575157
5.2985234 -3.220443 0.31065652 0 0 0 0 33.580109
5.1744785 -3.2444379 0.21272483 0 0 0 0 33.585052
0.9035964 -0.58411449 0.018610088 0 0 0 0 33.59
5.6825776 -3.1624882 0.43153483 0 0 0 0 33.594948
5.531528 -3.193481 0.32361472 0 0 0 0 33.599895
5.3894801 -3.2094738 0.21769032 0 0 0 0 33.604843
5.934586 -3.1325302 0.45448914 0 0 0 0 33.614735
5.7755332 -3.1625214 0.33857176 0 0 0 0 33.619682
5.618484 -3.1705124 0.22465317 0 0 0 0 33.62463
6.2185946 -3.1075771 0.47943375 0 0 0 0 33.634521
6.0415392 -3.1305659 0.35452324 0 0 0 0 33.639469
5.651494 -3.0185354 0.22370228 0 0 0 0 33.644417
5.0914621 -2.8014898 0.10095185 0 0 0 0 33.649364
6.4976044 -3.0686255 0.50438476 0 0 0 0 33.654312
6.1415496 -3.0095973 0.36054799 0 0 0 0 33.65926
5.5655093 -2.807548 0.21880217 0 0 0 0 33.664207
5.0954742 -2.649508 0.097010806 0 0 0 0 33.669151
6.6276159 -2.952662 0.51840144 0 0 0 0 33.674099
6.0585642 -2.7986121 0.3556501 0 0 0 0 33.679047
5.4995241 -2.6165619 0.21389355 0 0 0 0 33.683994
5.0444894 -2.4715211 0.092093103 0 0 0 0 33.688942
6.5546312 -2.74968 0.51650292 0 0 0 0 33.693886
5.9655805 -2.5946255 0.35075599 0 0 0 0 33.698833
5.4945383 -2.4605815 0.21196029 0 0 0 0 33.703781
5.0085044 -2.3085353 0.087169409 0 0 0 0 33.708729
6.5706468 -2.5867064 0.52156889 0 0 0 0 33.713676
6.0115943 -2.4546521 0.35380614 0 0 0 0 33.71862
5.468554 -2.2975986 0.20903607 0 0 0 0 33.723572
4.9335227 -2.1335452 0.082261376 0 0 0 0 33.728516
5.8776679 -2.1646581 0.46991414 0 0 0 0 33.733463
5.9766111 -2.2846706 0.35288939 0 0 0 0 33.738411
5.4195714 -2.1306133 0.20612119 0 0 0 0 33.743359
4.8975391 -1.9815587 0.078337871 0 0 0 0 33.748306
5.2756882 -1.8136139 0.42421558 0 0 0 0 33.75325
5.2316399 -1.8636106 0.30924597 0 0 0 0 33.758198
5.4015889 -1.9806308 0.20419444 0 0 0 0 33.763145
4.8705573 -1.8365729 0.075411119 0 0 0 0 33.768093
5.9316468 -1.9627098 0.35204735 0 0 0 0 33.777985
5.3286085 -1.8136418 0.20028891 0 0 0 0 33.782932
4.8465762 -1.6955873 0.07248354 0 0 0 0 33.78788
5.9246655 -1.8127309 0.35312122 0 0 0 0 33.797775
5.3186269 -1.6726599 0.19935976 0 0 0 0 33.802719
4.8115954 -1.5556 0.06956026 0 0 0 0 33.807671
5.7857394 -1.5687355 0.47722942 0 0 0 0 33.812614
5.9036851 -1.6617503 0.35320076 0 0 0 0 33.817562
5.0496526 -1.4606463 0.18852487 0 0 0 0 33.82251
4.7906151 -1.4246144 0.066632003 0 0 0 0 33.827457
5.6177592 -1.3917361 0.46636099 0 0 0 0 33.832405
5.6507087 -1.4527403 0.33936337 0 0 0 0 33.837349
5.2836671 -1.3966938 0.19650823 0 0 0 0 33.842297
4.7606363 -1.2916274 0.064707316 0 0 0 0 33.847244
5.4387312 -1.2687336 0.3275086 0 0 0 0 33.85714
5.2606883 -1.2607098 0.19458497 0 0 0 0 33.862083
4.7276578 -1.1636397 0.061783697 0 0 0 0 33.867031
4.6177588 -0.9676438 0.27985913 0 0 0 0 33.876926
5.1957116 -1.1177201 0.19267629 0 0 0 0 33.881874
4.7136793 -1.0416543 0.059853796 0 0 0 0 33.886822
4.6348186 -0.82866418 0.39390489 0 0 0 0 33.891769
5.8167725 -1.0828258 0.35352385 0 0 0 0 33.896713
5.0427361 -0.96271777 0.18679647 0 0 0 0 33.901661
