# .PCD v0.7 - Point Cloud Data file format
VERSION 0.7
FIELDS x y z normal_x normal_y normal_z intensity curvature
SIZE 4 4 4 4 4 4 4 4
TYPE F F F F F F F F
COUNT 1 1 1 1 1 1 1 1
WIDTH 943
HEIGHT 1
VIEWPOINT 0 0 0 1 0 0 0
POINTS 943
DATA ascii
-2.8020422 -3.0568357 -0.2665821 0 0 0 0 19.203972
-2.8856268 -3.064039 -0.19014256 0 0 0 0 19.20892
-2.97419 -3.0762303 -0.12172391 0 0 0 0 19.213867
-3.0687666 -3.0873713 -0.050350145 0 0 0 0 19.218813
-2.7153928 -3.1074605 -0.26080364 0 0 0 0 19.223759
-2.7687447 -3.0828805 -0.18524015 0 0 0 0 19.228706
-2.8381314 -3.0732155 -0.11974758 0 0 0 0 19.233654
-2.9226232 -3.0774422 -0.053321913 0 0 0 0 19.238602
-2.4966891 -2.9979806 -0.24354757 0 0 0 0 19.243547
-2.6457567 -3.0867624 -0.1803392 0 0 0 0 19.248495
-2.7564657 -3.1288249 -0.12099187 0 0 0 0 19.253441
-2.7965779 -3.0803666 -0.055401489 0 0 0 0 19.258389
-2.4503055 -3.0893273 -0.24094279 0 0 0 0 19.263336
-2.4743478 -3.0279729 -0.17227589 0 0 0 0 19.268284
-2.5537896 -3.0352643 -0.11580592 0 0 0 0 19.27323
-2.6947005 -3.1081221 -0.058583699 0 0 0 0 19.278175
-2.2677493 -3.0025933 -0.22588192 0 0 0 0 19.283123
-2.3946466 -3.0745525 -0.16956413 0 0 0 0 19.288071
-2.467011 -3.0739021 -0.11606637 0 0 0 0 19.293018
-2.5221853 -3.0443668 -0.06052829 0 0 0 0 19.297966
-2.1749227 -3.0282536 -0.22013898 0 0 0 0 19.302912
-2.2362099 -3.0126698 -0.16260506 0 0 0 0 19.307858
-2.3378322 -3.0538294 -0.11419547 0 0 0 0 19.312805
-2.4605944 -3.1128364 -0.063883789 0 0 0 0 19.317753
-2.0962069 -3.0698135 -0.21445264 0 0 0 0 19.322701
-2.1473818 -3.0403066 -0.15888631 0 0 0 0 19.327648
-2.1995142 -3.013818 -0.11231823 0 0 0 0 19.332594
-2.2637446 -3.0002425 -0.064798497 0 0 0 0 19.33754
-2.0053508 -3.0914569 -0.20873873 0 0 0 0 19.342487
-2.103972 -3.1316364 -0.15931034 0 0 0 0 19.347435
-2.1368806 -3.074285 -0.11369318 0 0 0 0 19.352383
-2.1919918 -3.045779 -0.068150751 0 0 0 0 19.357328
-1.9619824 -3.1867788 -0.20715433 0 0 0 0 19.362276
-2.0029817 -3.1363549 -0.1555742 0 0 0 0 19.367222
-2.0651693 -3.1228111 -0.11403975 0 0 0 0 19.372169
-2.1252942 -3.0992792 -0.071518175 0 0 0 0 19.377117
-1.9166474 -3.2871141 -0.20554444 0 0 0 0 19.382065
-1.987918 -3.2794912 -0.15805671 0 0 0 0 19.387011
-1.9924363 -3.1693456 -0.11538671 0 0 0 0 19.391958
-2.032331 -3.1139576 -0.073811688 0 0 0 0 19.396904
-1.8268024 -3.3107464 -0.19983813 0 0 0 0 19.401852
-1.890982 -3.2931817 -0.15532807 0 0 0 0 19.406799
-2.0026698 -3.357312 -0.11992346 0 0 0 0 19.411747
-1.9858543 -3.2003174 -0.078233197 0 0 0 0 19.416693
-1.8733015 -3.3102288 -0.11813808 0 0 0 0 19.431534
-1.9515501 -3.3125949 -0.083670102 0 0 0 0 19.436481
-1.8605847 -3.3272552 -0.08598341 0 0 0 0 19.456268
-0.95688337 -3.8356898 -0.15434562 0 0 0 0 19.3449
-1.0297194 -3.7981384 -0.13895717 0 0 0 0 19.349846
-0.95526111 -3.8836744 -0.13919711 0 0 0 0 19.369635
-1.0147409 -3.8042407 -0.1328305 0 0 0 0 19.37458
-0.94539338 -3.9087489 -0.13605554 0 0 0 0 19.394371
-1.0027133 -3.8093388 -0.13272776 0 0 0 0 19.399317
-0.93533671 -3.9128401 -0.13897114 0 0 0 0 19.419106
-0.1130258 -3.9366193 -0.14423117 0 0 0 0 19.572462
-0.10475565 -3.9367592 -0.17418149 0 0 0 0 19.597197
-0.013550242 -3.9183991 -0.17761086 0 0 0 0 19.616985
0.78424823 -3.9306395 -0.06600225 0 0 0 0 19.469917
0.85207593 -3.8130863 -0.059867155 0 0 0 0 19.489706
0.79358274 -3.9338107 -0.10794736 0 0 0 0 19.494652
0.85755473 -3.7972348 -0.10389064 0 0 0 0 19.514441
0.81001282 -3.9330566 -0.15985468 0 0 0 0 19.519388
0.87201756 -3.791466 -0.15582493 0 0 0 0 19.539177
0.81860107 -3.9162655 -0.21886006 0 0 0 0 19.544123
0.88743711 -3.8017294 -0.21770979 0 0 0 0 19.563911
2.0422342 -3.8447154 -0.28992212 0 0 0 0 19.781578
2.1306608 -3.7933073 -0.2934835 0 0 0 0 19.801367
2.6077695 -3.9297936 0.0011049714 0 0 0 0 19.806313
2.2200928 -3.7419071 -0.29803911 0 0 0 0 19.821156
2.6565883 -3.8130908 0.0050986321 0 0 0 0 19.826101
2.6355777 -3.9242232 -0.10276299 0 0 0 0 19.831049
2.485925 -3.8284614 -0.20503452 0 0 0 0 19.835995
2.2897084 -3.6603627 -0.29980823 0 0 0 0 19.840942
2.6903598 -3.8145647 -0.10071062 0 0 0 0 19.850838
2.5971732 -3.8032026 -0.20837924 0 0 0 0 19.855783
2.4247086 -3.6782846 -0.30987775 0 0 0 0 19.860731
2.8977644 -3.914959 -0.10408285 0 0 0 0 19.870625
2.6717615 -3.7246854 -0.20911114 0 0 0 0 19.875572
2.5518246 -3.6781473 -0.31905001 0 0 0 0 19.88052
2.9972079 -3.8585994 -0.10360067 0 0 0 0 19.894501
2.7681746 -3.6753149 -0.21162738 0 0 0 0 19.899448
2.6750114 -3.6679738 -0.32728323 0 0 0 0 19.904396
3.1035855 -3.8102901 -0.10304529 0 0 0 0 19.914288
2.9142165 -3.6832929 -0.21765703 0 0 0 0 19.919235
2.8210583 -3.6799643 -0.33830202 0 0 0 0 19.924183
3.2169144 -3.7700286 -0.10342392 0 0 0 0 19.934076
3.0592852 -3.6872616 -0.22370641 0 0 0 0 19.939024
2.9611936 -3.6779094 -0.34839955 0 0 0 0 19.94397
3.2915478 -3.6824987 -0.10218507 0 0 0 0 19.953865
3.2083738 -3.6882546 -0.22973931 0 0 0 0 19.958813
3.1043417 -3.6738725 -0.35848463 0 0 0 0 19.963758
3.7125721 -3.8509769 0.032041859 0 0 0 0 19.968706
3.4595225 -3.6966062 -0.10406105 0 0 0 0 19.973652
3.3535299 -3.6782155 -0.23482962 0 0 0 0 19.9786
3.262435 -3.6799378 -0.37044659 0 0 0 0 19.983547
3.8399014 -3.8077936 0.03474116 0 0 0 0 19.988495
3.6215985 -3.6956708 -0.10601833 0 0 0 0 19.993441
3.5186043 -3.6823127 -0.24175338 0 0 0 0 19.998386
3.4195821 -3.6779938 -0.38243836 0 0 0 0 20.003334
3.5369811 -3.3557227 0.032521531 0 0 0 0 20.008282
3.7886744 -3.6947658 -0.10794522 0 0 0 0 20.013229
3.6797523 -3.67538 -0.24873465 0 0 0 0 20.018177
3.5767825 -3.668047 -0.39445317 0 0 0 0 20.023123
3.6006162 -3.2651095 0.035678394 0 0 0 0 20.028069
3.5929983 -3.3453937 -0.10017996 0 0 0 0 20.033016
3.801177 -3.6241705 -0.25309613 0 0 0 0 20.037964
3.7539146 -3.6702356 -0.40830725 0 0 0 0 20.042912
3.6722028 -3.1825514 0.037908599 0 0 0 0 20.047859
3.6357925 -3.2326443 -0.099218562 0 0 0 0 20.052805
4.0439658 -3.675791 -0.26439106 0 0 0 0 20.057751
3.9291067 -3.6624053 -0.42120305 0 0 0 0 20.062698
3.8034639 -3.1483908 0.040657926 0 0 0 0 20.067646
3.7332616 -3.1702645 -0.099765599 0 0 0 0 20.072594
4.2450447 -3.6821229 -0.27408293 0 0 0 0 20.077539
4.1252575 -3.6637187 -0.43693984 0 0 0 0 20.082487
4.0481386 -3.2009821 0.045377489 0 0 0 0 20.087433
3.8456819 -3.1159849 -0.10119401 0 0 0 0 20.092381
4.4531498 -3.6844976 -0.28374207 0 0 0 0 20.097328
4.338367 -3.6731462 -0.45454744 0 0 0 0 20.102276
4.1078429 -3.1003387 0.047479056 0 0 0 0 20.107222
4.3969488 -3.3976595 -0.11186932 0 0 0 0 20.112167
3.8223383 -3.0161369 -0.24265063 0 0 0 0 20.117115
4.552536 -3.6725743 -0.47117734 0 0 0 0 20.122063
3.0459542 -2.1952498 0.032132618 0 0 0 0 20.12701
3.1190355 -2.2990153 -0.082131498 0 0 0 0 20.131958
4.5340786 -3.407948 -0.28299642 0 0 0 0 20.136904
4.5586996 -3.5005605 -0.46761668 0 0 0 0 20.14185
3.0028582 -2.0639343 0.032493923 0 0 0 0 20.146797
3.0978715 -2.1768417 -0.080603391 0 0 0 0 20.151745
3.1760314 -2.2736514 -0.19985333 0 0 0 0 20.156693
4.5618267 -3.3335266 -0.46406147 0 0 0 0 20.16164
3.1040959 -2.0325775 0.034060575 0 0 0 0 20.166586
3.0497928 -2.0404878 -0.078286327 0 0 0 0 20.171532
3.1518915 -2.1464546 -0.19735654 0 0 0 0 20.176479
3.8766046 -2.6937499 -0.39322191 0 0 0 0 20.181427
3.1246946 -1.9466846 0.034958083 0 0 0 0 20.186375
3.1331487 -1.9940176 -0.079876505 0 0 0 0 20.19132
3.1107697 -2.0141411 -0.19298218 0 0 0 0 20.196268
3.3624096 -2.2191689 -0.34082386 0 0 0 0 20.201214
3.2050376 -1.8991867 0.036345121 0 0 0 0 20.206161
3.175678 -1.9192709 -0.079806581 0 0 0 0 20.211109
3.1911702 -1.9626539 -0.19660535 0 0 0 0 20.216057
3.4448898 -2.1576967 -0.34646207 0 0 0 0 20.221003
3.4199042 -1.9225734 0.039791349 0 0 0 0 20.22595
3.2580585 -1.8687916 -0.081414513 0 0 0 0 20.230896
3.2357171 -1.8859212 -0.19752736 0 0 0 0 20.235844
3.2283473 -1.9171737 -0.3235071 0 0 0 0 20.240791
3.5790186 -1.9085885 0.042774774 0 0 0 0 20.245739
3.4421036 -1.8709861 -0.084226102 0 0 0 0 20.250685
3.325115 -1.8354932 -0.20209016 0 0 0 0 20.25563
4.4962182 -2.5238111 -0.44172347 0 0 0 0 20.260578
2.6000257 -1.3141278 0.026863309 0 0 0 0 20.265526
3.6072681 -1.8550526 -0.087209657 0 0 0 0 20.270473
3.4474247 -1.7992824 -0.20740344 0 0 0 0 20.275421
3.4750314 -1.8437876 -0.34312239 0 0 0 0 20.280367
2.6075089 -1.2451551 0.026727915 0 0 0 0 20.285313
2.6418791 -1.2836043 -0.066958174 0 0 0 0 20.29026
2.6922414 -1.3271677 -0.16452751 0 0 0 0 20.295208
3.522619 -1.7620747 -0.34603855 0 0 0 0 20.300156
2.6189582 -1.1802059 0.0276291 0 0 0 0 20.305101
2.6593404 -1.2176961 -0.06702061 0 0 0 0 20.310049
2.6997621 -1.2521931 -0.1646778 0 0 0 0 20.314995
2.8479476 -1.3414428 -0.28049809 0 0 0 0 20.319942
2.6314127 -1.1152656 0.027537456 0 0 0 0 20.32489
2.6678209 -1.1487286 -0.067148589 0 0 0 0 20.329838
2.7102544 -1.1812378 -0.16479805 0 0 0 0 20.334784
2.8265657 -1.2482692 -0.27788225 0 0 0 0 20.339731
2.6338797 -1.0482597 0.027376303 0 0 0 0 20.344677
2.6733065 -1.0787414 -0.067297831 0 0 0 0 20.349625
2.7207458 -1.1102824 -0.16491759 0 0 0 0 20.354572
2.8251028 -1.1682289 -0.27610317 0 0 0 0 20.35952
2.6520715 -0.98575348 0.026973344 0 0 0 0 20.932972
2.688499 -1.013188 -0.067742899 0 0 0 0 20.937918
2.7329504 -1.0396791 -0.16541161 0 0 0 0 20.942863
2.83233 -1.0915451 -0.27668169 0 0 0 0 20.947811
2.8011861 -0.97066408 0.028855056 0 0 0 0 20.952759
2.780772 -0.9767499 -0.07026384 0 0 0 0 20.957706
2.7463956 -0.97273904 -0.16549213 0 0 0 0 20.962654
2.8468118 -1.0186099 -0.27677044 0 0 0 0 20.9676
3.0114276 -0.9874081 -0.1798269 0 0 0 0 20.982441
2.9002278 -0.96092904 -0.28158271 0 0 0 0 20.987389
4.87814 -1.472297 -0.28318557 0 0 0 0 21.002228
3.1723828 -0.96565908 -0.30590037 0 0 0 0 21.007175
3.858712 -1.0521789 0.042548493 0 0 0 0 21.012123
3.794595 -1.045065 -0.09187343 0 0 0 0 21.017071
3.8043809 -1.0514076 -0.22380742 0 0 0 0 21.022017
3.8771188 -1.080175 -0.3703022 0 0 0 0 21.026964
5.5407786 -1.3890171 -0.12933365 0 0 0 0 21.036858
4.7908278 -1.2046496 -0.27839348 0 0 0 0 21.041805
4.1554918 -1.0499285 -0.3946743 0 0 0 0 21.046753
5.384829 -1.2209879 -0.12671162 0 0 0 0 21.056644
4.7546329 -1.0763736 -0.27593523 0 0 0 0 21.061592
4.1471758 -0.94283557 -0.39398992 0 0 0 0 21.06654
4.7852936 -0.96782708 0.052004095 0 0 0 0 21.071487
4.8122849 -0.97635019 -0.11582231 0 0 0 0 21.076435
4.7783594 -0.96548128 -0.27806705 0 0 0 0 21.081381
4.1258574 -0.8336578 -0.39138862 0 0 0 0 21.086327
5.4604211 -0.9773674 -0.1308632 0 0 0 0 21.096222
4.6851625 -0.83384639 -0.27296299 0 0 0 0 21.10117
5.2244287 -0.81284356 -0.12671441 0 0 0 0 21.116009
5.3491287 -0.7075758 -0.13021563 0 0 0 0 21.135798
5.2929573 -0.5771805 -0.13088107 0 0 0 0 21.155586
5.2447581 -0.45083541 -0.13148618 0 0 0 0 21.175373
5.202539 -0.32752806 -0.13204564 0 0 0 0 21.195162
5.1323051 -0.20504726 -0.13177177 0 0 0 0 21.214951
5.1030498 -0.087823488 -0.13323414 0 0 0 0 21.234737
5.0547805 0.028518345 -0.13380815 0 0 0 0 21.254526
4.9994907 0.14190221 -0.13441604 0 0 0 0 21.274315
5.8532109 0.26408052 0.041482285 0 0 0 0 21.289154
4.9522052 0.25523406 -0.13597283 0 0 0 0 21.294102
4.8988872 0.36460388 -0.13655528 0 0 0 0 21.313889
5.7087908 0.5120517 0.034011438 0 0 0 0 21.328732
4.8565722 0.47390357 -0.13806874 0 0 0 0 21.333679
4.8132377 0.58020872 -0.13957979 0 0 0 0 21.353466
5.7564702 0.77684903 0.026674427 0 0 0 0 21.368307
4.7829065 0.68743414 -0.14101227 0 0 0 0 21.373253
5.3839316 0.84815258 0.021251725 0 0 0 0 21.388096
4.7696033 0.79855376 -0.14334863 0 0 0 0 21.393042
4.5516787 0.82273215 0.013522546 0 0 0 0 21.149178
4.5689335 0.8723048 -0.14048813 0 0 0 0 21.154125
3.7027552 0.78819716 -0.36362243 0 0 0 0 21.164021
4.2870197 0.87339652 0.0087731108 0 0 0 0 21.168968
4.1570072 0.89390683 -0.13207412 0 0 0 0 21.173914
3.777437 0.85501993 -0.24331695 0 0 0 0 21.17886
3.6843116 0.87734509 -0.3639403 0 0 0 0 21.183807
4.2155623 0.95786935 0.0061365459 0 0 0 0 21.188755
3.628752 0.86722708 -0.11925766 0 0 0 0 21.193703
3.4273536 0.86225355 -0.22348143 0 0 0 0 21.198648
3.1797786 0.83858442 -0.31794536 0 0 0 0 21.203596
5.2457986 1.3135645 0.0056366744 0 0 0 0 21.208542
3.5441637 0.93378073 -0.11892772 0 0 0 0 21.21349
3.2134497 0.888623 -0.21285053 0 0 0 0 21.218437
2.9547703 0.85703892 -0.29836205 0 0 0 0 21.223385
5.181489 1.4209971 0.00099015608 0 0 0 0 21.228331
3.1237679 0.94421208 -0.20852226 0 0 0 0 21.238224
2.8269298 0.89387459 -0.28722286 0 0 0 0 21.243172
5.1141591 1.5264492 -0.002667858 0 0 0 0 21.248119
4.4331889 1.3863205 -0.15251485 0 0 0 0 21.253067
4.0004082 1.3107423 -0.26698869 0 0 0 0 21.258013
2.7391732 0.93945181 -0.2808561 0 0 0 0 21.262959
5.0548391 1.6328489 -0.0072766622 0 0 0 0 21.267906
4.4068432 1.4905174 -0.15491283 0 0 0 0 21.272854
3.9208674 1.3882713 -0.26464835 0 0 0 0 21.277802
3.5218959 1.3015233 -0.35888702 0 0 0 0 21.282749
4.9814806 1.7333333 -0.011955447 0 0 0 0 21.287695
4.3383865 1.5779729 -0.15652838 0 0 0 0 21.292641
3.8733916 1.4735968 -0.26512796 0 0 0 0 21.297588
3.4703526 1.3788768 -0.35637066 0 0 0 0 21.302536
4.9301624 1.83968 -0.017510658 0 0 0 0 21.307484
4.2990065 1.6772478 -0.15899082 0 0 0 0 21.312429
3.8439624 1.5668116 -0.26551324 0 0 0 0 21.317377
3.4428744 1.4640763 -0.35672361 0 0 0 0 21.322323
4.858788 1.9381498 -0.022167992 0 0 0 0 21.327271
4.2536006 1.7725587 -0.1614792 0 0 0 0 21.332218
3.8085256 1.6580602 -0.26692888 0 0 0 0 21.337166
3.4093823 1.5483141 -0.35610923 0 0 0 0 21.342112
4.7974234 2.0385578 -0.026766416 0 0 0 0 21.347059
4.2091994 1.8688626 -0.16396156 0 0 0 0 21.352005
3.7791049 1.7522718 -0.26831272 0 0 0 0 21.356953
3.3778951 1.6325369 -0.35648105 0 0 0 0 21.3619
4.7641473 2.152792 -0.032222431 0 0 0 0 21.366848
4.1547656 1.9602267 -0.16649184 0 0 0 0 21.371794
3.7396524 1.8415436 -0.26974472 0 0 0 0 21.37674
3.3434 1.7167795 -0.35586932 0 0 0 0 21.381687
4.6947546 2.2482445 -0.037854016 0 0 0 0 21.386635
4.1264148 2.0644298 -0.16989017 0 0 0 0 21.391582
3.6951747 1.9278471 -0.27019879 0 0 0 0 21.39653
3.3038857 1.798052 -0.35527974 0 0 0 0 21.401476
4.625361 2.3446977 -0.042485174 0 0 0 0 21.406422
4.0709653 2.1537983 -0.17241812 0 0 0 0 21.411369
3.6446829 2.0121863 -0.27068293 0 0 0 0 21.416317
3.2934835 1.8951415 -0.35754699 0 0 0 0 21.421265
4.5439162 2.4322205 -0.048167352 0 0 0 0 21.42621
4.0225568 2.2491214 -0.17591418 0 0 0 0 21.431158
3.6132557 2.1064074 -0.27207148 0 0 0 0 21.436104
3.2439361 1.9724753 -0.35600588 0 0 0 0 21.441051
4.4795179 2.5276392 -0.053761311 0 0 0 0 21.445999
3.9701164 2.3404696 -0.17842393 0 0 0 0 21.450947
3.5858629 2.2056017 -0.27444452 0 0 0 0 21.455893
3.2205012 2.0656447 -0.3573398 0 0 0 0 21.46084
4.6249018 2.7497876 -0.061362889 0 0 0 0 21.465786
3.9206979 2.434797 -0.18191968 0 0 0 0 21.470734
3.5313544 2.2879627 -0.27494267 0 0 0 0 21.475681
3.2061181 2.1667571 -0.35963455 0 0 0 0 21.480629
4.4400692 2.775934 -0.065528043 0 0 0 0 21.485575
3.879308 2.5340753 -0.18537569 0 0 0 0 21.49052
3.4858925 2.3772662 -0.27639922 0 0 0 0 21.495468
3.1646202 2.2510364 -0.36005446 0 0 0 0 21.500416
4.3184557 2.8366935 -0.071384363 0 0 0 0 21.505363
3.9936082 2.7404025 -0.19612396 0 0 0 0 21.510311
3.4404228 2.4655688 -0.27785173 0 0 0 0 21.515257
3.0406969 2.2748291 -0.35083795 0 0 0 0 21.520203
4.1355557 2.8518219 -0.075507991 0 0 0 0 21.52515
3.8658798 2.787204 -0.19698182 0 0 0 0 21.530098
3.0421991 2.2910414 -0.25185689 0 0 0 0 21.535046
2.9861126 2.3471885 -0.34930691 0 0 0 0 21.539991
3.8883145 2.8123362 -0.077897683 0 0 0 0 21.544939
3.0588093 2.3151422 -0.16280243 0 0 0 0 21.549885
2.96752 2.3465176 -0.25140965 0 0 0 0 21.554832
2.9928727 2.470166 -0.35451409 0 0 0 0 21.55978
3.7053118 2.8104579 -0.081979446 0 0 0 0 21.564728
2.9770947 2.3626554 -0.16437981 0 0 0 0 21.569674
2.947119 2.4446607 -0.25472611 0 0 0 0 21.574621
2.9986663 2.5981476 -0.36073583 0 0 0 0 21.579567
3.0087357 2.3926666 -0.074247599 0 0 0 0 21.584515
2.9375989 2.4449115 -0.16777621 0 0 0 0 21.589462
2.9800315 2.5904758 -0.26282305 0 0 0 0 21.59441
2.9712913 2.7023351 -0.3631036 0 0 0 0 21.599356
2.9632101 2.4679542 -0.079664916 0 0 0 0 21.604301
2.9262617 2.5519955 -0.17305507 0 0 0 0 21.609249
2.9476151 2.6876919 -0.26520553 0 0 0 0 21.614197
2.933867 2.7995837 -0.36451468 0 0 0 0 21.619144
2.9418962 2.564806 -0.085073136 0 0 0 0 21.385471
2.9321411 2.6766779 -0.17936814 0 0 0 0 21.390419
2.9505601 2.8193839 -0.27155831 0 0 0 0 21.395365
2.7939041 2.7961712 -0.35345048 0 0 0 0 21.400311
2.9319386 2.8036933 -0.18562852 0 0 0 0 21.410206
2.7661865 2.7705472 -0.26155326 0 0 0 0 21.415154
2.719229 2.8546546 -0.3510111 0 0 0 0 21.420101
2.9005656 2.903899 -0.19101793 0 0 0 0 21.429993
2.651217 2.7822762 -0.25725642 0 0 0 0 21.43494
2.5538728 2.8127074 -0.33690223 0 0 0 0 21.439888
2.966403 2.9616935 -0.10673526 0 0 0 0 21.444836
2.6728921 2.8033149 -0.18316036 0 0 0 0 21.449781
2.541265 2.7959707 -0.25393137 0 0 0 0 21.454729
2.4277518 2.8055131 -0.32662877 0 0 0 0 21.459675
2.9722979 3.1036682 -0.11498673 0 0 0 0 21.464622
2.5720127 2.8249454 -0.18379697 0 0 0 0 21.46957
2.435313 2.809639 -0.25058016 0 0 0 0 21.474518
2.3197508 2.8152013 -0.31928 0 0 0 0 21.479464
2.9792447 3.254637 -0.12324893 0 0 0 0 21.484411
2.4912586 2.8664517 -0.18535264 0 0 0 0 21.489357
2.3535163 2.8471563 -0.24913226 0 0 0 0 21.494305
2.2197676 2.8268368 -0.31288531 0 0 0 0 21.499252
2.2606232 2.8697407 -0.24671747 0 0 0 0 21.514091
2.1127245 2.8295152 -0.30551213 0 0 0 0 21.519039
3.3882477 4.0541687 -0.15944585 0 0 0 0 21.523987
2.1535921 2.8714118 -0.24234149 0 0 0 0 21.533882
2.0268188 2.8520586 -0.30105221 0 0 0 0 21.538828
3.3199193 4.161592 -0.16806075 0 0 0 0 21.543774
3.0073133 3.9813054 -0.25054446 0 0 0 0 21.548721
1.950996 2.8875384 -0.29755723 0 0 0 0 21.558617
3.4885345 4.5805755 -0.18890786 0 0 0 0 21.563562
2.9480073 4.0946755 -0.25711325 0 0 0 0 21.56851
2.4753039 3.8552585 -0.38441762 0 0 0 0 21.578403
3.3154366 4.5646315 -0.19388545 0 0 0 0 21.583351
2.8776455 4.2001128 -0.26272866 0 0 0 0 21.588299
2.6271598 4.0604916 -0.32392231 0 0 0 0 21.593245
2.4007876 3.9407282 -0.38401309 0 0 0 0 21.598192
3.1624694 4.5705638 -0.1987856 0 0 0 0 21.603138
2.9688528 4.5525565 -0.28389075 0 0 0 0 21.608086
2.5749574 4.1928177 -0.3294808 0 0 0 0 21.613033
2.3475378 4.0670624 -0.38756382 0 0 0 0 21.617981
3.0559003 4.640213 -0.20653863 0 0 0 0 21.622927
2.8087122 4.5355401 -0.28278139 0 0 0 0 21.627872
2.6016734 4.4686532 -0.34586298 0 0 0 0 21.63282
2.2973804 4.2083764 -0.39212415 0 0 0 0 21.637768
2.9493237 4.7078576 -0.21528478 0 0 0 0 21.642715
2.7192547 4.6270895 -0.28747305 0 0 0 0 21.647663
2.5030611 4.5382633 -0.34656215 0 0 0 0 21.652609
2.2574108 4.3796244 -0.39868242 0 0 0 0 21.657555
2.8265738 4.7486005 -0.22206877 0 0 0 0 21.662502
2.6207182 4.7046885 -0.29318708 0 0 0 0 21.66745
2.417661 4.6407871 -0.35024741 0 0 0 0 21.672398
2.2144794 4.5568876 -0.40626732 0 0 0 0 21.677343
2.7129178 4.804285 -0.22982667 0 0 0 0 21.682291
2.5201566 4.7793012 -0.29790413 0 0 0 0 21.687237
2.3140166 4.7054234 -0.35096052 0 0 0 0 21.692184
2.1229711 4.6454525 -0.40595564 0 0 0 0 21.697132
2.5405748 4.7493238 -0.23270343 0 0 0 0 21.70208
2.3892388 4.7970953 -0.29968214 0 0 0 0 21.707026
2.2225482 4.7979822 -0.35365558 0 0 0 0 21.711973
2.0365734 4.7519841 -0.40664721 0 0 0 0 21.716919
2.3904271 4.7262268 -0.23651154 0 0 0 0 21.721867
2.2299192 4.7510629 -0.29749584 0 0 0 0 21.726814
2.0834405 4.7898331 -0.3494249 0 0 0 0 21.731762
1.9298849 4.8126388 -0.40436268 0 0 0 0 21.736708
2.2513802 4.7190595 -0.24128404 0 0 0 0 21.741653
2.0877657 4.7319241 -0.29626051 0 0 0 0 21.746601
1.938192 4.7587194 -0.34418175 0 0 0 0 21.751549
1.7784824 4.7615709 -0.3931137 0 0 0 0 21.756496
2.1223979 4.7218289 -0.24701507 0 0 0 0 21.761444
1.9577473 4.7327061 -0.2979916 0 0 0 0 21.76639
1.7989732 4.7325673 -0.33891097 0 0 0 0 21.771336
1.6483339 4.75037 -0.38481784 0 0 0 0 21.776283
1.9903741 4.718616 -0.25174949 0 0 0 0 21.781231
1.8225821 4.7105188 -0.29770467 0 0 0 0 21.786179
1.6719077 4.7293353 -0.33661258 0 0 0 0 21.791124
1.5212269 4.7451468 -0.37751386 0 0 0 0 21.796072
1.8653913 4.7213569 -0.25745225 0 0 0 0 21.801018
1.7036577 4.7272315 -0.29939792 0 0 0 0 21.805965
1.5509007 4.7360659 -0.33429632 0 0 0 0 21.810913
1.4011843 4.7498784 -0.37118614 0 0 0 0 21.815861
1.7464669 4.7340608 -0.2631371 0 0 0 0 21.820807
1.5857331 4.7429333 -0.30208093 0 0 0 0 21.825754
1.4369932 4.7587509 -0.33296788 0 0 0 0 21.8307
1.285265 4.7735796 -0.36686954 0 0 0 0 21.835648
1.6295772 4.7517486 -0.26981756 0 0 0 0 21.840595
1.4698255 4.761622 -0.30475572 0 0 0 0 21.845543
1.3210622 4.7774458 -0.33164093 0 0 0 0 21.850489
1.1764445 4.8132353 -0.36354065 0 0 0 0 21.855434
1.5126462 4.767447 -0.27645621 0 0 0 0 21.880512
1.3569114 4.7843018 -0.30738124 0 0 0 0 21.88546
1.2163398 4.8340778 -0.33328202 0 0 0 0 21.890406
1.064587 4.8519158 -0.36018431 0 0 0 0 21.895351
1.4008137 4.7951002 -0.28312081 0 0 0 0 21.900299
1.248166 4.8289399 -0.31205919 0 0 0 0 21.905247
1.0994016 4.850771 -0.3329508 0 0 0 0 21.910194
0.95382917 4.9005742 -0.35887769 0 0 0 0 21.915142
1.1404488 4.8785696 -0.31673822 0 0 0 0 21.925034
1.1345229 6.6303444 -0.47314745 0 0 0 0 21.934929
0.98799837 6.7222104 -0.47211641 0 0 0 0 21.954716
1.0429733 6.7439361 -0.45180279 0 0 0 0 21.969559
0.83844888 6.810091 -0.47109115 0 0 0 0 21.974504
1.2891127 6.6295691 -0.42014432 0 0 0 0 21.979452
1.0887911 6.7286959 -0.44147149 0 0 0 0 21.984398
0.88719708 6.7908478 -0.45273355 0 0 0 0 21.989346
0.6773594 6.8110456 -0.46396127 0 0 0 0 21.994293
1.1394236 6.6804261 -0.43205014 0 0 0 0 21.999241
0.93510711 6.7855835 -0.44840866 0 0 0 0 22.004187
0.72821754 6.8047781 -0.45161602 0 0 0 0 22.009132
0.51855332 6.8569775 -0.46090138 0 0 0 0 22.01408
0.99500507 6.7752457 -0.44700631 0 0 0 0 22.019028
0.77612722 6.7945042 -0.45228097 0 0 0 0 22.023975
0.56931275 6.8297019 -0.45251587 0 0 0 0 22.028923
0.36195448 6.937892 -0.4588919 0 0 0 0 22.033869
0.83823264 6.8131399 -0.45792073 0 0 0 0 22.038815
0.61821628 6.814414 -0.45716494 0 0 0 0 22.043762
0.41368443 6.9006009 -0.45548108 0 0 0 0 22.04871
0.20028508 7.0068326 -0.45688465 0 0 0 0 22.053658
0.68248808 6.8550239 -0.46983343 0 0 0 0 22.058605
0.46480605 6.9152851 -0.46817359 0 0 0 0 22.063551
0.25404915 6.9705205 -0.45846346 0 0 0 0 22.068497
0.039764147 7.0997605 -0.45691237 0 0 0 0 22.073444
0.52992654 6.9258823 -0.48477939 0 0 0 0 22.078392
0.30706024 6.9621849 -0.47510073 0 0 0 0 22.08334
0.094619527 7.0734301 -0.46450305 0 0 0 0 22.088285
-0.12568352 7.2057142 -0.45698839 0 0 0 0 22.093233
0.36809945 6.9547973 -0.49569511 0 0 0 0 22.098179
0.14642841 7.0270953 -0.48407465 0 0 0 0 22.103127
-0.069806173 7.1773663 -0.47056863 0 0 0 0 22.108074
-0.30008695 7.3187141 -0.45812404 0 0 0 0 22.113022
0.20854115 7.0266905 -0.51067531 0 0 0 0 22.117968
-0.017940827 7.1350193 -0.49614659 0 0 0 0 22.122913
-0.24026234 7.2763338 -0.47665465 0 0 0 0 22.127861
0.044221949 7.1366014 -0.52974975 0 0 0 0 22.137756
-0.18631786 7.2419634 -0.50823492 0 0 0 0 22.142704
-0.41578898 7.3643289 -0.48174435 0 0 0 0 22.14765
-0.12213955 7.2405224 -0.54782003 0 0 0 0 22.157543
-0.35990846 7.3139377 -0.51828307 0 0 0 0 22.162491
-0.60176259 7.5433707 -0.4930582 0 0 0 0 22.167439
-1.1518613 10.383331 -0.62142867 0 0 0 0 22.172386
-0.29569152 7.3134851 -0.56386888 0 0 0 0 22.177332
-0.54310644 7.4499559 -0.53350013 0 0 0 0 22.182278
-1.4277027 10.596889 -0.62728304 0 0 0 0 22.192173
-0.47398844 7.427465 -0.58401632 0 0 0 0 22.197121
-0.72658074 7.5409765 -0.54563028 0 0 0 0 22.202066
-1.6711265 10.549281 -0.6164645 0 0 0 0 22.21196
-0.65842998 7.5174789 -0.60314924 0 0 0 0 22.216908
-0.91978914 7.6750436 -0.56189001 0 0 0 0 22.221855
-1.6022357 10.64074 -0.69317067 0 0 0 0 22.226803
-1.9262363 10.552731 -0.60980171 0 0 0 0 22.231749
-0.84585077 7.6105046 -0.62329984 0 0 0 0 22.236696
-1.1220455 7.8021598 -0.57718235 0 0 0 0 22.241642
-1.85341 10.626154 -0.69345105 0 0 0 0 22.24659
-2.1774483 10.538152 -0.60307908 0 0 0 0 22.251537
-1.0498476 7.7726107 -0.6496653 0 0 0 0 22.256485
-1.3370206 7.9743361 -0.59762311 0 0 0 0 22.261431
-2.0969362 10.552524 -0.69057596 0 0 0 0 22.266376
-2.8293028 12.260701 -0.69177121 0 0 0 0 22.271324
-1.258944 7.9187441 -0.67502427 0 0 0 0 22.276272
-1.5698061 8.178606 -0.62021583 0 0 0 0 22.281219
-2.3501096 10.536936 -0.6918571 0 0 0 0 22.286167
-3.1353705 12.27442 -0.68538278 0 0 0 0 22.291113
-1.4847435 8.1129608 -0.7055583 0 0 0 0 22.296059
-2.2940466 10.617392 -0.81161112 0 0 0 0 22.301006
-2.5994635 10.491326 -0.6910578 0 0 0 0 22.305954
-4.7898068 17.109375 -0.94126552 0 0 0 0 22.310902
-1.7167783 8.2682114 -0.73404968 0 0 0 0 22.315847
-2.5355554 10.538726 -0.81670678 0 0 0 0 22.320795
-3.3419113 12.265317 -0.80929756 0 0 0 0 22.325741
-5.2073288 17.056709 -0.92932242 0 0 0 0 22.330688
-1.9577824 8.4285069 -0.76359379 0 0 0 0 22.335636
-2.7898145 10.501122 -0.82494396 0 0 0 0 22.340584
-3.6509471 12.274022 -0.81390375 0 0 0 0 22.34553
-5.6513481 17.088179 -0.9226712 0 0 0 0 22.350477
-2.1770227 8.4460468 -0.77844191 0 0 0 0 23.057678
-3.5894651 12.329294 -0.97590256 0 0 0 0 23.062626
-3.96083 12.24151 -0.81066805 0 0 0 0 23.067574
-6.0790334 17.035664 -0.90520948 0 0 0 0 23.072521
-2.4253001 8.5683031 -0.80683559 0 0 0 0 23.077467
-3.2925768 10.384875 -0.83617723 0 0 0 0 23.082413
-5.9706082 17.098696 -1.1346078 0 0 0 0 23.08736
-6.5302186 17.03801 -0.89737821 0 0 0 0 23.092308
-3.5281687 10.286086 -0.84013313 0 0 0 0 23.102201
-6.418819 17.083006 -1.1407307 0 0 0 0 23.107149
-6.986383 17.044374 -0.88957059 0 0 0 0 23.112095
-2.9154763 8.7047796 -0.85540295 0 0 0 0 23.117043
-4.4718213 12.108818 -1.0027498 0 0 0 0 23.12199
-6.881855 17.098383 -1.1489704 0 0 0 0 23.126938
-7.4555521 17.0488 -0.88281876 0 0 0 0 23.131884
-3.1651404 8.7590351 -0.87968057 0 0 0 0 23.136829
-4.7692742 12.034333 -1.0120388 0 0 0 0 23.141777
-7.3371706 17.062712 -1.1550823 0 0 0 0 23.146725
-7.9247789 17.042213 -0.87604141 0 0 0 0 23.151672
-3.8967693 10.030653 -1.0293269 0 0 0 0 23.15662
-5.0736318 11.975876 -1.0233836 0 0 0 0 23.161566
-7.8201599 17.085175 -1.165419 0 0 0 0 23.166512
-8.1291189 16.469263 -0.84101486 0 0 0 0 23.171459
-4.1106048 9.8807306 -1.0370826 0 0 0 0 23.176407
-7.7344155 17.123192 -1.4848877 0 0 0 0 23.181355
-8.2014589 16.872112 -1.1608598 0 0 0 0 23.186302
-8.5716352 16.408525 -0.83200532 0 0 0 0 23.191248
-5.2216892 11.764216 -1.261577 0 0 0 0 23.196194
-8.2135668 17.102604 -1.5081266 0 0 0 0 23.201141
-8.4709978 16.435478 -1.1413791 0 0 0 0 23.206089
-8.643919 15.65888 -0.78903037 0 0 0 0 23.211037
-5.4569316 11.541392 -1.2673061 0 0 0 0 23.215982
-8.4920559 16.668005 -1.4966936 0 0 0 0 23.22093
-8.5750322 15.727993 -1.1036354 0 0 0 0 23.225876
-7.7886076 13.366471 -0.67095083 0 0 0 0 23.230824
-5.6940656 11.337574 -1.2740723 0 0 0 0 23.235771
-8.5250177 15.796168 -1.4453366 0 0 0 0 23.240719
-6.420589 11.149057 -0.79343903 0 0 0 0 23.245665
-8.1869106 13.336488 -0.66577262 0 0 0 0 23.25061
-8.4032898 15.783933 -1.8135489 0 0 0 0 23.255558
-6.3653355 11.156357 -1.0430574 0 0 0 0 23.260506
-8.1292219 13.385696 -0.96041954 0 0 0 0 23.265453
-8.7032824 13.477102 -0.66944915 0 0 0 0 23.270401
-5.176425 9.1820288 -1.0858884 0 0 0 0 23.275347
-5.4463439 9.0377502 -0.86301881 0 0 0 0 23.280293
-8.6623955 13.54637 -0.9832083 0 0 0 0 23.28524
-10.33198 15.215403 -0.75219864 0 0 0 0 23.290188
-5.3831987 9.0390444 -1.0956055 0 0 0 0 23.295135
-5.7145619 8.997076 -0.87720096 0 0 0 0 23.300083
-10.185652 15.135044 -1.1111765 0 0 0 0 23.305029
-8.7242775 12.235131 -0.60432887 0 0 0 0 23.309975
-8.537756 13.589581 -1.6843665 0 0 0 0 23.314922
-10.129632 15.159117 -1.5007735 0 0 0 0 23.31987
-8.6805716 12.272392 -0.91503155 0 0 0 0 23.324818
-8.7682047 11.715311 -0.57760102 0 0 0 0 23.329763
-8.459363 12.780179 -1.625579 0 0 0 0 23.334711
-8.5962543 12.222426 -1.2383987 0 0 0 0 23.339657
-8.7056684 11.721478 -0.88616419 0 0 0 0 23.344604
-8.8784847 11.313828 -0.55639166 0 0 0 0 23.349552
-8.50564 12.199386 -1.5937755 0 0 0 0 23.3545
-8.6461906 11.700642 -1.211704 0 0 0 0 23.359446
-8.8507519 11.352168 -0.87118083 0 0 0 0 23.364393
-9.3055744 11.316955 -0.55539006 0 0 0 0 23.369339
-8.5219002 11.621439 -1.5598305 0 0 0 0 23.374287
-8.8349791 11.379544 -1.2060148 0 0 0 0 23.379234
-9.2748299 11.344258 -0.8841449 0 0 0 0 23.384182
-9.757637 11.324202 -0.55551296 0 0 0 0 23.389128
-8.7989874 11.416772 -1.5747613 0 0 0 0 23.394073
-9.266984 11.372656 -1.2330178 0 0 0 0 23.399021
-9.7318258 11.35051 -0.89928842 0 0 0 0 23.403969
-10.218721 11.327487 -0.55566716 0 0 0 0 23.408916
-9.2329683 11.39987 -1.6177568 0 0 0 0 23.413864
-9.7249079 11.377887 -1.2641612 0 0 0 0 23.41881
-10.199833 11.353806 -0.91547465 0 0 0 0 23.423756
-10.679943 11.304765 -0.55477554 0 0 0 0 23.428703
-9.6938362 11.401093 -1.6649065 0 0 0 0 23.433651
-10.209817 11.385247 -1.2964355 0 0 0 0 23.438599
-10.692808 11.362222 -0.93278527 0 0 0 0 23.443544
-11.202908 11.33035 -0.55625659 0 0 0 0 23.448492
-10.185647 11.409461 -1.7162138 0 0 0 0 23.453438
-10.70772 11.391663 -1.3307644 0 0 0 0 23.458385
-11.145164 11.300425 -0.94578081 0 0 0 0 23.463333
-11.224583 10.846383 -0.53447145 0 0 0 0 23.468281
-10.447009 11.152694 -1.727971 0 0 0 0 23.473227
-11.06163 11.219357 -1.3461032 0 0 0 0 23.478174
-11.142992 10.788342 -0.92183834 0 0 0 0 23.48312
-11.235212 10.369359 -0.51264656 0 0 0 0 23.488068
-10.411137 10.592463 -1.6937994 0 0 0 0 23.493015
-11.071432 10.713339 -1.3212332 0 0 0 0 23.497961
-11.167565 10.32139 -0.90110111 0 0 0 0 23.502909
-11.264619 9.931426 -0.49397755 0 0 0 0 23.507856
-10.940892 10.605998 -1.7502884 0 0 0 0 23.512802
-11.073158 10.219278 -1.297346 0 0 0 0 23.51775
-11.168161 9.8483171 -0.88024074 0 0 0 0 23.522697
-11.26108 9.4823265 -0.47413293 0 0 0 0 23.527643
-10.953443 10.121144 -1.7288001 0 0 0 0 23.285637
-11.087663 9.7574768 -1.2788886 0 0 0 0 23.290585
-11.178628 9.4085331 -0.86277914 0 0 0 0 23.29553
-11.392 9.1561985 -0.46444044 0 0 0 0 23.300478
-11.0019 9.6823244 -1.7112055 0 0 0 0 23.305424
-11.094179 9.3084393 -1.2580663 0 0 0 0 23.310371
-11.414001 9.1596527 -0.86242515 0 0 0 0 23.315319
-11.484945 8.8085928 -0.45021239 0 0 0 0 23.320267
-11.050246 9.2625008 -1.6946431 0 0 0 0 23.325212
-11.333529 9.0585709 -1.2637322 0 0 0 0 23.33016
-11.415369 8.7345791 -0.84361649 0 0 0 0 23.335106
-11.509125 8.4156294 -0.43456972 0 0 0 0 23.340054
-11.209956 8.9462261 -1.6968057 0 0 0 0 23.345001
-11.330938 8.6254807 -1.2448949 0 0 0 0 23.349949
-11.420621 8.3275204 -0.82785952 0 0 0 0 23.354895
-11.51826 8.0285873 -0.41986391 0 0 0 0 23.35984
-11.21338 8.5121727 -1.6760013 0 0 0 0 23.364788
-11.342195 8.2194595 -1.2271732 0 0 0 0 23.369736
-11.431803 7.9324937 -0.81215554 0 0 0 0 23.374683
-10.629533 7.0569448 -0.37474927 0 0 0 0 23.379631
-11.267471 8.1333694 -1.6635407 0 0 0 0 23.384577
-10.469977 7.2130046 -1.118098 0 0 0 0 23.389523
-10.559176 6.9699864 -0.73714769 0 0 0 0 23.39447
-10.633411 6.7138805 -0.36210293 0 0 0 0 23.399418
-10.389446 7.1249471 -1.5174448 0 0 0 0 23.404366
-4.0841045 -3.0115669 -0.5715791 0 0 0 0 23.912146
-5.3374953 -3.8714066 -0.53416187 0 0 0 0 23.917093
-5.3771839 -3.8349278 -0.35139754 0 0 0 0 23.922039
-3.9523742 -3.0632265 -0.55882132 0 0 0 0 23.931934
-4.0281 -3.0676258 -0.41016454 0 0 0 0 23.93688
-4.0887046 -3.0591185 -0.27345642 0 0 0 0 23.941828
-4.2075071 -3.0913293 -0.13695949 0 0 0 0 23.946775
-3.7554002 -3.056186 -0.53685081 0 0 0 0 23.951721
-3.830096 -3.0616026 -0.39518732 0 0 0 0 23.956669
-3.9087384 -3.0690215 -0.26653922 0 0 0 0 23.961617
-4.060627 -3.126085 -0.13715911 0 0 0 0 23.966562
-3.5654161 -3.0481095 -0.51591903 0 0 0 0 23.97151
-3.6822269 -3.0873392 -0.38440099 0 0 0 0 23.976458
-3.7668636 -3.09974 -0.26177308 0 0 0 0 23.981403
-3.8394558 -3.098192 -0.13411015 0 0 0 0 23.986351
-3.3984654 -3.0489216 -0.49708596 0 0 0 0 23.991299
-3.4761157 -3.0583467 -0.36842966 0 0 0 0 23.996244
-3.5516794 -3.0618019 -0.25177294 0 0 0 0 24.001192
-3.6513431 -3.0841384 -0.13319975 0 0 0 0 24.006138
-3.233485 -3.044723 -0.47927356 0 0 0 0 24.011086
-3.3121006 -3.053154 -0.35662323 0 0 0 0 24.016033
-3.3946829 -3.066586 -0.24598344 0 0 0 0 24.020979
-3.4782591 -3.0750074 -0.13135606 0 0 0 0 24.025927
-3.0865335 -3.0484376 -0.46353695 0 0 0 0 24.030874
-3.1631243 -3.057889 -0.3468751 0 0 0 0 24.03582
-3.241667 -3.067348 -0.24022231 0 0 0 0 24.040768
-3.3222139 -3.0747929 -0.13058186 0 0 0 0 24.045715
-2.944567 -3.0501275 -0.44883004 0 0 0 0 24.050661
-3.0231471 -3.0625784 -0.33717251 0 0 0 0 24.055609
-3.0946414 -3.0670798 -0.23549408 0 0 0 0 24.060556
-3.1801875 -3.0795097 -0.1308689 0 0 0 0 24.065502
-2.8055952 -3.0508006 -0.43414161 0 0 0 0 24.07045
-2.879122 -3.056283 -0.32647112 0 0 0 0 24.075397
-2.9596345 -3.0707514 -0.23081899 0 0 0 0 24.080343
-3.0391414 -3.0792177 -0.13017134 0 0 0 0 24.085291
-2.711791 -3.093266 -0.4266018 0 0 0 0 24.090239
-2.7511444 -3.0619111 -0.31782892 0 0 0 0 24.095184
-2.8236036 -3.068424 -0.22515127 0 0 0 0 24.100132
-2.8970573 -3.0719295 -0.13048275 0 0 0 0 24.10508
-2.5214927 -3.0181665 -0.40379795 0 0 0 0 24.110025
-2.6452475 -3.0874367 -0.31226128 0 0 0 0 24.114973
-2.7408063 -3.119848 -0.22465056 0 0 0 0 24.119921
-2.7750494 -3.0795414 -0.12986732 0 0 0 0 24.124866
-2.4085491 -3.0277128 -0.39222538 0 0 0 0 24.129814
-2.4629114 -3.01231 -0.2974973 0 0 0 0 24.13476
-2.5363553 -3.0258353 -0.21481258 0 0 0 0 24.139708
-2.6701033 -3.1020727 -0.13131055 0 0 0 0 24.144655
-2.3136714 -3.0551772 -0.38471133 0 0 0 0 24.149601
-2.4012094 -3.0826268 -0.29607037 0 0 0 0 24.154549
-2.4454622 -3.0562921 -0.21331179 0 0 0 0 24.159496
-2.4937477 -3.0349352 -0.12856391 0 0 0 0 24.164442
-2.1523886 -2.9859364 -0.36504173 0 0 0 0 24.16939
-2.2208118 -2.993484 -0.28034255 0 0 0 0 24.174337
-2.3374734 -3.0648248 -0.20976782 0 0 0 0 24.179283
-2.4319911 -3.0992606 -0.13214748 0 0 0 0 24.184231
-2.0957053 -3.0602257 -0.3636364 0 0 0 0 24.189178
-2.1439855 -3.0368676 -0.27789161 0 0 0 0 24.194124
-2.1831667 -3.0035703 -0.20311989 0 0 0 0 24.199072
-2.2505133 -3.0051398 -0.12842429 0 0 0 0 24.20402
-2.016592 -3.1032083 -0.35750961 0 0 0 0 24.814678
-2.0869648 -3.1107883 -0.2777997 0 0 0 0 24.819626
-2.1210885 -3.0675368 -0.20300311 0 0 0 0 24.824574
-2.1692836 -3.0422258 -0.13024235 0 0 0 0 24.829519
-1.9437823 -3.1515467 -0.35310248 0 0 0 0 24.834467
-1.9809365 -3.1082721 -0.271319 0 0 0 0 24.839415
-2.0532782 -3.1208613 -0.20361011 0 0 0 0 24.84436
-2.1145391 -3.1134973 -0.13388066 0 0 0 0 24.849308
-1.9575855 -3.3535225 -0.36485854 0 0 0 0 24.854256
-1.9352856 -3.1984978 -0.27297282 0 0 0 0 24.859201
-1.9754089 -3.1602278 -0.20319477 0 0 0 0 24.864149
-2.0064435 -3.1019981 -0.13340487 0 0 0 0 24.869095
-1.8132892 -3.2811582 -0.34831351 0 0 0 0 24.874043
-1.8836241 -3.285748 -0.27360654 0 0 0 0 24.87899
-1.9982342 -3.3671637 -0.21398416 0 0 0 0 24.883936
-1.9668082 -3.2002029 -0.13907476 0 0 0 0 24.888884
-1.8559159 -3.2998035 -0.207442 0 0 0 0 24.903725
-1.9211445 -3.2914326 -0.14373003 0 0 0 0 24.908672
-1.845281 -3.3357909 -0.14632167 0 0 0 0 24.928459
-0.94413662 -3.7810695 -0.3047547 0 0 0 0 25.091711
-0.99846393 -3.7907381 -0.21995802 0 0 0 0 25.121393
-0.93086004 -3.8990476 -0.22452115 0 0 0 0 25.14118
-0.98157513 -3.7987812 -0.18686523 0 0 0 0 25.146128
-0.91700447 -3.9190822 -0.19542699 0 0 0 0 25.165916
-0.12130135 -3.9595442 -0.23702985 0 0 0 0 25.045584
0.048920099 -3.9272988 -0.24635059 0 0 0 0 25.060425
-0.028181829 -3.9409471 -0.23366 0 0 0 0 25.065372
-0.10213207 -3.9246159 -0.22599609 0 0 0 0 25.070318
0.060924467 -3.9253311 -0.23030472 0 0 0 0 25.085159
-0.012156533 -3.9440107 -0.22758967 0 0 0 0 25.090107
-0.087068222 -3.9226816 -0.2239356 0 0 0 0 25.095055
0.078923292 -3.9384074 -0.22821383 0 0 0 0 25.109896
0.0030458486 -3.911077 -0.22657128 0 0 0 0 25.114841
0.85372782 -3.8006792 -0.19718198 0 0 0 0 25.238516
0.86684024 -3.8007426 -0.2091388 0 0 0 0 25.263252
0.8870104 -3.7998519 -0.23406804 0 0 0 0 25.287987
0.90521312 -3.7969596 -0.26500848 0 0 0 0 25.312721
1.8605072 -3.9009433 -0.3301034 0 0 0 0 25.490814
1.9209952 -3.7941751 -0.32900971 0 0 0 0 25.510601
2.0314999 -3.7878428 -0.33634406 0 0 0 0 25.285812
2.2312768 -3.789598 -0.27453041 0 0 0 0 25.300653
2.0790484 -3.6680229 -0.33432141 0 0 0 0 25.305599
2.4976296 -3.8926346 -0.21331516 0 0 0 0 25.315495
2.354332 -3.7941067 -0.28003913 0 0 0 0 25.32044
2.1931522 -3.6634979 -0.34287682 0 0 0 0 25.325388
2.6716604 -3.8192558 -0.13570994 0 0 0 0 25.330336
2.571022 -3.8089187 -0.21014474 0 0 0 0 25.335281
2.3839679 -3.6502037 -0.27512363 0 0 0 0 25.340229
2.3162136 -3.6700099 -0.35238346 0 0 0 0 25.345177
2.8762906 -3.9200971 -0.13576689 0 0 0 0 25.350122
2.6980824 -3.8074327 -0.21064995 0 0 0 0 25.35507
2.5159838 -3.6647472 -0.2815859 0 0 0 0 25.360016
2.4402957 -3.6715238 -0.36189461 0 0 0 0 25.364964
2.9496825 -3.8333731 -0.12960444 0 0 0 0 25.369911
2.7515695 -3.6996284 -0.20659356 0 0 0 0 25.374857
2.6540122 -3.6763136 -0.28802997 0 0 0 0 25.379805
2.5643947 -3.6690352 -0.37141314 0 0 0 0 25.384752
3.0698202 -3.8088465 -0.12517281 0 0 0 0 25.389698
2.8657384 -3.6720843 -0.20718786 0 0 0 0 25.394646
2.7850909 -3.6748471 -0.29352158 0 0 0 0 25.399593
2.6994805 -3.6705918 -0.38188404 0 0 0 0 25.404539
3.1949658 -3.7833402 -0.12172399 0 0 0 0 25.409487
3.0197258 -3.6897075 -0.20956492 0 0 0 0 25.414434
2.9251568 -3.6774168 -0.29997393 0 0 0 0 25.41938
2.8355746 -3.6701498 -0.39235589 0 0 0 0 25.424328
3.2544091 -3.683553 -0.11563773 0 0 0 0 25.429276
3.1607974 -3.6872737 -0.21202272 0 0 0 0 25.434221
3.069231 -3.6780007 -0.30641517 0 0 0 0 25.439169
2.9746766 -3.6687191 -0.40381935 0 0 0 0 25.444117
3.3964987 -3.6721144 -0.11310575 0 0 0 0 25.449062
3.3078644 -3.6848609 -0.21345879 0 0 0 0 25.45401
3.2203009 -3.6806121 -0.31382823 0 0 0 0 25.458958
3.1227782 -3.6683242 -0.41624764 0 0 0 0 25.463903
3.5694709 -3.688802 -0.11041627 0 0 0 0 25.468851
3.4689145 -3.6885064 -0.21683347 0 0 0 0 25.473797
3.3654203 -3.671196 -0.32128316 0 0 0 0 25.478745
3.2738836 -3.666939 -0.42866778 0 0 0 0 25.483692
3.7325227 -3.6864452 -0.10779388 0 0 0 0 25.488638
3.6250021 -3.6821268 -0.21924368 0 0 0 0 25.493586
3.531481 -3.6768651 -0.32963756 0 0 0 0 25.498533
3.4369714 -3.671603 -0.44303498 0 0 0 0 25.503479
3.5489113 -3.3506348 -0.095983259 0 0 0 0 25.508427
3.799052 -3.6858196 -0.22257197 0 0 0 0 25.513374
3.6985791 -3.6735351 -0.33800203 0 0 0 0 25.51832
3.5961053 -3.663245 -0.45543718 0 0 0 0 25.523268
3.6362262 -3.2819598 -0.091748044 0 0 0 0 25.528215
3.6004696 -3.3369424 -0.20583378 0 0 0 0 25.533161
3.8706889 -3.6682243 -0.34735188 0 0 0 0 25.538109
3.775213 -3.6649714 -0.47174981 0 0 0 0 25.543056
3.6856849 -3.1771257 -0.086709879 0 0 0 0 25.548002
3.6479561 -3.2271023 -0.20280956 0 0 0 0 25.55295
4.0717235 -3.6830316 -0.3585645 0 0 0 0 25.557898
3.9513576 -3.6566806 -0.48708984 0 0 0 0 25.562843
3.7919388 -3.1235268 -0.083381817 0 0 0 0 25.567791
3.7512422 -3.1684942 -0.20249957 0 0 0 0 25.572739
4.261837 -3.6767876 -0.36785024 0 0 0 0 25.577684
4.1544399 -3.6665008 -0.50530356 0 0 0 0 25.582632
3.9889233 -3.1373012 -0.081611149 0 0 0 0 25.58758
4.5065298 -3.6326053 -0.23595554 0 0 0 0 25.592525
4.4619536 -3.6715834 -0.37909836 0 0 0 0 25.597473
4.3565745 -3.6623116 -0.52254182 0 0 0 0 25.602419
4.1121597 -3.0877674 -0.078214608 0 0 0 0 25.607367
3.842186 -2.9547932 -0.1974604 0 0 0 0 25.612314
3.8294859 -3.0048802 -0.32146007 0 0 0 0 25.61726
3.8168051 -3.0589776 -0.45445502 0 0 0 0 25.622208
3.0926619 -2.2165315 -0.057350278 0 0 0 0 25.627155
3.8567312 -2.8278131 -0.19358747 0 0 0 0 25.632101
4.5252037 -3.3827515 -0.37327743 0 0 0 0 25.637049
4.5465069 -3.4680188 -0.53410274 0 0 0 0 25.641996
3.0522141 -2.0853338 -0.05268928 0 0 0 0 25.646942
3.1441774 -2.1978254 -0.15619655 0 0 0 0 25.65189
3.8705676 -2.7549715 -0.31666085 0 0 0 0 25.656837
4.5382318 -3.2949347 -0.52838355 0 0 0 0 25.661783
3.070596 -1.9973789 -0.049741894 0 0 0 0 25.666731
3.0867763 -2.0525558 -0.14961837 0 0 0 0 25.671679
3.2436521 -2.1963208 -0.26283383 0 0 0 0 25.676624
3.9353316 -2.7143533 -0.45549434 0 0 0 0 25.681572
3.1398413 -1.9436315 -0.047552593 0 0 0 0 25.68652
3.1390822 -1.985741 -0.14951192 0 0 0 0 25.691465
3.2301497 -2.078232 -0.25904971 0 0 0 0 25.696413
3.418035 -2.240144 -0.39312485 0 0 0 0 25.701361
3.2240572 -1.8969432 -0.045296744 0 0 0 0 25.706306
3.2023661 -1.9239696 -0.1493566 0 0 0 0 25.711254
3.1777112 -1.9409828 -0.25243986 0 0 0 0 25.7162
4.3785453 -2.7231236 -0.49780634 0 0 0 0 25.721148
3.3332231 -1.8623544 -0.042929754 0 0 0 0 25.726095
3.2816205 -1.870263 -0.15012968 0 0 0 0 25.731041
3.2340255 -1.873184 -0.25431946 0 0 0 0 25.735989
3.2193685 -1.898246 -0.36535397 0 0 0 0 25.740936
3.5752189 -1.8942257 -0.043029141 0 0 0 0 25.796137
3.401875 -1.8386478 -0.15277542 0 0 0 0 25.801085
3.3353331 -1.8294948 -0.25905156 0 0 0 0 25.80603
3.2727897 -1.8243623 -0.36930719 0 0 0 0 25.810978
2.6215062 -1.3153622 -0.031426575 0 0 0 0 25.815926
3.5190816 -1.7980899 -0.15538956 0 0 0 0 25.820871
3.6352255 -1.8856878 -0.27984512 0 0 0 0 25.825819
3.7194724 -1.9581701 -0.41544268 0 0 0 0 25.830767
2.6357906 -1.249395 -0.029459428 0 0 0 0 25.835712
2.6600027 -1.2835855 -0.11733039 0 0 0 0 25.84066
2.7002139 -1.3208429 -0.2081361 0 0 0 0 25.845606
3.5202467 -1.7473141 -0.39148054 0 0 0 0 25.850554
2.638098 -1.1773798 -0.027545087 0 0 0 0 25.855501
2.6762931 -1.2166264 -0.11635655 0 0 0 0 25.860447
2.7175157 -1.2508869 -0.20716229 0 0 0 0 25.865395
2.8406432 -1.3264925 -0.31560525 0 0 0 0 25.870342
2.6523681 -1.1144122 -0.025573622 0 0 0 0 25.875288
2.6845944 -1.1466353 -0.11541659 0 0 0 0 25.880236
2.726824 -1.1788989 -0.20622119 0 0 0 0 25.885183
2.8709505 -1.2575895 -0.3175813 0 0 0 0 25.890129
2.6606567 -1.0474218 -0.024629347 0 0 0 0 25.895077
2.6968822 -1.0796601 -0.11445731 0 0 0 0 25.900024
2.7371311 -1.107916 -0.20627455 0 0 0 0 25.90497
2.8293376 -1.1603924 -0.3118653 0 0 0 0 25.909918
2.6729248 -0.98444587 -0.022664733 0 0 0 0 25.914865
2.7021773 -1.0106568 -0.11352668 0 0 0 0 25.919811
2.7504249 -1.0399444 -0.20631254 0 0 0 0 25.924759
2.8426545 -1.0864197 -0.31191102 0 0 0 0 25.929707
2.8280036 -0.97103506 -0.022097247 0 0 0 0 25.934652
2.8053505 -0.97604364 -0.11618236 0 0 0 0 25.9396
2.7986774 -0.98411274 -0.20820281 0 0 0 0 25.944548
2.8649616 -1.0164843 -0.31391731 0 0 0 0 25.949493
2.9638238 -0.96374929 -0.21860799 0 0 0 0 25.964334
2.881264 -0.94552267 -0.31394738 0 0 0 0 25.969282
4.6716309 -1.3975563 -0.33864233 0 0 0 0 25.984123
3.197341 -0.96477222 -0.34673721 0 0 0 0 25.989069
5.0182319 -1.3667262 -0.19538264 0 0 0 0 25.998964
3.8117895 -1.0440794 -0.27632844 0 0 0 0 26.00391
3.8602517 -1.0634123 -0.41613001 0 0 0 0 26.008858
5.285512 -1.3117352 -0.20446564 0 0 0 0 26.018751
4.5706592 -1.1380664 -0.32937405 0 0 0 0 26.023699
4.0335593 -1.0080719 -0.43355781 0 0 0 0 26.028646
5.3369908 -1.1958879 -0.20443538 0 0 0 0 26.03854
4.5381365 -1.0178939 -0.32565814 0 0 0 0 26.043488
3.9869952 -0.89584726 -0.42788026 0 0 0 0 26.048433
4.8388238 -0.96788192 -0.1855994 0 0 0 0 26.058329
4.5175996 -0.90277064 -0.32388976 0 0 0 0 26.063274
4.0013971 -0.79886752 -0.4289546 0 0 0 0 26.068222
5.1641135 -0.91111213 -0.19646911 0 0 0 0 26.078115
4.5090489 -0.79169536 -0.32307035 0 0 0 0 26.083063
5.1875896 -0.79415637 -0.19654153 0 0 0 0 26.097904
5.0721164 -0.65765804 -0.19115412 0 0 0 0 26.117691
5.0585923 -0.53855944 -0.19036402 0 0 0 0 26.13748
5.0060673 -0.41730928 -0.18771991 0 0 0 0 26.157269
4.9755278 -0.30114645 -0.18698654 0 0 0 0 26.177055
4.9249868 -0.18390673 -0.18532659 0 0 0 0 26.196844
4.9014277 -0.071771868 -0.18455945 0 0 0 0 26.216631
5.7551813 0.021184282 -0.015526779 0 0 0 0 26.231472
4.8798633 0.039354976 -0.18378231 0 0 0 0 26.23642
4.8192925 0.15063034 -0.18214715 0 0 0 0 26.256208
5.6245689 0.27414027 -0.016254475 0 0 0 0 26.821178
4.7720704 0.25901863 -0.18115216 0 0 0 0 26.826126
4.7604709 0.36810109 -0.18231238 0 0 0 0 26.845913
4.6998386 0.47135797 -0.18063213 0 0 0 0 26.865702
4.6802216 0.57746851 -0.1808137 0 0 0 0 26.88549
4.6605988 0.68257868 -0.18099295 0 0 0 0 26.905277
5.2756572 0.85160285 -0.019087626 0 0 0 0 26.920118
4.6509914 0.79165274 -0.18214053 0 0 0 0 26.925066
4.4975753 0.82935566 -0.0177014 0 0 0 0 26.939907
4.5362968 0.88009483 -0.17962091 0 0 0 0 26.944853
4.253768 0.88223958 -0.018580029 0 0 0 0 26.959694
3.8470628 0.83754504 -0.15390456 0 0 0 0 26.964642
3.7966099 0.86961961 -0.28410405 0 0 0 0 26.969589
4.2080855 0.97143424 -0.018824281 0 0 0 0 26.979483
3.5921476 0.8684665 -0.14579216 0 0 0 0 26.98443
3.3544462 0.85120595 -0.25357145 0 0 0 0 26.989376
3.1637576 0.84178573 -0.35720003 0 0 0 0 26.994324
5.1402793 1.3072515 -0.024026088 0 0 0 0 26.999271
3.4823501 0.9278785 -0.14321691 0 0 0 0 27.004217
3.1555088 0.88093179 -0.24026443 0 0 0 0 27.009165
2.9056945 0.84872472 -0.33006752 0 0 0 0 27.014112
5.100677 1.420432 -0.025274601 0 0 0 0 27.019058
3.4476159 1.0030282 -0.14340368 0 0 0 0 27.024006
3.0166147 0.91844368 -0.23176128 0 0 0 0 27.028954
2.748739 0.87530214 -0.31461239 0 0 0 0 27.033899
5.0450449 1.5256666 -0.026567537 0 0 0 0 27.038847
4.3360133 1.3699824 -0.18078451 0 0 0 0 27.043795
3.012892 0.99648213 -0.23284292 0 0 0 0 27.04874
2.6538537 0.91565841 -0.30596086 0 0 0 0 27.053688
4.981411 1.6299267 -0.02888388 0 0 0 0 27.058636
4.3093653 1.4711112 -0.18197037 0 0 0 0 27.063581
3.8113501 1.3587303 -0.2955198 0 0 0 0 27.068529
4.9237719 1.7331651 -0.031177416 0 0 0 0 27.078423
4.2676954 1.5672913 -0.18219993 0 0 0 0 27.08337
3.7766557 1.4478827 -0.2957164 0 0 0 0 27.088316
3.340574 1.3353008 -0.38905621 0 0 0 0 27.093264
4.897171 1.8482972 -0.033376846 0 0 0 0 27.098211
4.22402 1.6614766 -0.18343264 0 0 0 0 27.103157
3.7469597 1.5370172 -0.29589504 0 0 0 0 27.108105
3.3118541 1.4174286 -0.38922226 0 0 0 0 27.113052
4.8174911 1.9416095 -0.034730211 0 0 0 0 27.117998
4.1863527 1.7586409 -0.18464635 0 0 0 0 27.122946
3.7052522 1.6231921 -0.29610899 0 0 0 0 27.127893
3.2851329 1.499549 -0.38938043 0 0 0 0 27.132839
4.8069134 2.0636852 -0.037879281 0 0 0 0 27.137787
4.141674 1.8528283 -0.18587877 0 0 0 0 27.142735
3.673553 1.7123322 -0.29629108 0 0 0 0 27.14768
3.2574167 1.5836723 -0.38954204 0 0 0 0 27.152628
4.7682929 2.1748559 -0.040109187 0 0 0 0 27.157576
4.1140237 1.9559573 -0.18706125 0 0 0 0 27.162521
3.6388521 1.801482 -0.2964814 0 0 0 0 27.167469
3.2156622 1.658844 -0.38774061 0 0 0 0 27.172417
4.7086401 2.2760959 -0.043397408 0 0 0 0 27.177362
4.0653348 2.0481567 -0.18830152 0 0 0 0 27.18231
3.5911295 1.8846749 -0.29670748 0 0 0 0 27.187256
3.1889532 1.7449619 -0.38889772 0 0 0 0 27.192204
4.6469793 2.3763423 -0.045689136 0 0 0 0 27.197151
4.0366802 2.1502872 -0.19048311 0 0 0 0 27.202097
3.5554256 1.9738266 -0.29689777 0 0 0 0 27.207045
3.1602292 1.828087 -0.38905752 0 0 0 0 27.211992
4.5943327 2.4805567 -0.048952762 0 0 0 0 27.216938
3.9809778 2.2395084 -0.19173999 0 0 0 0 27.221886
3.5217266 2.0639703 -0.29808077 0 0 0 0 27.226833
3.1305137 1.913214 -0.39022064 0 0 0 0 27.231779
4.5336709 2.580797 -0.052236933 0 0 0 0 27.236727
3.9443164 2.3406641 -0.19394311 0 0 0 0 27.241674
3.4890323 2.1561098 -0.29926053 0 0 0 0 27.24662
3.0977831 1.9953514 -0.39038968 0 0 0 0 27.251568
4.6473618 2.7854548 -0.057041898 0 0 0 0 27.256516
3.8906136 2.4308767 -0.1951905 0 0 0 0 27.261461
3.4423103 2.2412963 -0.29947817 0 0 0 0 27.266409
3.0590448 2.0765085 -0.38957566 0 0 0 0 27.271357
4.4373913 2.796191 -0.058730289 0 0 0 0 27.276302
3.8669817 2.5409873 -0.19835538 0 0 0 0 27.28125
3.4106257 2.3364303 -0.30165377 0 0 0 0 27.286198
3.0313411 2.1656265 -0.39173102 0 0 0 0 27.291143
4.3127055 2.8541632 -0.061086893 0 0 0 0 27.040554
3.934706 2.7163494 -0.20622258 0 0 0 0 27.045502
3.3730292 2.4282022 -0.302838 0 0 0 0 27.050447
2.9836712 2.2404702 -0.3909665 0 0 0 0 27.055395
4.0726166 2.8300202 -0.06286452 0 0 0 0 27.060341
3.8399265 2.7837079 -0.20659396 0 0 0 0 27.065289
3.0314717 2.2924185 -0.27784967 0 0 0 0 27.070236
2.9660125 2.3405557 -0.39310423 0 0 0 0 27.075182
3.842504 2.7998395 -0.06360016 0 0 0 0 27.08013
3.0401809 2.3134964 -0.16883613 0 0 0 0 27.085077
2.9646671 2.3536742 -0.27611646 0 0 0 0 27.090023
2.9132504 2.413763 -0.39233366 0 0 0 0 27.094971
3.6544697 2.7915108 -0.065211795 0 0 0 0 27.099918
