# .PCD v0.7 - Point Cloud Data file format
VERSION 0.7
FIELDS x y z normal_x normal_y normal_z intensity curvature
SIZE 4 4 4 4 4 4 4 4
TYPE F F F F F F F F
COUNT 1 1 1 1 1 1 1 1
WIDTH 972
HEIGHT 1
VIEWPOINT 0 0 0 1 0 0 0
POINTS 972
DATA ascii
-2.7345643 -4.9046798 2.0417032 0 0 0 0 13.977255
-2.8343859 -4.9464464 2.2172186 0 0 0 0 13.982203
-2.9289925 -4.9763155 2.3997507 0 0 0 0 13.98715
-2.479322 -4.8562603 1.8430517 0 0 0 0 13.992098
-2.573817 -4.8841414 2.0125818 0 0 0 0 13.997046
-2.6693103 -4.9130073 2.1781077 0 0 0 0 14.001989
-2.7773333 -4.961596 2.3645866 0 0 0 0 14.006937
-2.3194933 -4.8306894 1.8179183 0 0 0 0 14.011885
-2.4180062 -4.8604922 1.9834288 0 0 0 0 14.016832
-2.5175917 -4.8942761 2.1469378 0 0 0 0 14.02178
-2.62135 -4.9329634 2.3234301 0 0 0 0 14.026728
-2.1656754 -4.8049841 1.7947508 0 0 0 0 14.031672
-2.2704639 -4.8476586 1.9612409 0 0 0 0 14.036619
-2.36779 -4.8714976 2.1157525 0 0 0 0 14.041567
-2.4683154 -4.9012594 2.2842529 0 0 0 0 14.046515
-2.0222769 -4.7970505 1.7795436 0 0 0 0 14.051462
-2.1215601 -4.8188481 1.9340426 0 0 0 0 14.05641
-2.2219992 -4.8486266 2.0865433 0 0 0 0 14.061354
-2.3265848 -4.882309 2.2510266 0 0 0 0 14.066301
-1.8774806 -4.7711391 1.7603242 0 0 0 0 14.071249
-1.9787825 -4.7949004 1.9108146 0 0 0 0 14.076197
-2.0864964 -4.8375301 2.0642896 0 0 0 0 14.081144
-2.1877761 -4.8592896 2.2187788 0 0 0 0 14.086088
-1.7377946 -4.7501149 1.7420809 0 0 0 0 14.091036
-1.8411206 -4.7758389 1.8895626 0 0 0 0 14.095984
-1.9455341 -4.8065443 2.0340438 0 0 0 0 14.100931
-2.0531621 -4.8441744 2.191515 0 0 0 0 14.105879
-1.6011041 -4.7280192 1.7268189 0 0 0 0 14.110826
-1.7085898 -4.7616601 1.8732866 0 0 0 0 14.11577
-1.8171103 -4.7982855 2.0147519 0 0 0 0 14.120718
-1.9235114 -4.8269477 2.165221 0 0 0 0 14.125666
-1.4684873 -4.7088308 1.7135367 0 0 0 0 14.130613
-1.5768764 -4.7394595 1.8539968 0 0 0 0 14.135561
-1.6843326 -4.7741127 1.9914663 0 0 0 0 14.140509
-1.7905121 -4.7947874 2.1319287 0 0 0 0 14.145452
-1.3372366 -4.6943078 1.7029002 0 0 0 0 14.630529
-1.4476386 -4.7279639 1.8413664 0 0 0 0 14.635477
-1.5537652 -4.7507143 1.9698451 0 0 0 0 14.640425
-1.6620952 -4.7804122 2.1103187 0 0 0 0 14.645372
-1.2139065 -4.6868472 1.6955601 0 0 0 0 14.65032
-1.3219763 -4.7065568 1.8250258 0 0 0 0 14.655268
-1.4291725 -4.7332897 1.9515029 0 0 0 0 14.660212
-1.5383428 -4.7569776 2.0849674 0 0 0 0 14.665159
-1.0883031 -4.6664257 1.6862185 0 0 0 0 14.670107
-1.1981881 -4.6791062 1.8076688 0 0 0 0 14.675055
-1.3085852 -4.7157779 1.9341387 0 0 0 0 14.680002
-1.4208905 -4.7464061 2.0665934 0 0 0 0 14.684946
-0.96889734 -4.6548729 1.6798517 0 0 0 0 14.689894
-1.0809685 -4.6765118 1.8022991 0 0 0 0 14.694841
-1.1910895 -4.7021971 1.9187607 0 0 0 0 14.699789
-1.303261 -4.7278337 2.045212 0 0 0 0 14.704737
-0.84939086 -4.6383162 1.6734794 0 0 0 0 14.709684
-0.9634549 -4.6609206 1.7909179 0 0 0 0 14.714628
-1.0745387 -4.6855907 1.9043738 0 0 0 0 14.719576
-1.1897942 -4.7161703 2.0278141 0 0 0 0 14.724524
-0.73191017 -4.6227126 1.6680962 0 0 0 0 14.729471
-0.84899735 -4.6472607 1.7825212 0 0 0 0 14.734419
-0.9610188 -4.6699166 1.8919709 0 0 0 0 14.739367
-1.0762017 -4.6985044 2.0094101 0 0 0 0 14.74431
-0.61643493 -4.6070623 1.6637014 0 0 0 0 14.749258
-0.7345053 -4.6315951 1.7751217 0 0 0 0 14.754206
-0.84851974 -4.6552172 1.8795624 0 0 0 0 14.759153
-0.96255457 -4.6778331 1.9920022 0 0 0 0 14.764101
-0.50420761 -4.6023397 1.6642985 0 0 0 0 14.769049
-0.62319034 -4.6238599 1.7707118 0 0 0 0 14.773993
-0.73807162 -4.6424699 1.8691437 0 0 0 0 14.77894
-0.8551752 -4.6690288 1.9795719 0 0 0 0 14.783888
-0.39076877 -4.587636 1.6628916 0 0 0 0 14.788836
-0.51148194 -4.5981283 1.7602862 0 0 0 0 14.793783
-0.6297906 -4.6366715 1.8637192 0 0 0 0 14.798727
-0.74775088 -4.6582208 1.9661388 0 0 0 0 14.803675
-0.27930999 -4.571888 1.6614722 0 0 0 0 14.808622
-0.40331918 -4.5963168 1.7618631 0 0 0 0 14.81357
-0.52118218 -4.6158767 1.8532815 0 0 0 0 14.818518
-0.63912094 -4.6374316 1.9517016 0 0 0 0 14.823465
-0.17003302 -4.5640888 1.6640476 0 0 0 0 14.828409
-0.29477853 -4.5775089 1.7564253 0 0 0 0 14.833357
-0.41361994 -4.5970554 1.843839 0 0 0 0 14.838305
-0.53484374 -4.6325483 1.9432554 0 0 0 0 14.843252
-0.060585268 -4.5482888 1.6646155 0 0 0 0 14.8482
-0.18828365 -4.5606561 1.7519774 0 0 0 0 14.853148
-0.30839545 -4.5931797 1.8413969 0 0 0 0 14.858091
-0.42922521 -4.6116872 1.9308004 0 0 0 0 14.863039
0.046877172 -4.5314431 1.6661711 0 0 0 0 14.867987
-0.082000971 -4.5527911 1.7535356 0 0 0 0 14.872934
-0.20404024 -4.5832825 1.8369437 0 0 0 0 14.877882
-0.32564738 -4.5927811 1.9183356 0 0 0 0 14.88283
0.15522303 -4.519609 1.6707345 0 0 0 0 14.887774
0.023412138 -4.5389042 1.7530826 0 0 0 0 14.892721
-0.10038422 -4.5593667 1.8284733 0 0 0 0 14.897669
-0.22329634 -4.5838437 1.9108723 0 0 0 0 14.902617
0.26258868 -4.5067511 1.6752908 0 0 0 0 14.907564
0.12779975 -4.5259914 1.7536242 0 0 0 0 14.912512
0.0028893459 -4.5524364 1.828015 0 0 0 0 14.917456
-0.12085079 -4.5699024 1.9044039 0 0 0 0 14.922403
0.36896893 -4.4928675 1.68084 0 0 0 0 14.927351
0.23307119 -4.5180912 1.7571737 0 0 0 0 14.932299
0.10522795 -4.5424829 1.826548 0 0 0 0 14.937246
-0.021490369 -4.559895 1.8989222 0 0 0 0 14.94219
0.47618809 -4.4859939 1.6903986 0 0 0 0 14.947138
0.33649287 -4.503149 1.7587062 0 0 0 0 14.952085
0.20775613 -4.5235286 1.8230728 0 0 0 0 14.957033
0.078864269 -4.549902 1.8944445 0 0 0 0 14.961981
0.58157748 -4.4710798 1.6979395 0 0 0 0 14.966928
0.43897402 -4.4851832 1.7602301 0 0 0 0 14.971872
0.3091737 -4.5095468 1.8215954 0 0 0 0 14.97682
0.17919335 -4.5409036 1.8909664 0 0 0 0 14.981768
0.68698627 -4.4551606 1.7054784 0 0 0 0 14.986715
0.54411393 -4.4822626 1.7697798 0 0 0 0 14.991663
0.41147032 -4.5005765 1.8241258 0 0 0 0 14.996611
0.27975649 -4.520906 1.8844786 0 0 0 0 15.001554
0.79419428 -4.4482722 1.7170334 0 0 0 0 15.006502
0.64665371 -4.4612885 1.7712991 0 0 0 0 15.01145
0.51296133 -4.4825864 1.823643 0 0 0 0 15.016397
0.38005438 -4.512897 1.8829991 0 0 0 0 15.021345
0.90143687 -4.4393783 1.7295855 0 0 0 0 15.026293
0.74996293 -4.4503226 1.7788302 0 0 0 0 15.031237
0.61420733 -4.4755845 1.8281674 0 0 0 0 15.036184
0.47950152 -4.4978666 1.8795079 0 0 0 0 15.041132
1.0078038 -4.4244618 1.7411268 0 0 0 0 15.04608
0.8551119 -4.4463873 1.7903755 0 0 0 0 15.051027
0.71649259 -4.4665995 1.8326944 0 0 0 0 15.055971
0.57993758 -4.4828501 1.8780208 0 0 0 0 15.060919
1.1150157 -4.4165568 1.7556773 0 0 0 0 15.065866
0.95943511 -4.4344316 1.7989084 0 0 0 0 15.070814
0.81699175 -4.4475741 1.8342023 0 0 0 0 15.075762
0.68015426 -4.4778242 1.88054 0 0 0 0 15.080709
1.2214165 -4.399631 1.7682146 0 0 0 0 15.085653
1.0628374 -4.4184523 1.8074321 0 0 0 0 15.090601
0.92121583 -4.4406157 1.8427385 0 0 0 0 15.095549
0.77955955 -4.4637775 1.8810463 0 0 0 0 15.100496
1.3283648 -4.3860793 1.7836004 0 0 0 0 14.848948
1.1685876 -4.4148378 1.82081 0 0 0 0 14.853895
1.0211809 -4.4278517 1.8480692 0 0 0 0 14.858839
0.87769276 -4.4439425 1.8793517 0 0 0 0 14.863787
1.4357979 -4.3671927 1.7981466 0 0 0 0 14.868734
1.2749115 -4.4019346 1.8333564 0 0 0 0 14.873682
1.123602 -4.4118772 1.8535935 0 0 0 0 14.87863
0.98082829 -4.4419875 1.8858927 0 0 0 0 14.883577
1.5460036 -4.358355 1.8177146 0 0 0 0 14.888521
1.3765022 -4.3769336 1.8408666 0 0 0 0 14.893469
1.2297705 -4.4069715 1.8651457 0 0 0 0 14.898417
1.0812453 -4.4269738 1.8884071 0 0 0 0 14.903364
1.6563596 -4.3425159 1.835276 0 0 0 0 14.908312
1.4885727 -4.3751335 1.8594501 0 0 0 0 14.91326
1.3312861 -4.3859687 1.8716587 0 0 0 0 14.918203
1.181787 -4.4059587 1.8899156 0 0 0 0 14.923151
1.7695488 -4.3337259 1.857857 0 0 0 0 14.928099
1.5939956 -4.3571978 1.8719839 0 0 0 0 14.933046
1.4375141 -4.3780546 1.8832061 0 0 0 0 14.937994
1.2878608 -4.4060464 1.9004701 0 0 0 0 14.942942
1.8847523 -4.3239708 1.8814462 0 0 0 0 14.947886
1.7032967 -4.3443327 1.8885409 0 0 0 0 14.952833
1.5457712 -4.3681741 1.8967611 0 0 0 0 14.957781
1.3903306 -4.3880596 1.903989 0 0 0 0 14.962729
2.0019503 -4.3142495 1.9060442 0 0 0 0 14.967676
1.8174112 -4.3395567 1.9101284 0 0 0 0 14.972624
1.6530983 -4.3552718 1.9083074 0 0 0 0 14.977568
1.4947389 -4.3721042 1.9115183 0 0 0 0 14.982515
2.1143439 -4.2954283 1.9276085 0 0 0 0 14.987463
1.9306756 -4.3277593 1.9297041 0 0 0 0 14.992411
1.7595249 -4.3373461 1.9198436 0 0 0 0 14.997358
1.6019714 -4.3641996 1.9220681 0 0 0 0 15.002302
2.2345653 -4.2837548 1.9552177 0 0 0 0 15.00725
2.0420451 -4.3109188 1.9482644 0 0 0 0 15.012197
1.8736298 -4.3335652 1.9394301 0 0 0 0 15.017145
1.7083085 -4.3512731 1.9316078 0 0 0 0 15.022093
2.3548064 -4.2710767 1.9828247 0 0 0 0 15.02704
2.1573579 -4.2961502 1.9698454 0 0 0 0 15.031984
1.9849546 -4.3197246 1.9549924 0 0 0 0 15.036932
1.8157693 -4.3323636 1.9401467 0 0 0 0 15.04188
2.4896054 -4.2776775 2.0225213 0 0 0 0 15.046827
2.277535 -4.2874722 1.9944551 0 0 0 0 15.051775
2.0982285 -4.3079176 1.9725651 0 0 0 0 15.056723
1.9260447 -4.3215032 1.9537058 0 0 0 0 15.061666
2.6138902 -4.2620664 2.0531435 0 0 0 0 15.066614
2.3939016 -4.2697134 2.0170364 0 0 0 0 15.071562
2.2155061 -4.2951827 1.9931562 0 0 0 0 15.076509
2.0402539 -4.3137155 1.9682863 0 0 0 0 15.081457
2.7401938 -4.2454896 2.0837739 0 0 0 0 15.086405
2.5199673 -4.2651386 2.0476768 0 0 0 0 15.091349
2.3337383 -4.284461 2.0147524 0 0 0 0 15.096296
2.1478717 -4.2867937 1.9768153 0 0 0 0 15.101244
2.8781865 -4.2421341 2.1244733 0 0 0 0 15.106192
2.6452267 -4.2515426 2.075304 0 0 0 0 15.111139
2.4520993 -4.2677374 2.0343428 0 0 0 0 15.116083
2.2679894 -4.2821097 1.9974259 0 0 0 0 15.121031
3.0075533 -4.2216039 2.1581128 0 0 0 0 15.125978
2.7715204 -4.2359605 2.1039333 0 0 0 0 15.130926
2.5792198 -4.2611785 2.0619848 0 0 0 0 15.135874
2.3862612 -4.2703853 2.0150197 0 0 0 0 15.140821
3.1457639 -4.2072392 2.1988008 0 0 0 0 15.145765
2.9104838 -4.2346191 2.1426375 0 0 0 0 15.150713
2.702539 -4.2455397 2.0855985 0 0 0 0 15.155661
2.5056312 -4.2536764 2.0326133 0 0 0 0 15.160608
3.2899036 -4.1959848 2.2415199 0 0 0 0 15.165556
3.0447056 -4.2211785 2.1773059 0 0 0 0 15.170504
2.8288722 -4.2289538 2.1102252 0 0 0 0 15.175447
2.6318164 -4.2450948 2.0552471 0 0 0 0 15.180395
3.4400022 -4.1858392 2.2882686 0 0 0 0 15.185343
3.1780758 -4.2007165 2.2099621 0 0 0 0 15.19029
2.9679151 -4.2246089 2.1449251 0 0 0 0 15.195238
2.7629457 -4.2386031 2.0809064 0 0 0 0 15.200186
3.5872445 -4.1686306 2.3339946 0 0 0 0 15.20513
3.3232303 -4.189477 2.2496843 0 0 0 0 15.210077
3.103112 -4.2131829 2.1765978 0 0 0 0 15.215025
2.8961089 -4.230145 2.1075723 0 0 0 0 15.219973
3.7511969 -4.1637392 2.3898141 0 0 0 0 15.22492
3.4752204 -4.1853633 2.2944455 0 0 0 0 15.229864
3.2443173 -4.2008677 2.2102985 0 0 0 0 15.234812
3.0264647 -4.2126265 2.1312151 0 0 0 0 15.239759
3.9182029 -4.1558995 2.4466443 0 0 0 0 15.244707
3.6254771 -4.1682086 2.3371849 0 0 0 0 15.249655
3.385601 -4.1845474 2.2439947 0 0 0 0 15.254602
3.1763828 -4.2144814 2.166971 0 0 0 0 15.259546
4.0736246 -4.128828 2.4953983 0 0 0 0 15.264494
3.7904248 -4.1643305 2.3900075 0 0 0 0 15.269442
3.5386896 -4.1764488 2.2847555 0 0 0 0 15.274389
3.3030536 -4.1818795 2.1865792 0 0 0 0 15.279337
4.2516575 -4.118186 2.5582776 0 0 0 0 15.284285
3.9496596 -4.1473355 2.4367888 0 0 0 0 15.289228
3.6870742 -4.1542521 2.3214791 0 0 0 0 15.294176
3.4600286 -4.1798568 2.2263641 0 0 0 0 15.299124
4.4298472 -4.0995388 2.6211488 0 0 0 0 15.304071
4.1109815 -4.1253729 2.4855742 0 0 0 0 15.309019
3.8541057 -4.1474094 2.3693073 0 0 0 0 15.313967
3.6054039 -4.1596036 2.2570734 0 0 0 0 15.318911
4.6088963 -4.0761681 2.6849713 0 0 0 0 15.472239
4.2908583 -4.1120787 2.5444238 0 0 0 0 15.477186
4.0151753 -4.1278038 2.4130707 0 0 0 0 15.482134
3.7683103 -4.1490808 2.2978652 0 0 0 0 15.487082
4.8040228 -4.0588002 2.7559161 0 0 0 0 15.492025
4.467083 -4.0933609 2.6002755 0 0 0 0 15.496973
4.1844015 -4.1109614 2.4608903 0 0 0 0 15.501921
3.9324799 -4.1371512 2.3376651 0 0 0 0 15.506868
5.0188885 -4.0517998 2.8399649 0 0 0 0 15.511816
4.6522999 -4.0738063 2.6611691 0 0 0 0 15.516764
4.3655176 -4.0983386 2.5147705 0 0 0 0 15.521708
4.094862 -4.1141782 2.3774455 0 0 0 0 15.526655
5.2310066 -4.0327373 2.9199877 0 0 0 0 15.531603
4.8612351 -4.0656948 2.7351868 0 0 0 0 15.536551
4.545794 -4.0776911 2.5676379 0 0 0 0 15.541498
4.270082 -4.098444 2.4222929 0 0 0 0 15.546442
5.4541268 -4.0118737 3.007061 0 0 0 0 15.55139
5.0683546 -4.0485401 2.8071859 0 0 0 0 15.556337
4.7340875 -4.0551877 2.6245413 0 0 0 0 15.561285
4.449368 -4.0787792 2.4691556 0 0 0 0 15.566233
5.7010102 -4.0004525 3.1062567 0 0 0 0 15.57118
5.28058 -4.0254726 2.8812032 0 0 0 0 15.576124
4.9480219 -4.0481644 2.6945815 0 0 0 0 15.581072
4.643539 -4.0633893 2.5230927 0 0 0 0 15.58602
5.9382677 -3.9708357 3.2003872 0 0 0 0 15.590967
5.5145679 -4.0118084 2.9673326 0 0 0 0 15.595915
5.1552863 -4.0250034 2.7605734 0 0 0 0 15.600863
4.8417573 -4.0450673 2.5790455 0 0 0 0 15.605806
6.2140965 -3.9589419 3.313719 0 0 0 0 15.610754
5.758626 -3.9933245 3.0585048 0 0 0 0 15.615702
5.3764801 -4.0040984 2.8326328 0 0 0 0 15.620649
5.0558801 -4.0300388 2.6420767 0 0 0 0 15.625597
6.4891467 -3.9350178 3.4290342 0 0 0 0 15.630545
6.0077553 -3.9709265 3.150696 0 0 0 0 15.635489
5.6204753 -3.9906156 2.9168081 0 0 0 0 15.640436
5.2751074 -4.0090971 2.7071257 0 0 0 0 15.645384
6.7792473 -3.9073675 3.5494173 0 0 0 0 15.650331
6.2817783 -3.9509876 3.2560086 0 0 0 0 15.655279
5.8627124 -3.9650877 2.9989619 0 0 0 0 15.660227
5.4964695 -3.9811857 2.772177 0 0 0 0 15.665171
7.1031337 -3.8863416 3.6889675 0 0 0 0 15.670118
6.5619102 -3.9251528 3.3623433 0 0 0 0 15.675066
6.1258621 -3.9419451 3.0902178 0 0 0 0 15.680014
5.7544332 -3.9699583 2.8544183 0 0 0 0 15.684961
7.4490056 -3.8637166 3.8386207 0 0 0 0 15.689905
6.8728962 -3.9028864 3.4858284 0 0 0 0 15.694853
6.408926 -3.9211676 3.1905694 0 0 0 0 15.6998
6.0047874 -3.939574 2.9316044 0 0 0 0 15.704748
7.7644987 -3.8125012 3.9720984 0 0 0 0 15.709696
7.2068095 -3.8820393 3.6194232 0 0 0 0 15.714643
6.702117 -3.8925667 3.2959611 0 0 0 0 15.719587
6.2799678 -3.9156485 3.0199137 0 0 0 0 15.724535
8.170228 -3.7899718 4.1530361 0 0 0 0 15.729483
7.5637231 -3.8586104 3.7641242 0 0 0 0 15.73443
7.0330458 -3.8736656 3.4185414 0 0 0 0 15.739378
6.5899491 -3.8983662 3.1243949 0 0 0 0 15.744326
8.5891171 -3.7576711 4.3400254 0 0 0 0 15.749269
7.9417186 -3.8285613 3.9189188 0 0 0 0 15.754217
7.3820281 -3.8500888 3.5492022 0 0 0 0 15.759165
6.8912625 -3.8649061 3.2238178 0 0 0 0 15.764112
9.0568628 -3.7272694 4.5512495 0 0 0 0 15.76906
8.3645134 -3.8043385 4.0939317 0 0 0 0 15.774008
7.745151 -3.8177614 3.6859207 0 0 0 0 15.778952
7.2274003 -3.8370881 3.3384109 0 0 0 0 15.783899
9.5447664 -3.6862237 4.7725577 0 0 0 0 15.788847
8.7431049 -3.7432632 4.2476959 0 0 0 0 15.793795
8.1432133 -3.7850745 3.837805 0 0 0 0 15.798742
7.5984492 -3.8109126 3.4661713 0 0 0 0 15.803686
10.138122 -3.6611321 5.0483847 0 0 0 0 15.808634
9.2180367 -3.7059793 4.4479423 0 0 0 0 15.813581
8.5811853 -3.753119 4.0068789 0 0 0 0 15.818529
8.0034723 -3.782357 3.6100903 0 0 0 0 15.823477
10.747785 -3.6183181 5.3312707 0 0 0 0 15.828424
9.7666702 -3.676055 4.6835461 0 0 0 0 15.833368
9.0214777 -3.7041857 4.1769457 0 0 0 0 15.838316
8.436512 -3.7503085 3.7651374 0 0 0 0 15.843264
11.409513 -3.5664504 5.6383948 0 0 0 0 15.848211
10.304877 -3.6169069 4.915071 0 0 0 0 15.853159
9.5156364 -3.6562405 4.3722692 0 0 0 0 15.858107
8.8570642 -3.6930053 3.9131 0 0 0 0 15.86305
12.151191 -3.5070422 5.9888926 0 0 0 0 15.867998
11.002175 -3.5887122 5.2193832 0 0 0 0 15.872946
10.100434 -3.6179683 4.6080332 0 0 0 0 15.877893
9.3582087 -3.6491919 4.0954576 0 0 0 0 15.882841
12.946004 -3.4345911 6.3646288 0 0 0 0 15.887789
11.753624 -3.5464945 5.5499382 0 0 0 0 15.892733
10.71843 -3.5662897 4.8569398 0 0 0 0 15.89768
9.9460392 -3.6129754 4.3162341 0 0 0 0 15.902628
13.949055 -3.3779838 6.8443732 0 0 0 0 15.907576
12.552372 -3.4831219 5.9036965 0 0 0 0 15.912523
11.456015 -3.5238144 5.1594234 0 0 0 0 15.917467
10.552231 -3.5570765 4.5400777 0 0 0 0 15.922415
15.321594 -3.3582079 7.507916 0 0 0 0 15.927362
13.423251 -3.4050555 6.290782 0 0 0 0 15.93231
12.218069 -3.4537582 5.4739962 0 0 0 0 15.937258
11.234339 -3.4975631 4.7982769 0 0 0 0 15.942205
15.395257 -3.0327802 7.5339069 0 0 0 0 15.664408
14.440291 -3.3279734 6.7464457 0 0 0 0 15.669352
13.07454 -3.3803365 5.829783 0 0 0 0 15.674299
12.000956 -3.4331942 5.092555 0 0 0 0 15.679247
15.369129 -2.6849089 7.5134349 0 0 0 0 15.684195
15.461781 -3.2009175 7.2062788 0 0 0 0 15.689142
14.165809 -3.3176534 6.2890143 0 0 0 0 15.694086
12.912711 -3.3701601 5.4459128 0 0 0 0 15.699034
15.344936 -2.3380723 7.4989748 0 0 0 0 15.703981
15.446874 -2.8422606 7.1818533 0 0 0 0 15.708929
15.474655 -3.2550251 6.8432956 0 0 0 0 15.713877
13.917701 -3.2868447 5.8346992 0 0 0 0 15.718824
15.165318 -1.9783123 7.4087481 0 0 0 0 15.723768
15.416982 -2.4823191 7.1553555 0 0 0 0 15.728716
15.534557 -2.8997815 6.8452387 0 0 0 0 15.733664
15.432593 -3.2630994 6.4400077 0 0 0 0 15.738611
15.027297 -1.6323395 7.3447385 0 0 0 0 15.743559
15.38296 -2.1283011 7.1288438 0 0 0 0 15.748507
15.502885 -2.529808 6.8107247 0 0 0 0 15.75345
15.624981 -2.9233551 6.4896088 0 0 0 0 15.758398
14.982767 -1.301128 7.3281999 0 0 0 0 15.763346
15.139726 -1.7543529 7.0073009 0 0 0 0 15.768293
15.495044 -2.1642811 6.7913327 0 0 0 0 15.773241
15.588586 -2.5402925 6.447062 0 0 0 0 15.778189
14.94709 -0.97508359 7.3187094 0 0 0 0 15.783133
15.084528 -1.407941 6.9796982 0 0 0 0 15.78808
15.219176 -1.7737205 6.6556196 0 0 0 0 15.793028
15.567035 -2.1615076 6.4165936 0 0 0 0 15.797976
14.996051 -0.65662372 7.3546391 0 0 0 0 15.802923
14.999285 -1.0659684 6.9399557 0 0 0 0 15.807867
15.184107 -1.4196883 6.6301093 0 0 0 0 15.812815
15.297358 -1.7590642 6.2859044 0 0 0 0 15.817762
15.078918 -0.3377943 7.4097333 0 0 0 0 15.82271
15.052503 -0.7355898 6.967896 0 0 0 0 15.827658
15.102141 -1.0627755 6.5893722 0 0 0 0 15.832605
15.252549 -1.3928493 6.2513385 0 0 0 0 15.837549
15.095733 -0.40402004 6.9947882 0 0 0 0 15.847445
15.139666 -0.71910179 6.6032267 0 0 0 0 15.852392
15.268454 -1.0337702 6.2470741 0 0 0 0 15.85734
15.147244 -0.37386453 6.6079354 0 0 0 0 15.872179
15.189619 -0.66791552 6.2083483 0 0 0 0 15.877127
15.566444 0.65228206 7.7151489 0 0 0 0 15.882074
15.234358 -0.31137159 6.2232294 0 0 0 0 15.896914
15.646932 0.61986542 7.2904835 0 0 0 0 15.906809
15.832197 0.051860947 6.4687743 0 0 0 0 15.916704
15.735245 0.69034213 6.8897753 0 0 0 0 15.931543
15.831252 0.42427862 6.4724216 0 0 0 0 15.936491
15.748374 0.79422247 6.4456787 0 0 0 0 15.956278
15.803331 1.1706048 6.4805965 0 0 0 0 15.976068
15.826391 1.5515856 6.507359 0 0 0 0 15.995855
15.557225 2.3535488 7.3844409 0 0 0 0 16.005751
15.783384 1.9237911 6.5078125 0 0 0 0 16.015642
15.548832 2.4818244 6.9232302 0 0 0 0 16.030485
15.519101 2.643501 6.4508929 0 0 0 0 16.05522
15.262562 2.9726441 6.3753667 0 0 0 0 16.075006
15.182278 3.3345313 6.3786616 0 0 0 0 16.094793
15.089092 4.2595491 7.9445314 0 0 0 0 16.099741
15.123978 3.6990113 6.3930621 0 0 0 0 16.114584
15.128905 4.0843315 6.4407501 0 0 0 0 16.134371
15.083332 4.4658799 6.4681063 0 0 0 0 16.616079
14.511692 5.1152673 7.8340287 0 0 0 0 16.621027
14.996785 4.8298321 6.4834118 0 0 0 0 16.635866
14.343856 5.4006443 7.8150182 0 0 0 0 16.640814
14.464722 5.265203 7.3126516 0 0 0 0 16.645761
14.624636 5.2061124 6.8844132 0 0 0 0 16.650709
14.955475 5.2139788 6.5249152 0 0 0 0 16.655657
14.184942 5.6838551 7.8020539 0 0 0 0 16.660604
14.395553 5.6008282 7.3470645 0 0 0 0 16.665548
14.471386 5.527236 6.8754478 0 0 0 0 16.670496
14.588505 5.4739132 6.423007 0 0 0 0 16.675444
14.154644 6.0197854 7.8646488 0 0 0 0 16.680391
14.221897 5.8993063 7.334024 0 0 0 0 16.685339
14.456817 5.9038973 6.9390855 0 0 0 0 16.690287
14.535084 5.8542681 6.4664631 0 0 0 0 16.69523
14.115337 6.3558764 7.9262042 0 0 0 0 16.700178
14.270415 6.2908463 7.436945 0 0 0 0 16.705126
14.363859 6.2519479 6.9683852 0 0 0 0 16.710073
14.461593 6.2309809 6.5068326 0 0 0 0 16.715021
14.051977 6.6873922 7.9776545 0 0 0 0 16.719969
14.220483 6.6481328 7.4964385 0 0 0 0 16.724913
14.308262 6.6273408 7.0248404 0 0 0 0 16.72986
14.404186 6.6154065 6.556273 0 0 0 0 16.734808
13.986654 7.022944 8.0340948 0 0 0 0 16.739756
14.128301 6.9871626 7.5337534 0 0 0 0 16.744703
14.318064 7.033577 7.1145768 0 0 0 0 16.749647
14.40527 7.0358005 6.6389599 0 0 0 0 16.754595
14.076417 7.4417677 8.1831932 0 0 0 0 16.759542
14.157028 7.3950648 7.644578 0 0 0 0 16.76449
14.230306 7.3995361 7.1608958 0 0 0 0 16.769438
14.318875 7.4227428 6.6872706 0 0 0 0 16.774385
14.929764 8.6638517 7.177166 0 0 0 0 16.813959
14.838908 9.0888929 7.2444372 0 0 0 0 16.83375
14.757317 9.5327759 7.3247409 0 0 0 0 16.853537
14.722303 10.017846 7.4372325 0 0 0 0 16.873323
14.619735 10.466097 7.5204444 0 0 0 0 16.89311
14.557742 10.954643 7.6328177 0 0 0 0 16.912901
13.486675 10.803813 8.9470539 0 0 0 0 16.937635
13.468947 11.260554 9.0936575 0 0 0 0 16.957422
13.335027 11.635307 9.1737938 0 0 0 0 16.977209
13.289336 12.095538 9.317275 0 0 0 0 16.997
13.711759 13.150693 8.0294743 0 0 0 0 17.011839
13.221627 12.555154 9.4576607 0 0 0 0 17.016787
13.511791 13.037953 9.098649 0 0 0 0 17.021734
13.417317 13.214416 8.5491028 0 0 0 0 17.026682
13.469307 13.552361 8.0921116 0 0 0 0 17.03163
13.1358 13.008081 9.5929728 0 0 0 0 17.036573
13.245093 13.360007 9.1252308 0 0 0 0 17.041521
13.249475 13.65978 8.6500511 0 0 0 0 17.046469
13.338686 14.076099 8.2281799 0 0 0 0 17.051416
13.056308 13.483904 9.7403011 0 0 0 0 17.056364
13.130718 13.840444 9.2603998 0 0 0 0 17.061312
13.183548 14.2344 8.8323812 0 0 0 0 17.066256
13.195116 14.605063 8.3681908 0 0 0 0 17.071203
12.944203 13.938453 9.8746824 0 0 0 0 16.778948
13.059052 14.376265 9.4329071 0 0 0 0 16.783895
13.150459 14.859539 9.0459957 0 0 0 0 16.788839
12.52871 14.072141 9.7816858 0 0 0 0 16.798735
12.963797 14.923425 9.6091003 0 0 0 0 16.803682
13.045857 15.445879 9.2291212 0 0 0 0 16.80863
12.169063 14.264845 9.7359114 0 0 0 0 16.818521
12.884085 15.507319 9.806344 0 0 0 0 16.823469
11.885667 14.542214 9.7494326 0 0 0 0 16.838312
12.766132 16.076885 9.9934263 0 0 0 0 16.84326
11.259739 14.387473 9.4836845 0 0 0 0 16.858099
12.491364 16.462154 10.063921 0 0 0 0 16.863047
12.695654 17.319574 9.8452835 0 0 0 0 16.867994
12.740642 18.013735 9.4830284 0 0 0 0 16.872938
11.499561 15.348829 9.9551468 0 0 0 0 16.877886
11.92458 16.455435 9.9023504 0 0 0 0 16.882833
12.604144 18.047722 10.105393 0 0 0 0 16.887781
12.646328 18.815958 9.7660799 0 0 0 0 16.892729
11.105046 15.491083 9.8912668 0 0 0 0 16.897676
11.759221 17.002806 10.078247 0 0 0 0 16.90262
12.451894 18.729925 10.339262 0 0 0 0 16.907568
12.431988 19.490259 9.9816751 0 0 0 0 16.912516
10.702202 15.613462 9.8203659 0 0 0 0 16.917463
11.504308 17.45072 10.197807 0 0 0 0 16.922411
11.860499 18.757643 10.215571 0 0 0 0 16.927359
11.92767 19.72052 9.9742508 0 0 0 0 16.932302
10.356615 15.820849 9.806675 0 0 0 0 16.93725
10.974982 17.480303 10.0744 0 0 0 0 16.942198
11.237058 18.720882 10.067784 0 0 0 0 16.947145
11.254695 19.655636 9.827261 0 0 0 0 16.952093
9.9402733 15.914426 9.7287426 0 0 0 0 16.957041
10.51288 17.592714 10.00825 0 0 0 0 16.961985
10.678631 18.750973 9.9612541 0 0 0 0 16.966932
10.612853 19.601177 9.6934118 0 0 0 0 16.97188
9.498992 15.947402 9.618742 0 0 0 0 16.976828
10.056846 17.712004 9.9531298 0 0 0 0 16.981775
10.121832 18.760006 9.8537531 0 0 0 0 16.986719
9.9818621 19.539499 9.5646248 0 0 0 0 16.991667
9.0933905 16.027752 9.5448761 0 0 0 0 16.996614
9.5387526 17.698315 9.8278198 0 0 0 0 17.001562
9.5904646 18.799583 9.7713528 0 0 0 0 17.00651
9.3749218 19.483377 9.4479485 0 0 0 0 17.011457
8.7277336 16.17141 9.5111561 0 0 0 0 17.016401
9.046999 17.709154 9.7246189 0 0 0 0 17.021349
9.0212936 18.723761 9.6338615 0 0 0 0 17.026297
8.7849083 19.424934 9.3393564 0 0 0 0 17.031244
7.9334087 15.482244 8.9990406 0 0 0 0 17.036192
8.6003571 17.79421 9.6675787 0 0 0 0 17.04114
8.4911261 18.715256 9.5395098 0 0 0 0 17.046083
8.2129526 19.372154 9.2408495 0 0 0 0 17.051031
7.6452751 15.73055 9.0416126 0 0 0 0 17.055979
7.7179675 16.919518 9.100193 0 0 0 0 17.060926
7.9656849 18.691647 9.4471941 0 0 0 0 17.065874
7.6438885 19.314301 9.1473637 0 0 0 0 17.070822
7.2488666 15.764656 8.964839 0 0 0 0 17.075766
7.3602571 17.135029 9.1314821 0 0 0 0 17.080713
7.4252319 18.604254 9.3288574 0 0 0 0 17.085661
7.3536658 19.953794 9.3906984 0 0 0 0 17.090609
6.8625722 15.807574 8.897109 0 0 0 0 17.095556
6.9360051 17.185623 9.076582 0 0 0 0 17.1005
6.9068918 18.525455 9.2206211 0 0 0 0 17.105448
6.8770056 20.118366 9.4135008 0 0 0 0 17.110395
6.4707527 15.817559 8.8163795 0 0 0 0 17.115343
6.4657583 17.107956 8.9605608 0 0 0 0 17.120291
6.3900919 18.418598 9.1054144 0 0 0 0 17.125238
6.2763925 19.902946 9.2659912 0 0 0 0 17.130182
6.1036301 15.875119 8.7677364 0 0 0 0 17.13513
6.0239911 17.062784 8.8666506 0 0 0 0 17.140078
5.8809643 18.29158 8.9852591 0 0 0 0 17.145025
5.6903195 19.659239 9.1125708 0 0 0 0 17.149973
5.7071447 15.84414 8.6740208 0 0 0 0 17.154921
5.5600791 16.944958 8.7426929 0 0 0 0 17.159864
5.3805933 18.150387 8.8651571 0 0 0 0 17.164812
5.1284695 19.43009 8.9692545 0 0 0 0 17.16976
5.5094523 16.393919 8.9018383 0 0 0 0 17.174707
5.3385429 17.57118 9.0053616 0 0 0 0 17.179655
4.8806844 17.976151 8.7370834 0 0 0 0 17.184603
4.5846467 19.204605 8.8370218 0 0 0 0 17.189547
5.1162143 16.381865 8.8251352 0 0 0 0 17.194494
4.8850856 17.486153 8.9074392 0 0 0 0 17.199442
4.4118071 17.870384 8.6491108 0 0 0 0 17.20439
4.0485892 18.965965 8.7078381 0 0 0 0 17.209337
4.2761097 14.79793 7.9104099 0 0 0 0 17.214281
4.4369087 17.354996 8.7905741 0 0 0 0 17.219229
3.9602146 17.783304 8.5722075 0 0 0 0 17.224176
3.5408635 18.748816 8.5917711 0 0 0 0 17.229124
3.9532576 14.879655 7.8999696 0 0 0 0 17.234072
4.0137358 17.290415 8.7117844 0 0 0 0 17.239019
3.5189412 17.719038 8.5143423 0 0 0 0 17.243963
3.0405123 18.491501 8.4607649 0 0 0 0 17.248911
3.6341491 14.976025 7.9000955 0 0 0 0 17.499907
3.5786424 17.167677 8.6116037 0 0 0 0 17.504854
3.0966351 17.728998 8.4961939 0 0 0 0 17.509798
2.5465736 18.217449 8.3315315 0 0 0 0 17.514746
3.2982228 14.988832 7.8576717 0 0 0 0 17.519693
3.1647079 17.053774 8.5179195 0 0 0 0 17.524641
2.6825469 17.744146 8.4844408 0 0 0 0 17.529589
2.0757565 17.92745 8.1987114 0 0 0 0 17.534536
2.9372652 14.867003 7.7502203 0 0 0 0 17.53948
2.7439735 16.887953 8.4042397 0 0 0 0 17.544428
2.2613804 17.689373 8.4447012 0 0 0 0 17.549376
1.6161144 17.583223 8.0449743 0 0 0 0 17.554323
2.5592999 14.611398 7.577775 0 0 0 0 17.559271
2.3483908 16.799715 8.3336306 0 0 0 0 17.564219
1.8235511 17.458803 8.3249931 0 0 0 0 17.569162
1.1839204 17.467594 8.0022306 0 0 0 0 17.57411
2.4468846 16.005901 8.2655506 0 0 0 0 17.579058
1.9379985 16.592674 8.2120275 0 0 0 0 17.584005
1.3985358 17.216991 8.2063522 0 0 0 0 17.588953
0.77488077 17.561634 8.0604725 0 0 0 0 17.593901
2.0771146 15.900191 8.175065 0 0 0 0 17.598845
1.5516375 16.454231 8.125493 0 0 0 0 17.603792
0.98447669 16.97298 8.0917635 0 0 0 0 17.60874
0.34452569 16.773691 7.7151246 0 0 0 0 17.613688
1.7172486 15.789298 8.0876284 0 0 0 0 17.618635
1.166574 16.269735 8.0209932 0 0 0 0 17.623583
0.56528986 16.119806 7.6874962 0 0 0 0 17.628527
-0.05217642 16.493349 7.6096382 0 0 0 0 17.633474
1.3648612 15.711275 8.0202093 0 0 0 0 17.638422
0.76630139 15.53527 7.6487398 0 0 0 0 17.64337
0.19478942 15.912034 7.5950804 0 0 0 0 17.648317
-0.43301478 16.203718 7.5022287 0 0 0 0 17.653261
1.0109299 15.530227 7.9048452 0 0 0 0 17.658209
0.41559598 15.375171 7.5643811 0 0 0 0 17.663157
-0.16628329 15.663136 7.4855337 0 0 0 0 17.668104
-0.79831302 15.87885 7.3766704 0 0 0 0 17.673052
0.64342773 14.903291 7.5645862 0 0 0 0 17.677999
0.073004439 15.219986 7.4839187 0 0 0 0 17.682943
-0.5194245 15.414021 7.3832436 0 0 0 0 17.687891
-1.1487454 15.549651 7.257452 0 0 0 0 17.692839
0.31664068 14.799783 7.4953032 0 0 0 0 17.697786
-0.26859447 15.001678 7.3806558 0 0 0 0 17.702734
-0.86067683 15.157687 7.2810125 0 0 0 0 17.707682
-1.5378892 15.709313 7.3737321 0 0 0 0 17.712626
-0.0068041449 14.653189 7.4100671 0 0 0 0 17.717573
-0.59583169 14.807124 7.2894416 0 0 0 0 17.722521
-1.1918153 14.909175 7.185823 0 0 0 0 17.727468
-1.8882704 15.518147 7.3254256 0 0 0 0 17.732416
-0.32529119 14.504499 7.327858 0 0 0 0 17.737364
-0.9159953 14.618442 7.2062559 0 0 0 0 17.742308
-1.5659654 15.198616 7.3520818 0 0 0 0 17.747255
-2.2154984 15.203523 7.2233071 0 0 0 0 17.752203
-0.63593036 14.345659 7.242692 0 0 0 0 17.757151
-1.2276559 14.39659 7.1101336 0 0 0 0 17.762098
-1.8843586 14.933855 7.2549648 0 0 0 0 17.767042
-2.5276616 14.892632 7.1242528 0 0 0 0 17.77199
-0.94041294 14.197709 7.1655483 0 0 0 0 17.776937
-1.5870388 14.735785 7.294425 0 0 0 0 17.781885
-2.1945448 14.682949 7.1668763 0 0 0 0 17.786833
-2.8269455 14.57351 7.024262 0 0 0 0 17.79178
-1.2383167 14.021625 7.077455 0 0 0 0 17.796724
-1.8948538 14.50484 7.2003322 0 0 0 0 17.801672
-2.4957228 14.432881 7.0828285 0 0 0 0 17.80662
-3.1159446 14.273211 6.9353042 0 0 0 0 17.811567
-1.5904467 14.376687 7.2647705 0 0 0 0 17.816515
-2.1943333 14.296753 7.1202617 0 0 0 0 17.821463
-2.7881405 14.166648 6.9938321 0 0 0 0 17.826406
-3.3892958 13.948628 6.836432 0 0 0 0 17.831354
-1.8894736 14.194596 7.1826835 0 0 0 0 17.836302
-2.4899948 14.077589 7.0412178 0 0 0 0 17.841249
-3.0678649 13.880183 6.8999057 0 0 0 0 17.846197
-3.6603281 13.646007 6.7525578 0 0 0 0 17.851145
-2.1824949 14.013396 7.1046243 0 0 0 0 17.856089
-2.7707925 13.848158 6.9562473 0 0 0 0 17.861036
-3.3438697 13.641665 6.8289647 0 0 0 0 17.865984
-3.7573037 12.799207 6.3967943 0 0 0 0 17.870932
-2.4693465 13.843084 7.0315862 0 0 0 0 17.875879
-3.0428803 13.599562 6.8663292 0 0 0 0 17.880823
-3.4563053 12.82513 6.468112 0 0 0 0 17.885771
-4.0064216 12.556225 6.3419738 0 0 0 0 17.890718
-2.7411571 13.608482 6.9326591 0 0 0 0 17.895666
-3.1849377 12.871559 6.5322886 0 0 0 0 17.900614
-3.7090623 12.602213 6.4082623 0 0 0 0 17.905561
-4.2312183 12.265804 6.2632918 0 0 0 0 17.910505
-2.9023218 12.935819 6.6084976 0 0 0 0 17.915453
-3.4450002 12.691776 6.4793777 0 0 0 0 17.920401
-3.9451637 12.354994 6.3365021 0 0 0 0 17.925348
-4.4469724 11.978226 6.1886468 0 0 0 0 17.930296
-3.1651516 12.768081 6.5485663 0 0 0 0 17.935244
-3.6877263 12.466673 6.4065733 0 0 0 0 17.940187
-4.169445 12.095565 6.2618012 0 0 0 0 17.945135
-4.6632886 11.719661 6.1279821 0 0 0 0 17.950083
-3.421026 12.597215 6.4886694 0 0 0 0 17.95503
-3.9177911 12.21834 6.3248401 0 0 0 0 17.959978
-4.3664327 11.786649 6.1622505 0 0 0 0 17.964926
-4.9984155 11.753207 6.2276216 0 0 0 0 17.96987
-3.658896 12.388046 6.4090605 0 0 0 0 17.753656
-4.1391854 11.982994 6.2472978 0 0 0 0 17.758604
-4.6504326 11.72655 6.1953015 0 0 0 0 17.763552
-5.0173979 11.081485 5.9501915 0 0 0 0 17.768496
-3.9002059 12.190966 6.3422351 0 0 0 0 17.773443
-4.3618903 11.762587 6.1835709 0 0 0 0 17.778391
-4.9707403 11.7439 6.2739968 0 0 0 0 17.783339
-5.199985 10.80737 5.8866768 0 0 0 0 17.788286
-4.1210713 11.955512 6.256526 0 0 0 0 17.79323
-4.6664958 11.755653 6.2363491 0 0 0 0 17.798178
-4.9696202 11.032468 5.9615669 0 0 0 0 17.803125
-5.3579726 10.504821 5.8082881 0 0 0 0 17.808073
-4.3388524 11.726002 6.176827 0 0 0 0 17.813021
-4.9586363 11.712481 6.2722087 0 0 0 0 17.817968
-5.1529894 10.769361 5.8930421 0 0 0 0 17.822912
-5.5253706 10.241441 5.7488327 0 0 0 0 17.82786
-4.6489792 11.748158 6.2325644 0 0 0 0 17.832808
-4.9669976 11.032219 5.9667153 0 0 0 0 17.837755
-5.3282609 10.512111 5.827549 0 0 0 0 17.842703
-5.6243682 9.8668509 5.6307459 0 0 0 0 17.847651
-4.9566031 11.738245 6.2783384 0 0 0 0 17.852594
-5.1620026 10.791306 5.9021268 0 0 0 0 17.857542
-5.5034385 10.26186 5.7700524 0 0 0 0 17.86249
-5.528636 9.190835 5.3366914 0 0 0 0 17.867437
-4.979466 11.088237 5.9797611 0 0 0 0 17.872385
-5.3459206 10.5552 5.8385835 0 0 0 0 17.877333
-5.6471467 9.973052 5.6887174 0 0 0 0 17.882277
-5.408474 8.5394192 5.0457211 0 0 0 0 17.887224
-5.1809888 10.876431 5.9181266 0 0 0 0 17.892172
-5.5218673 10.316953 5.7760768 0 0 0 0 17.89712
-5.5776401 9.3464966 5.4115157 0 0 0 0 17.902067
-5.3149996 7.9764977 4.7995734 0 0 0 0 17.907011
-5.3736429 10.655466 5.8535371 0 0 0 0 17.911959
-5.6743183 10.043288 5.6956949 0 0 0 0 17.916906
-5.4008002 8.5980844 5.0558472 0 0 0 0 17.921854
-6.2580891 8.9387131 5.4850059 0 0 0 0 17.926802
-5.5593982 10.427375 5.7869835 0 0 0 0 17.931749
-5.5706067 9.357131 5.3766751 0 0 0 0 17.936693
-5.2985086 8.0190077 4.7937455 0 0 0 0 17.941641
-6.1026173 8.3037052 5.1971717 0 0 0 0 17.946589
-5.672781 10.085013 5.6588135 0 0 0 0 17.951536
-5.4162636 8.6411161 5.0348864 0 0 0 0 17.956484
-6.2668915 9.029624 5.4950509 0 0 0 0 17.961432
-6.2913151 8.1567039 5.213553 0 0 0 0 17.966375
-5.5349307 9.3352575 5.2989783 0 0 0 0 17.971323
-6.1558952 9.3437262 5.5283709 0 0 0 0 17.976271
-5.4010158 8.6566067 4.9740739 0 0 0 0 17.991114
-6.245307 9.5219994 5.5460186 0 0 0 0 18.0109
-4.8973145 5.5178514 3.7664142 0 0 0 0 18.02574
-4.709898 5.0684299 3.5415678 0 0 0 0 18.04553
-4.882679 5.5553927 3.7245696 0 0 0 0 18.060369
-4.7222996 4.8524604 3.4777248 0 0 0 0 18.065317
-6.2282605 8.209774 4.9962049 0 0 0 0 18.070265
-4.7465591 5.156858 3.5344713 0 0 0 0 18.080156
-4.6703544 4.5853934 3.3721845 0 0 0 0 18.085104
-4.8714752 5.558969 3.6507328 0 0 0 0 18.094999
-4.7135763 4.8931069 3.4318495 0 0 0 0 18.099947
-4.6211839 4.3333812 3.2746212 0 0 0 0 18.104895
-4.8082809 5.2386875 3.5132754 0 0 0 0 18.114786
-4.6596813 4.6210055 3.3203194 0 0 0 0 18.119734
-4.62813 4.1463351 3.2227795 0 0 0 0 18.124681
-4.8552818 5.5574522 3.5589197 0 0 0 0 18.129629
-4.7132139 4.9058733 3.3609576 0 0 0 0 18.134577
-4.6134782 4.3700442 3.220742 0 0 0 0 18.139521
-4.5805697 3.919363 3.135191 0 0 0 0 18.144468
-4.7812142 5.2259874 3.4105134 0 0 0 0 18.149416
-4.6504679 4.6216211 3.239471 0 0 0 0 18.154364
-4.6125264 4.173861 3.1589384 0 0 0 0 18.159311
-4.5625653 3.7259011 3.0744557 0 0 0 0 18.164255
-4.6624937 4.8667741 3.240309 0 0 0 0 18.169203
-4.6032443 4.3706436 3.1368961 0 0 0 0 18.17415
-4.5738845 3.95204 3.073308 0 0 0 0 18.179098
-4.5493469 3.546524 3.0196908 0 0 0 0 18.184046
-4.6135268 4.5977602 3.1277535 0 0 0 0 18.188993
-4.5963693 4.1673579 3.0671215 0 0 0 0 18.193937
-4.5469489 3.7514255 3.0026138 0 0 0 0 18.198885
-4.6113486 3.4284241 3.0185726 0 0 0 0 18.203833
-4.5653152 4.3447676 3.0221825 0 0 0 0 18.20878
-4.5448656 3.9343214 2.9725504 0 0 0 0 18.213728
-4.5317545 3.5690138 2.9428582 0 0 0 0 18.218676
-4.7595396 3.3747787 3.0750554 0 0 0 0 18.223619
-4.5761132 4.1583681 2.9603393 0 0 0 0 17.924196
-4.5317769 3.7475111 2.9078205 0 0 0 0 17.929144
-4.5770168 3.4402103 2.9258523 0 0 0 0 17.934092
-4.5098395 3.9120581 2.8538489 0 0 0 0 17.943983
-4.5146818 3.5610585 2.8440809 0 0 0 0 17.948931
-4.7252202 3.385607 2.9763253 0 0 0 0 17.953878
-4.496799 3.7216718 2.7870948 0 0 0 0 17.963774
-4.5628247 3.4317315 2.8250268 0 0 0 0 17.968721
-4.7912183 3.2695858 2.9761879 0 0 0 0 17.973665
-4.4896131 3.5413899 2.7273085 0 0 0 0 17.983561
-4.7110009 3.3771188 2.8695011 0 0 0 0 17.988508
-4.5634861 3.4315007 2.721133 0 0 0 0 18.003347
-4.678988 3.3503199 2.7397635 0 0 0 0 18.023138
-0.49252665 0.1887047 0.26667607 0 0 0 0 18.136919
-5.0553389 2.4876306 2.6682007 0 0 0 0 18.161654
-0.4452455 0.19388548 0.22091962 0 0 0 0 18.166601
-0.47752684 0.18342839 0.24580045 0 0 0 0 18.171549
-0.48295951 0.16052012 0.25880128 0 0 0 0 18.176493
-0.44842413 0.18292755 0.21994677 0 0 0 0 18.186388
-0.43727845 0.18772945 0.20401476 0 0 0 0 18.201227
-0.47092959 0.15729457 0.23891161 0 0 0 0 18.211123
-0.4993009 0.14177197 0.2658124 0 0 0 0 18.21607
-0.45777562 0.1620623 0.22098796 0 0 0 0 18.225965
-0.44163465 0.1657808 0.20207724 0 0 0 0 18.240805
-0.48528281 0.13751307 0.24493161 0 0 0 0 18.2507
-0.51565683 0.12202247 0.27282438 0 0 0 0 18.255648
-0.47908708 0.14539666 0.22897704 0 0 0 0 18.265539
-0.4559592 0.14699815 0.20509645 0 0 0 0 18.280382
-0.4986302 0.11771332 0.24995594 0 0 0 0 18.290274
-0.53002757 0.10123898 0.27984545 0 0 0 0 18.295221
-0.46450317 0.11713067 0.21812199 0 0 0 0 18.305117
-0.43738386 0.1176671 0.19225818 0 0 0 0 18.319956
-0.47603294 0.08931452 0.23613396 0 0 0 0 18.329851
-0.52243149 0.075088754 0.27496055 0 0 0 0 18.334799
-0.45087633 0.09188319 0.20926057 0 0 0 0 18.34469
-0.43473127 0.095603459 0.18934923 0 0 0 0 18.359533
-0.48137745 0.068381548 0.23719177 0 0 0 0 18.369429
-0.50979328 0.05085643 0.26809475 0 0 0 0 18.374372
-0.45122963 0.069868974 0.20833926 0 0 0 0 18.384268
-0.43207002 0.07343068 0.18589987 0 0 0 0 18.675322
-0.49073669 0.046387855 0.24269757 0 0 0 0 18.685217
-0.48109606 0.026235146 0.25275698 0 0 0 0 18.690165
-0.43754262 0.047512826 0.20093496 0 0 0 0 18.700056
-0.42640373 0.051320188 0.18200186 0 0 0 0 18.714899
-0.46805447 0.023000252 0.23086897 0 0 0 0 18.724791
-0.45635742 0.0058147418 0.23893458 0 0 0 0 18.729738
-0.43486622 0.026450848 0.19902425 0 0 0 0 18.739634
-0.42773485 0.030323347 0.18207493 0 0 0 0 18.754473
-0.46836787 0.0029854828 0.23094589 0 0 0 0 18.764368
-0.55396765 -0.01762964 0.29662526 0 0 0 0 18.769316
-0.45421723 0.0067439699 0.20902467 0 0 0 0 18.779207
-0.43005225 0.010342658 0.18314335 0 0 0 0 18.79405
-0.48977593 -0.019689763 0.24394034 0 0 0 0 18.803946
-0.55935997 -0.041565984 0.30168509 0 0 0 0 18.808889
-0.4374994 -0.013542914 0.20116915 0 0 0 0 18.818785
-0.43837902 -0.0095419586 0.18718776 0 0 0 0 18.833628
-0.54030836 -0.045899943 0.27382168 0 0 0 0 18.843519
-0.56879693 -0.067437276 0.31073001 0 0 0 0 18.848467
-0.49399987 -0.037657473 0.23102517 0 0 0 0 18.858362
-0.43870884 -0.030554609 0.18826458 0 0 0 0 18.873201
-0.55776697 -0.072643839 0.28483513 0 0 0 0 18.883097
-0.49738589 -0.061623514 0.23509216 0 0 0 0 18.897936
-0.43905249 -0.052567173 0.18934178 0 0 0 0 18.912779
-0.48681402 -0.085796073 0.24918959 0 0 0 0 18.92267
-0.50222683 -0.10454369 0.27914825 0 0 0 0 18.927618
-0.49374318 -0.084701188 0.23618624 0 0 0 0 18.937513
-0.46550846 -0.078165002 0.20431817 0 0 0 0 18.952353
-0.52842212 -0.11815448 0.27611086 0 0 0 0 18.962248
-0.52027839 -0.1153011 0.25216588 0 0 0 0 18.977091
-4.7286835 -1.305506 2.8723574 0 0 0 0 18.986982
-0.46588695 -0.10217741 0.20739642 0 0 0 0 18.99193
-4.6922297 -1.2672554 2.6645181 0 0 0 0 19.001825
-0.54182667 -0.14698102 0.26816612 0 0 0 0 19.016665
-0.48437393 -0.13090447 0.21940637 0 0 0 0 19.031507
-0.53117001 -0.17016995 0.26728752 0 0 0 0 19.056242
-0.51197338 -0.16548964 0.23738436 0 0 0 0 19.071081
-0.50540471 -0.18859506 0.2584646 0 0 0 0 19.095816
-0.51039881 -0.19253361 0.24247196 0 0 0 0 19.110659
-4.1079731 -2.1717124 2.7666159 0 0 0 0 19.505575
-4.0641527 -2.0845923 2.3767569 0 0 0 0 19.515471
-4.039844 -2.1549041 2.5499003 0 0 0 0 19.520418
-4.052134 -2.2546508 2.7639213 0 0 0 0 19.525366
-3.989325 -2.082875 2.1790743 0 0 0 0 19.53031
-3.9983523 -2.1706798 2.3711009 0 0 0 0 19.535257
-3.9557652 -2.2262697 2.5303049 0 0 0 0 19.540205
-3.9315724 -2.3005717 2.7194493 0 0 0 0 19.545153
-3.8952844 -2.1563869 2.1605172 0 0 0 0 19.5501
-3.8476069 -2.2070532 2.315737 0 0 0 0 19.555044
-3.9020059 -2.3131688 2.5336027 0 0 0 0 19.559992
-3.9445245 -2.4234557 2.7675152 0 0 0 0 19.564939
-3.8254659 -2.2415278 2.1548738 0 0 0 0 19.569887
-3.8525627 -2.3320582 2.3558338 0 0 0 0 19.574835
-3.8775983 -2.4186199 2.5567992 0 0 0 0 19.579782
-3.9099569 -2.5200613 2.7847452 0 0 0 0 19.584726
-3.8264387 -2.3685932 2.1919863 0 0 0 0 19.589674
-3.8292317 -2.4424918 2.3800285 0 0 0 0 19.594622
-3.8765152 -2.5417159 2.5969172 0 0 0 0 19.599569
-3.9250395 -2.6509118 2.8388066 0 0 0 0 19.604517
-3.782948 -2.4713299 2.2052519 0 0 0 0 19.609465
-3.8221366 -2.5656774 2.4171684 0 0 0 0 19.614408
-3.8481164 -2.6482244 2.6211278 0 0 0 0 19.619356
-3.907758 -2.7632525 2.871979 0 0 0 0 19.624304
-3.7718887 -2.5975747 2.2404077 0 0 0 0 19.629251
-3.8039737 -2.6860294 2.4493477 0 0 0 0 19.634199
-3.882606 -2.8027802 2.6911285 0 0 0 0 19.639147
-3.7931805 -2.8070636 2.8354781 0 0 0 0 19.644091
-3.7831779 -2.7434814 2.2914901 0 0 0 0 19.649038
-3.8547785 -2.8593397 2.5292969 0 0 0 0 19.653986
-3.8228991 -2.893759 2.6984472 0 0 0 0 19.658934
-3.8226094 -2.9576933 2.9074948 0 0 0 0 19.663881
-3.826021 -2.9209127 2.3664711 0 0 0 0 19.668825
-3.8083351 -2.9651158 2.548573 0 0 0 0 19.673773
-3.701256 -2.9336684 2.6609683 0 0 0 0 19.67872
-3.8085093 -3.0809808 2.9496591 0 0 0 0 19.683668
-3.7188075 -2.9846001 2.3489506 0 0 0 0 19.688616
-3.7507808 -3.0650558 2.5628865 0 0 0 0 19.693563
-3.7908001 -3.1473913 2.7817936 0 0 0 0 19.698507
-3.8228967 -3.2308366 3.017731 0 0 0 0 19.703455
-3.7212265 -3.139637 2.4040692 0 0 0 0 19.708403
-3.7551811 -3.2180626 2.6219966 0 0 0 0 19.71335
-3.7910893 -3.2934594 2.8399153 0 0 0 0 19.718298
-3.8201046 -3.3719513 3.0748615 0 0 0 0 19.723246
-3.7176385 -3.2947626 2.4592094 0 0 0 0 19.728189
-3.7464941 -3.367265 2.6751525 0 0 0 0 19.733137
-3.7864168 -3.4426014 2.8980565 0 0 0 0 19.738085
-3.8224864 -3.5229867 3.1409776 0 0 0 0 19.743032
-3.7131617 -3.4569004 2.5183561 0 0 0 0 19.74798
-3.7409432 -3.5244184 2.7353005 0 0 0 0 19.752928
-3.7798071 -3.5957708 2.9592066 0 0 0 0 19.757872
-3.8239419 -3.6790354 3.2090991 0 0 0 0 19.762819
-3.6996412 -3.617172 2.5755346 0 0 0 0 19.767767
-3.7405615 -3.691493 2.8034341 0 0 0 0 19.772715
-3.7753263 -3.7569072 3.025352 0 0 0 0 19.777662
-3.8184021 -3.8361878 3.2762465 0 0 0 0 19.782606
-3.9285424 -4.0318236 2.8109479 0 0 0 0 19.787554
-3.9562895 -4.0933366 3.0448899 0 0 0 0 19.792501
-4.0062976 -4.1695194 3.2907572 0 0 0 0 19.797449
-4.0473385 -4.2438264 3.5536571 0 0 0 0 19.802397
-3.9256713 -4.2319369 2.8911071 0 0 0 0 19.807344
-3.9584141 -4.2923756 3.12903 0 0 0 0 19.812288
-3.9981623 -4.3527112 3.3689272 0 0 0 0 19.817236
-4.05441 -4.4377918 3.6457765 0 0 0 0 19.822184
-3.9158063 -4.4331527 2.9712918 0 0 0 0 19.827131
-3.9556179 -4.4964857 3.2171905 0 0 0 0 19.832079
-4.008533 -4.5656257 3.4680438 0 0 0 0 19.837027
-4.0443096 -4.6230116 3.7289546 0 0 0 0 19.84197
-3.9214356 -4.6641369 3.0694342 0 0 0 0 19.846918
-3.9437871 -4.6997294 3.3023827 0 0 0 0 19.851866
-3.9884903 -4.7559919 3.54826 0 0 0 0 19.856813
-4.0425062 -4.826107 3.82411 0 0 0 0 19.861761
-3.9109712 -4.890357 3.1646323 0 0 0 0 19.866709
-3.9536281 -4.9426479 3.414515 0 0 0 0 19.871653
-3.9992321 -4.9918971 3.6623852 0 0 0 0 19.8766
-4.0510902 -5.0520449 3.9362383 0 0 0 0 19.881548
-3.9119294 -5.1424065 3.2748008 0 0 0 0 19.886496
-3.9493856 -5.1817741 3.522696 0 0 0 0 19.891443
-3.9907455 -5.2160878 3.7645743 0 0 0 0 19.896387
-4.0425372 -5.2712359 4.0414252 0 0 0 0 19.901335
-3.7237241 -5.1502576 3.2295375 0 0 0 0 19.906282
-3.7548761 -5.1727223 3.4624472 0 0 0 0 19.91123
-3.7992008 -5.2059951 3.6993139 0 0 0 0 19.916178
-3.8487241 -5.2471828 3.9591658 0 0 0 0 19.921125
-3.5108156 -5.1154652 3.1623409 0 0 0 0 19.926069
-3.5479255 -5.1368461 3.3882279 0 0 0 0 19.931017
-3.6074462 -5.182898 3.6280456 0 0 0 0 19.935965
-3.6517282 -5.2111673 3.8739102 0 0 0 0 19.940912
-3.314642 -5.0905442 3.1046016 0 0 0 0 19.709448
-3.3546672 -5.1068716 3.322473 0 0 0 0 19.714396
-3.415107 -5.1478939 3.5532815 0 0 0 0 19.719339
-3.4663696 -5.1750479 3.7921169 0 0 0 0 19.724287
-3.1207809 -5.0575051 3.0453446 0 0 0 0 19.729235
-3.1699257 -5.0816975 3.2641861 0 0 0 0 19.734182
-3.2250648 -5.1068053 3.4780059 0 0 0 0 19.73913
-3.2916119 -5.1517334 3.7227941 0 0 0 0 19.744078
-2.9390721 -5.0322742 2.9950445 0 0 0 0 19.749022
-2.9880712 -5.0494742 3.202883 0 0 0 0 19.753969
-3.0564322 -5.0883865 3.4216607 0 0 0 0 19.758917
-3.1218188 -5.1253366 3.6554489 0 0 0 0 19.763865
-2.7572286 -4.9980373 2.943738 0 0 0 0 19.768812
-2.8225229 -5.0339971 3.1565259 0 0 0 0 19.77376
-2.8866763 -5.0619769 3.3633137 0 0 0 0 19.778704
-2.9487813 -5.0839815 3.5811064 0 0 0 0 19.783651
-2.5937459 -4.9845176 2.9063728 0 0 0 0 19.788599
-2.6537519 -5.0045614 3.1051717 0 0 0 0 19.793547
-2.7249615 -5.0374403 3.3079362 0 0 0 0 19.798494
-2.7931488 -5.0653577 3.5247095 0 0 0 0 19.803438
-2.4311244 -4.9619789 2.8669977 0 0 0 0 19.808386
-2.4920261 -4.9770126 3.057791 0 0 0 0 19.813334
-2.5672665 -5.0128355 3.2575421 0 0 0 0 19.818281
-2.642477 -5.043653 3.469291 0 0 0 0 19.823229
-2.2694275 -4.9344187 2.8266146 0 0 0 0 19.828176
-2.3405135 -4.9613037 3.0203767 0 0 0 0 19.83312
-2.4145615 -4.9871492 3.208127 0 0 0 0 19.838068
-2.4948685 -5.0248952 3.4188612 0 0 0 0 19.843016
-2.1199577 -4.9196692 2.7961917 0 0 0 0 19.847963
-2.192976 -4.9435301 2.9839451 0 0 0 0 19.852911
-2.2679675 -4.9673657 3.1646912 0 0 0 0 19.857859
-2.3511698 -5.0000734 3.3674121 0 0 0 0 19.862803
-1.9693501 -4.8959298 2.7637668 0 0 0 0 19.86775
-2.0442789 -4.9157672 2.9435112 0 0 0 0 19.872698
-2.127418 -4.9494853 3.1252325 0 0 0 0 19.877645
-2.2115452 -4.9791842 3.3199487 0 0 0 0 19.882593
-1.8237215 -4.8701105 2.7333205 0 0 0 0 19.887541
-1.9047579 -4.8978615 2.911047 0 0 0 0 19.892485
-1.990913 -4.9335384 3.0897584 0 0 0 0 19.897432
-2.0739148 -4.9572587 3.2744758 0 0 0 0 19.90238
-1.6821816 -4.8492241 2.7068605 0 0 0 0 19.907328
-1.7640814 -4.8699665 2.8755803 0 0 0 0 19.912275
-1.8532273 -4.9066043 3.0482814 0 0 0 0 19.917219
-1.9464812 -4.9461756 3.2389696 0 0 0 0 19.922167
-1.5457151 -4.8322558 2.6843822 0 0 0 0 19.927114
-1.6316274 -4.8549428 2.8490884 0 0 0 0 19.932062
-1.7216879 -4.8875718 3.0147848 0 0 0 0 19.93701
-1.8158491 -4.9231348 3.1964676 0 0 0 0 19.941957
-1.4121912 -4.8112383 2.6618898 0 0 0 0 19.946901
-1.500102 -4.8348999 2.8225894 0 0 0 0 19.951849
-1.5921242 -4.8665042 2.9822783 0 0 0 0 19.956797
-1.6882471 -4.9010434 3.1579537 0 0 0 0 19.961744
-1.2817914 -4.7971678 2.6453879 0 0 0 0 19.966692
-1.373733 -4.8237739 2.8030746 0 0 0 0 19.97164
-1.4624022 -4.835434 2.945766 0 0 0 0 19.976583
-1.5646968 -4.881886 3.1214254 0 0 0 0 19.981531
-1.1532799 -4.7760649 2.6258743 0 0 0 0 19.986479
-1.2450861 -4.7956781 2.7745581 0 0 0 0 19.991426
-1.3441371 -4.8311868 2.9272239 0 0 0 0 19.996374
-1.4431801 -4.8636923 3.0898886 0 0 0 0 20.001322
-1.0288633 -4.7598953 2.6123469 0 0 0 0 20.006266
-1.1247474 -4.7854519 2.7590191 0 0 0 0 20.011213
-1.2225761 -4.8089852 2.8986838 0 0 0 0 20.016161
-1.3235813 -4.8404665 3.055341 0 0 0 0 20.021109
-0.90756649 -4.7506733 2.6038101 0 0 0 0 20.026056
-1.0064633 -4.7781901 2.7464726 0 0 0 0 20.031
-1.1030742 -4.7897463 2.874136 0 0 0 0 20.035948
-1.2070704 -4.8221898 3.0247834 0 0 0 0 20.040895
-0.78404665 -4.727479 2.589273 0 0 0 0 20.045843
-0.88579029 -4.7469602 2.7219219 0 0 0 0 20.050791
-0.98766667 -4.7754416 2.8555748 0 0 0 0 20.055738
-1.0936394 -4.8078604 3.0002153 0 0 0 0 20.060682
-0.66563195 -4.7102046 2.5797193 0 0 0 0 20.06563
-0.76947147 -4.736659 2.7113645 0 0 0 0 20.070578
-0.87424171 -4.7601032 2.8360047 0 0 0 0 20.075525
-0.98006171 -4.7845302 2.9706421 0 0 0 0 20.080473
-0.54727572 -4.6959233 2.5741656 0 0 0 0 20.085421
-0.65504521 -4.7193255 2.6987953 0 0 0 0 20.090364
-0.76188952 -4.7487435 2.8204315 0 0 0 0 20.095312
-0.87079054 -4.779129 2.9540608 0 0 0 0 20.10026
-0.43191981 -4.6815929 2.5685995 0 0 0 0 20.105207
-0.54157293 -4.6989727 2.6852198 0 0 0 0 20.110155
-0.65053064 -4.7363639 2.8068526 0 0 0 0 20.115103
-0.76130807 -4.7607279 2.9304729 0 0 0 0 20.120047
-0.31753945 -4.6652436 2.5640275 0 0 0 0 20.124994
-0.43025571 -4.6875825 2.6786397 0 0 0 0 20.129942
-0.53994662 -4.7099695 2.786263 0 0 0 0 20.13489
-0.65384799 -4.7432919 2.9088769 0 0 0 0 20.139837
-0.20411676 -4.645875 2.5594499 0 0 0 0 20.144781
-0.31972781 -4.663178 2.6650496 0 0 0 0 20.149729
-0.43162858 -4.6995354 2.775672 0 0 0 0 20.154676
-0.54741031 -4.7268367 2.8892765 0 0 0 0 20.159624
-0.092995085 -4.6444654 2.5668712 0 0 0 0 20.164572
-0.21045476 -4.653748 2.6624606 0 0 0 0 20.169519
-0.32513943 -4.6780715 2.7610679 0 0 0 0 20.174463
-0.44199839 -4.7113605 2.8726718 0 0 0 0 20.179411
0.015888607 -4.6170177 2.559952 0 0 0 0 19.899614
-0.1039129 -4.6472278 2.6625347 0 0 0 0 19.904562
-0.22064479 -4.6744876 2.7581272 0 0 0 0 19.90951
-0.33937961 -4.700717 2.8587124 0 0 0 0 19.914454
0.12609698 -4.6096187 2.5673738 0 0 0 0 19.919401
0.0025339357 -4.6267815 2.6569364 0 0 0 0 19.924349
-0.1151057 -4.6500335 2.7435243 0 0 0 0 19.929296
