# .PCD v0.7 - Point Cloud Data file format
VERSION 0.7
FIELDS x y z normal_x normal_y normal_z intensity curvature
SIZE 4 4 4 4 4 4 4 4
TYPE F F F F F F F F
COUNT 1 1 1 1 1 1 1 1
WIDTH 164
HEIGHT 1
VIEWPOINT 0 0 0 1 0 0 0
POINTS 164
DATA ascii
1.5412756 7.9823008 5.8825746 0 0 0 0 32.351017
1.9261526 7.6224918 5.524147 0 0 0 0 32.355965
1.4884024 7.2123022 5.1930714 0 0 0 0 32.360912
1.1125857 6.9081631 4.9539838 0 0 0 0 32.365856
2.1800928 7.8045664 5.6692362 0 0 0 0 32.370804
1.7222792 7.5414214 5.4240718 0 0 0 0 32.375751
1.2915525 7.0562124 5.0560451 0 0 0 0 32.380699
0.93871367 6.7720885 4.8459663 0 0 0 0 32.385647
1.932291 7.6034408 5.467195 0 0 0 0 32.390594
1.4765167 7.2312651 5.1630945 0 0 0 0 32.395538
1.1046964 6.9031258 4.9250278 0 0 0 0 32.400486
0.77581632 6.6790328 4.7719364 0 0 0 0 32.405434
1.7244164 7.5303693 5.3651161 0 0 0 0 32.410381
1.2756685 7.0751715 5.0200686 0 0 0 0 32.415329
0.92284501 6.7320337 4.7840266 0 0 0 0 32.420277
0.61493981 6.5399594 4.6659355 0 0 0 0 32.42522
1.4686671 7.1921988 5.0781507 0 0 0 0 32.430168
1.0778344 6.8800654 4.8530693 0 0 0 0 32.435116
0.75894845 6.6429753 4.7059965 0 0 0 0 32.440063
0.46205077 6.4178948 4.575933 0 0 0 0 32.445011
1.2837672 7.1491432 5.0060792 0 0 0 0 32.449959
0.8939805 6.714973 4.7110667 0 0 0 0 32.454903
0.59706676 6.5169044 4.603991 0 0 0 0 32.45985
0.31416169 6.2898293 4.4839401 0 0 0 0 32.464798
1.0579938 6.8279862 4.7441311 0 0 0 0 32.469746
0.72608906 6.6199088 4.6220407 0 0 0 0 32.474693
0.44018286 6.3878336 4.5029926 0 0 0 0 32.479637
0.17327321 6.1547618 4.388958 0 0 0 0 32.484585
0.87711853 6.7079082 4.6291099 0 0 0 0 32.489532
0.5602147 6.4788289 4.5050435 0 0 0 0 32.49448
0.28931251 6.2227507 4.3790193 0 0 0 0 32.499428
0.038328841 6.1337376 4.3769226 0 0 0 0 32.504375
0.70124745 6.5708251 4.5051041 0 0 0 0 32.509319
0.40033388 6.3457537 4.3950481 0 0 0 0 32.514267
0.14641744 6.1046867 4.2900295 0 0 0 0 32.519215
-0.093599394 6.0737004 4.3399115 0 0 0 0 32.524162
0.5293771 6.4217401 4.3771095 0 0 0 0 32.52911
0.24647018 6.162663 4.2560854 0 0 0 0 32.534058
0.0094587747 6.1206727 4.2979765 0 0 0 0 32.539001
-0.22150451 5.9606438 4.2659335 0 0 0 0 32.543949
0.36749697 6.2856612 4.2611175 0 0 0 0 32.548897
0.10255704 6.0866113 4.1910758 0 0 0 0 32.553844
-0.12444955 6.0206175 4.2269878 0 0 0 0 32.558792
-0.34843716 5.9026084 4.2339296 0 0 0 0 32.56374
0.21162717 6.114573 4.1261501 0 0 0 0 32.568684
-0.037385203 6.0685825 4.171041 0 0 0 0 32.573631
-0.25535953 5.9185624 4.1570044 0 0 0 0 32.578579
-0.48644918 6.0186377 4.3288326 0 0 0 0 32.583527
0.064682908 6.1105442 4.1071048 0 0 0 0 32.588474
-0.17428988 5.9605222 4.0900574 0 0 0 0 32.593418
-0.38731009 5.9055405 4.1509771 0 0 0 0 32.598366
-0.07922218 6.0084829 4.0241141 0 0 0 0 32.608261
-0.3092159 5.8954782 4.0420551 0 0 0 0 32.613209
-0.524288 5.9535408 4.189919 0 0 0 0 32.618156
-0.21913211 5.9104242 3.9471262 0 0 0 0 32.628048
-0.45421335 5.9984932 4.1109653 0 0 0 0 32.632996
-0.36208522 5.9144011 3.9400876 0 0 0 0 32.647839
-0.50704825 5.9373856 3.9500413 0 0 0 0 32.667625
-1.5498106 5.7962856 4.0419016 0 0 0 0 32.791302
-1.7298856 5.8053651 4.2318292 0 0 0 0 32.796246
-1.6897686 5.7792654 4.0499005 0 0 0 0 32.811089
-3.0348215 4.6732378 4.0776992 0 0 0 0 32.765198
-3.0526879 4.6521182 3.8657513 0 0 0 0 32.780037
-4.3821268 3.5836914 3.4382432 0 0 0 0 32.923222
-4.4402175 3.5898108 3.7022378 0 0 0 0 32.928169
-4.5884337 3.6710916 4.3231826 0 0 0 0 32.938065
-4.8296642 2.5834322 3.2872133 0 0 0 0 33.081528
-4.8727374 2.6205525 3.5592036 0 0 0 0 33.086472
-5.8770804 3.1959538 4.5966568 0 0 0 0 33.091419
-4.8596039 2.4513986 3.2623491 0 0 0 0 33.101315
-4.949687 2.5145309 3.569314 0 0 0 0 33.106262
-4.9417491 2.5456438 3.8183227 0 0 0 0 33.11121
-4.9678278 2.6047797 4.1223083 0 0 0 0 33.116154
-4.9475584 2.3473797 3.2794557 0 0 0 0 33.121101
-4.9446163 2.369489 3.521467 0 0 0 0 33.126049
-4.9386764 2.4056015 3.770472 0 0 0 0 33.130997
-5.0757823 2.5257702 4.1663995 0 0 0 0 33.135944
-5.0555735 2.2784767 3.5585628 0 0 0 0 33.145836
-5.066637 2.3295953 3.8245571 0 0 0 0 33.150784
-4.9646792 2.3386953 4.0306001 0 0 0 0 33.155731
-0.42950562 0.17834182 0.27679896 0 0 0 0 33.160679
-5.1885347 2.1944699 3.6126518 0 0 0 0 33.165627
-5.1715903 2.2385824 3.8616569 0 0 0 0 33.17057
-5.0396256 2.2446771 4.0497084 0 0 0 0 33.175518
-5.1314554 2.0314195 3.5368268 0 0 0 0 33.185413
-5.1735206 2.103545 3.8258042 0 0 0 0 33.190361
-5.1335754 2.1556637 4.0848107 0 0 0 0 33.195309
-0.42547321 0.15332352 0.26887593 0 0 0 0 33.200253
-5.2914758 2.0145364 3.8759029 0 0 0 0 33.210148
-5.2325258 2.0666525 4.1259141 0 0 0 0 33.215096
-0.44446224 0.15232626 0.29891229 0 0 0 0 33.224991
-5.456439 1.9395394 3.961987 0 0 0 0 33.229935
-5.3934875 1.9986569 4.2149954 0 0 0 0 33.234882
-0.42244124 0.12930566 0.26195189 0 0 0 0 33.23983
-5.5803914 1.843532 4.0180926 0 0 0 0 33.249725
-5.4884338 1.901644 4.2541075 0 0 0 0 33.254669
-0.44643071 0.1303096 0.29598659 0 0 0 0 33.264565
-5.7223458 1.7495285 4.0881963 0 0 0 0 33.269512
-5.6533914 1.823649 4.3481979 0 0 0 0 33.27446
-0.41840956 0.10628796 0.25502729 0 0 0 0 33.279408
-5.8103456 1.7386512 4.4362974 0 0 0 0 33.294247
-0.45940074 0.11129504 0.30005753 0 0 0 0 33.304142
-0.43939871 0.11229882 0.30806875 0 0 0 0 33.30909
-5.92729 1.6356425 4.4934139 0 0 0 0 33.314034
-0.40937784 0.083270386 0.24710327 0 0 0 0 33.318981
-5.9982262 1.5176237 4.518548 0 0 0 0 33.333824
-0.4293654 0.083273076 0.27813989 0 0 0 0 33.343716
-0.4473682 0.094284236 0.31114006 0 0 0 0 33.348663
-6.0311561 1.3895963 4.5166931 0 0 0 0 33.353611
-0.38834512 0.059251022 0.23218103 0 0 0 0 33.358559
-6.0540838 1.2575663 4.5068417 0 0 0 0 33.373398
-0.41551852 0.060351741 0.26579857 0 0 0 0 33.123962
-0.46353057 0.075370133 0.31778631 0 0 0 0 33.12891
-6.0797567 1.1278421 4.5017738 0 0 0 0 33.133858
-0.38949671 0.040332034 0.23083885 0 0 0 0 33.138805
-6.1026869 0.99681449 4.4969215 0 0 0 0 33.153645
-0.40948686 0.040334605 0.25987321 0 0 0 0 33.16354
-0.47550097 0.056356661 0.32385692 0 0 0 0 33.168488
-6.1106148 0.86378407 4.4830747 0 0 0 0 33.173435
-0.38746664 0.022316137 0.22791088 0 0 0 0 33.178383
-6.1085405 0.7297523 4.4642301 0 0 0 0 33.193222
-0.39745483 0.020317173 0.25194883 0 0 0 0 33.203117
-0.44646403 0.032333922 0.30193979 0 0 0 0 33.208061
-0.39243785 0.0033023877 0.23098156 0 0 0 0 33.217957
-0.41144481 0.031325981 0.29798812 0 0 0 0 33.2328
-0.40642595 0.0023038336 0.25701845 0 0 0 0 33.242691
-0.42342943 0.011313686 0.28601864 0 0 0 0 33.247639
-0.39740893 -0.014711417 0.2340519 0 0 0 0 33.257534
-0.42241511 0.013312678 0.30405778 0 0 0 0 33.272373
-0.38939378 -0.014714336 0.2460929 0 0 0 0 33.282269
-0.39639515 -0.0057072775 0.26709533 0 0 0 0 33.287216
-0.40738028 -0.034723952 0.24112229 0 0 0 0 33.297108
-0.49339285 -0.0046868161 0.35411707 0 0 0 0 33.311951
-0.43936878 -0.03771966 0.27815771 0 0 0 0 33.321842
-0.47337285 -0.028706878 0.31815583 0 0 0 0 33.32679
-0.40735033 -0.053738285 0.24219419 0 0 0 0 33.336685
-0.49135995 -0.025702924 0.35219204 0 0 0 0 33.351524
-0.43733773 -0.057734452 0.27823097 0 0 0 0 33.36142
-0.47634137 -0.049721085 0.32122952 0 0 0 0 33.366367
-0.41232058 -0.074751362 0.24726616 0 0 0 0 33.376263
-0.48532671 -0.046719473 0.34826738 0 0 0 0 33.391102
-0.40830475 -0.073753916 0.26130578 0 0 0 0 33.400997
-0.47430909 -0.07173612 0.32130432 0 0 0 0 33.405945
-0.4072901 -0.093765624 0.24733853 0 0 0 0 33.415836
-0.48729405 -0.068734184 0.35034186 0 0 0 0 33.430679
-0.45027614 -0.10276013 0.29137725 0 0 0 0 33.440571
-0.43827501 -0.086757556 0.29837942 0 0 0 0 33.445518
-0.41725984 -0.11777758 0.25641128 0 0 0 0 33.455414
-0.5032618 -0.093746088 0.36241627 0 0 0 0 33.470253
-0.44224426 -0.12277518 0.28945076 0 0 0 0 33.480148
-0.45724398 -0.11176777 0.31445259 0 0 0 0 33.485096
-0.41822898 -0.13979037 0.26148412 0 0 0 0 33.494987
-0.43022659 -0.099774957 0.31248936 0 0 0 0 33.50983
-0.45621264 -0.1487862 0.30252498 0 0 0 0 33.519726
-0.48021188 -0.14077736 0.33352789 0 0 0 0 33.52467
-0.44219756 -0.17079939 0.28155947 0 0 0 0 33.534565
-5.3491955 -1.7028835 3.7419751 0 0 0 0 33.54446
-5.5202174 -1.5397785 4.0419149 0 0 0 0 33.549408
-0.48217976 -0.18279493 0.32460254 0 0 0 0 33.559299
-5.2651277 -1.8069092 3.7071047 0 0 0 0 33.564247
-5.4361463 -1.6458088 3.9980474 0 0 0 0 33.569195
-0.44516528 -0.19681132 0.28963423 0 0 0 0 33.574142
-5.1760612 -1.9079354 3.6692312 0 0 0 0 33.584034
-5.3430767 -1.7458403 3.9481754 0 0 0 0 33.588982
