# .PCD v0.7 - Point Cloud Data file format
VERSION 0.7
FIELDS x y z normal_x normal_y normal_z intensity curvature
SIZE 4 4 4 4 4 4 4 4
TYPE F F F F F F F F
COUNT 1 1 1 1 1 1 1 1
WIDTH 484
HEIGHT 1
VIEWPOINT 0 0 0 1 0 0 0
POINTS 484
DATA ascii
9.8909206 8.3921251 9.1570902 0 0 0 0 30.779123
12.721165 7.300519 8.0049028 0 0 0 0 30.784071
12.878002 8.2136889 7.9999428 0 0 0 0 30.789017
13.020811 9.153841 7.9909678 0 0 0 0 30.793964
12.618877 6.7542853 8.1438055 0 0 0 0 30.798912
12.758688 7.7084303 8.1158257 0 0 0 0 30.803858
12.902483 8.647583 8.1278534 0 0 0 0 30.808805
13.059205 9.6387548 8.1508875 0 0 0 0 30.813753
12.650455 7.1351867 8.2337255 0 0 0 0 30.818699
12.796191 8.1323404 8.2347488 0 0 0 0 30.823647
12.947918 9.1115065 8.276782 0 0 0 0 30.828594
13.115548 10.157692 8.3328247 0 0 0 0 30.83354
12.697994 7.5391088 8.34266 0 0 0 0 30.838488
12.824697 8.5612383 8.3546658 0 0 0 0 30.843433
12.991332 9.5944242 8.4317102 0 0 0 0 30.848381
13.14691 10.674595 8.5097408 0 0 0 0 30.853329
12.73753 7.9540191 8.4505882 0 0 0 0 30.858274
12.869162 9.0161562 8.4955978 0 0 0 0 30.863222
13.036726 10.093344 8.6006403 0 0 0 0 30.86817
13.198213 11.231524 8.7096739 0 0 0 0 30.873116
10.901761 7.1514158 7.309926 0 0 0 0 30.878063
13.043406 9.5862465 8.7306395 0 0 0 0 30.883011
13.071116 10.603248 8.7715635 0 0 0 0 30.887957
13.214549 11.779404 8.9015808 0 0 0 0 30.892904
12.848507 8.8468809 8.7124739 0 0 0 0 30.897852
12.973008 9.9930096 8.8114758 0 0 0 0 30.902798
12.975697 11.02798 8.8643799 0 0 0 0 30.907745
12.881486 12.023822 8.8642035 0 0 0 0 30.912693
12.917946 9.3288279 8.8674288 0 0 0 0 30.917639
12.813739 10.342656 8.8392429 0 0 0 0 30.922586
12.598757 11.209343 8.7709732 0 0 0 0 30.927534
12.437636 12.154101 8.7517481 0 0 0 0 30.93248
12.815639 9.695549 8.9112444 0 0 0 0 30.937428
12.430847 10.502013 8.7158346 0 0 0 0 30.942375
12.290705 11.446803 8.7266302 0 0 0 0 30.947321
12.05968 12.336474 8.6873541 0 0 0 0 30.952269
12.562554 9.9590759 8.8539419 0 0 0 0 30.957214
12.129822 10.726486 8.6525021 0 0 0 0 30.962162
11.907799 11.605172 8.631237 0 0 0 0 30.96711
11.652793 12.47882 8.6019478 0 0 0 0 30.972055
12.318457 10.22662 8.8106546 0 0 0 0 30.977003
11.851757 10.971993 8.6091938 0 0 0 0 30.981951
11.565826 11.796603 8.566885 0 0 0 0 30.986897
11.236937 12.60216 8.5095444 0 0 0 0 30.991844
11.982518 10.413052 8.7023001 0 0 0 0 30.996792
11.529779 11.169451 8.5368586 0 0 0 0 31.001738
11.210882 11.971024 8.4965305 0 0 0 0 31.006685
10.830083 12.71852 8.4231567 0 0 0 0 31.011633
11.622624 10.57446 8.5779362 0 0 0 0 31.016579
11.221778 11.378932 8.4765434 0 0 0 0 31.021526
10.846975 12.12144 8.419179 0 0 0 0 31.026474
10.412265 12.811874 8.329772 0 0 0 0 31.03142
11.316647 10.773944 8.4986229 0 0 0 0 31.036367
10.905803 11.571409 8.4142294 0 0 0 0 31.041315
10.496052 12.278879 8.3528461 0 0 0 0 31.046261
10.006446 12.901251 8.2424059 0 0 0 0 31.051208
11.033628 10.996463 8.4383345 0 0 0 0 31.056156
10.59083 11.761894 8.3549252 0 0 0 0 31.061102
10.123183 12.402298 8.2705059 0 0 0 0 31.06605
9.609623 12.988647 8.162056 0 0 0 0 31.070997
10.767591 11.227009 8.3950663 0 0 0 0 31.075943
10.247919 11.913351 8.277607 0 0 0 0 31.080891
9.7603054 12.527738 8.1971807 0 0 0 0 31.085836
9.2118187 13.062052 8.0797129 0 0 0 0 31.090784
10.476596 11.433528 8.3367863 0 0 0 0 31.095732
9.9379492 12.098856 8.2273216 0 0 0 0 31.100677
9.3764811 12.619158 8.1078491 0 0 0 0 31.105625
8.8309889 13.146482 8.012393 0 0 0 0 31.110573
10.166636 11.621032 8.2674999 0 0 0 0 31.115519
9.6100187 12.258345 8.1670303 0 0 0 0 31.120466
9.0315857 12.749633 8.0525551 0 0 0 0 31.125414
8.4691238 13.251945 7.9600949 0 0 0 0 31.13036
9.8866234 11.836577 8.2252426 0 0 0 0 31.135307
9.2611418 12.386814 8.0877333 0 0 0 0 31.140255
8.6707335 12.853096 7.9822574 0 0 0 0 31.145201
8.3406591 13.724691 8.1369696 0 0 0 0 31.150148
9.5766678 12.019092 8.1629705 0 0 0 0 31.155096
8.9292288 12.533311 8.0274544 0 0 0 0 31.160042
8.4206209 13.114697 8.017046 0 0 0 0 31.164989
7.93292 13.751111 8.0476532 0 0 0 0 31.169937
9.2856808 12.217636 8.1197205 0 0 0 0 31.174883
8.578373 12.641791 7.9521713 0 0 0 0 31.179831
8.2233562 13.474364 8.110878 0 0 0 0 31.184778
7.5381765 13.775552 7.9653568 0 0 0 0 31.189724
8.9527817 12.364137 8.042448 0 0 0 0 31.194672
8.4011021 13.009481 8.0410166 0 0 0 0 31.199617
7.8435726 13.531823 8.0305901 0 0 0 0 31.204565
7.1354733 13.769992 7.8730626 0 0 0 0 31.209513
8.6318645 12.518659 7.9791913 0 0 0 0 31.214458
8.1719351 13.317116 8.0918331 0 0 0 0 31.219406
7.4578152 13.568283 7.9443054 0 0 0 0 31.224354
6.7367768 13.756446 7.7817793 0 0 0 0 31.2293
8.4206886 12.835311 8.0240183 0 0 0 0 31.234247
7.810111 13.405602 8.0165644 0 0 0 0 31.239195
7.0740671 13.596752 7.8560314 0 0 0 0 31.244141
6.3460875 13.732915 7.6915097 0 0 0 0 31.249088
8.2568493 13.234809 8.1196585 0 0 0 0 31.836123
7.4607592 13.492128 7.948348 0 0 0 0 31.84107
6.7097712 13.625489 7.7800498 0 0 0 0 31.846018
5.9718208 13.714864 7.6107583 0 0 0 0 31.850964
7.9139867 13.36542 8.0535221 0 0 0 0 31.855911
7.1009421 13.571734 7.8762107 0 0 0 0 31.860859
6.3400054 13.646095 7.7019129 0 0 0 0 31.865805
5.5960956 13.685474 7.5306225 0 0 0 0 31.870752
7.5551548 13.467027 7.9743853 0 0 0 0 31.8757
6.725173 13.602337 7.7850704 0 0 0 0 31.880646
5.9692593 13.64371 7.6177807 0 0 0 0 31.885593
5.2194014 13.622093 7.4374905 0 0 0 0 31.890541
7.2202969 13.589657 7.9182673 0 0 0 0 31.895487
6.3703728 13.658961 7.7169485 0 0 0 0 31.900434
5.5975194 13.632331 7.5316544 0 0 0 0 31.905382
4.8556828 13.577728 7.3583727 0 0 0 0 31.910328
6.8494983 13.655268 7.8281384 0 0 0 0 31.915276
6.003603 13.683584 7.6338263 0 0 0 0 31.920223
5.2297893 13.605962 7.4455357 0 0 0 0 31.925169
4.3314614 13.031268 7.0131531 0 0 0 0 31.930117
6.4916873 13.729897 7.7510223 0 0 0 0 31.935062
5.6408315 13.708219 7.5537133 0 0 0 0 31.94001
4.8740444 13.591609 7.3694291 0 0 0 0 31.944958
4.0007119 13.001944 6.9540625 0 0 0 0 31.949903
6.1258917 13.787525 7.66891 0 0 0 0 31.954851
5.2800679 13.719859 7.4756069 0 0 0 0 31.959799
4.353785 13.073162 7.0282197 0 0 0 0 31.964745
3.660013 12.917621 6.8699689 0 0 0 0 31.969692
5.7730823 13.856171 7.5998106 0 0 0 0 31.97464
4.9173169 13.716508 7.3915057 0 0 0 0 31.979586
4.029006 13.078847 6.9751406 0 0 0 0 31.984533
3.3352771 12.867314 6.806891 0 0 0 0 31.989481
5.41429 13.903817 7.5267143 0 0 0 0 31.994427
4.4000235 13.224072 7.0533061 0 0 0 0 31.999374
3.6902862 13.018531 6.8910556 0 0 0 0 32.004322
3.1231253 13.258073 6.9809055 0 0 0 0 32.00927
5.0535107 13.936471 7.4476237 0 0 0 0 32.014214
4.0672445 13.233758 6.9922309 0 0 0 0 32.019161
3.3645296 12.993229 6.8309855 0 0 0 0 32.024109
2.7854588 13.131772 6.8858275 0 0 0 0 32.029057
4.5271854 13.471039 7.1104298 0 0 0 0 32.034004
3.7284985 13.205446 6.9141555 0 0 0 0 32.038952
3.1443946 13.381987 6.9900036 0 0 0 0 32.043896
2.4687233 13.076488 6.8307695 0 0 0 0 32.048843
4.1794167 13.476719 7.0323548 0 0 0 0 32.053791
3.3917491 13.177143 6.8390875 0 0 0 0 32.058739
2.8116786 13.311692 6.9149394 0 0 0 0 32.063686
2.1480427 12.954211 6.7477093 0 0 0 0 32.068634
3.8316483 13.479406 6.955286 0 0 0 0 32.073578
3.1705906 13.608901 7.0081172 0 0 0 0 32.078526
2.4789751 13.223405 6.8318787 0 0 0 0 32.083473
1.8333743 12.812946 6.6576529 0 0 0 0 32.088421
3.484895 13.460101 6.8752217 0 0 0 0 32.093369
2.832849 13.571608 6.9380617 0 0 0 0 32.098312
2.1582572 13.145132 6.7618289 0 0 0 0 32.10326
1.531648 12.732692 6.6026139 0 0 0 0 32.108208
3.2617073 13.946856 7.0552649 0 0 0 0 32.113155
2.4961164 13.520322 6.8650103 0 0 0 0 32.118103
1.8395535 13.046867 6.6827826 0 0 0 0 32.123051
1.2359413 12.625449 6.5365787 0 0 0 0 32.127995
2.9099531 13.930559 6.9832139 0 0 0 0 32.132942
2.1623988 13.446046 6.7849636 0 0 0 0 32.13789
1.5278336 12.962613 6.6147456 0 0 0 0 32.142838
0.94325846 12.484217 6.4565439 0 0 0 0 32.147785
2.5542414 13.859268 6.8881617 0 0 0 0 32.152733
1.8277005 13.343779 6.695919 0 0 0 0 32.157677
1.2221158 12.870369 6.5487151 0 0 0 0 32.162624
0.65854067 12.379992 6.3985224 0 0 0 0 32.167572
2.2085009 13.817989 6.8141227 0 0 0 0 32.17252
1.5079627 13.284523 6.6318898 0 0 0 0 32.177467
0.92140645 12.763134 6.4776897 0 0 0 0 32.182415
0.37496933 12.087787 6.2484784 0 0 0 0 32.187359
1.8607833 13.743716 6.7270851 0 0 0 0 32.192307
1.1892421 13.199276 6.5598636 0 0 0 0 32.197254
0.62468749 12.662908 6.4126706 0 0 0 0 32.202202
0.10348652 11.672606 6.0354228 0 0 0 0 32.20715
1.5250348 13.703456 6.6630616 0 0 0 0 32.212097
0.87351751 13.114037 6.4918437 0 0 0 0 32.217041
0.32234576 12.07072 6.1035824 0 0 0 0 32.221989
-0.15325573 11.576414 5.9904213 0 0 0 0 32.226936
1.1883087 13.630202 6.587039 0 0 0 0 32.231884
0.56381148 12.999809 6.4128265 0 0 0 0 32.236832
0.047598954 11.987517 6.0555801 0 0 0 0 32.241776
-0.40397575 11.446235 5.9324203 0 0 0 0 32.246723
0.85260791 13.517959 6.4970179 0 0 0 0 32.251671
0.25045174 12.415621 6.1087408 0 0 0 0 32.256618
-0.22012554 11.870328 5.993578 0 0 0 0 32.261566
-0.64868402 11.295066 5.8654213 0 0 0 0 32.266514
0.50624812 12.934751 6.185925 0 0 0 0 32.271458
-0.039287258 12.325417 6.0487399 0 0 0 0 32.276405
-0.48384547 11.741145 5.9295797 0 0 0 0 32.281353
-0.88739103 11.135906 5.7964253 0 0 0 0 32.286301
0.19648525 12.886531 6.1359291 0 0 0 0 32.291248
-0.3220143 12.213223 5.9837427 0 0 0 0 32.296196
-0.74256635 11.607972 5.8645864 0 0 0 0 32.30114
-1.1241471 11.038746 5.7614446 0 0 0 0 32.306087
-0.11477594 12.782654 6.0629544 0 0 0 0 32.053539
-0.60216945 12.088305 5.914741 0 0 0 0 32.058487
-1.035017 11.901969 6.0186071 0 0 0 0 32.063435
-1.3601651 10.926763 5.7194109 0 0 0 0 32.068382
-0.4174661 12.657416 5.9839244 0 0 0 0 32.07333
-0.90823555 12.379045 6.0537643 0 0 0 0 32.078274
-1.283653 11.695783 5.9235902 0 0 0 0 32.083221
-1.5818645 10.775596 5.6614084 0 0 0 0 32.088169
-0.72630984 12.705171 5.9909191 0 0 0 0 32.093117
-1.1879592 12.279831 6.0047541 0 0 0 0 32.098064
-1.4890554 11.21065 5.6895523 0 0 0 0 32.103012
-1.8025886 10.647432 5.6194129 0 0 0 0 32.107956
-1.046261 12.879912 6.0619345 0 0 0 0 32.112904
-1.4586405 12.125631 5.9337435 0 0 0 0 32.117851
-1.7267684 11.075477 5.6365533 0 0 0 0 32.122799
-2.0102706 10.466287 5.5484176 0 0 0 0 32.127747
-1.343944 12.735696 5.9879203 0 0 0 0 32.13269
-1.7283427 11.991438 5.8727403 0 0 0 0 32.137638
-1.9625015 10.959309 5.5955615 0 0 0 0 32.142586
-2.219996 10.330139 5.5054307 0 0 0 0 32.147533
-1.6386386 12.600487 5.9189134 0 0 0 0 32.152481
-1.9789888 11.782267 5.7807364 0 0 0 0 32.157429
-2.1811743 10.765162 5.5165668 0 0 0 0 32.162373
-2.419704 10.168005 5.4504461 0 0 0 0 32.16732
-1.9243237 12.446289 5.8479109 0 0 0 0 32.172268
-2.1653938 11.266165 5.5387077 0 0 0 0 32.177216
-2.408915 10.649007 5.4795837 0 0 0 0 32.182163
-2.6204321 10.025872 5.4064665 0 0 0 0 32.187111
-2.2070231 12.304098 5.784915 0 0 0 0 32.192055
-2.4141312 11.150998 5.4987235 0 0 0 0 32.197002
-2.6246281 10.492867 5.424602 0 0 0 0 32.20195
-2.8101518 9.8677521 5.3564906 0 0 0 0 32.206898
-2.481705 12.13392 5.7109222 0 0 0 0 32.211845
-2.6428189 10.967854 5.4267373 0 0 0 0 32.216793
-2.8393531 10.34673 5.377625 0 0 0 0 32.221737
-2.9978819 9.7176361 5.3125191 0 0 0 0 32.226685
-2.7303293 11.880771 5.6019268 0 0 0 0 32.231632
-2.8755317 10.810709 5.3697577 0 0 0 0 32.23658
-3.0430686 10.182608 5.3236504 0 0 0 0 32.241528
-3.1786029 9.5505295 5.261549 0 0 0 0 32.246475
-2.8977509 11.345697 5.3649077 0 0 0 0 32.251419
-3.1012483 10.651574 5.316783 0 0 0 0 32.256367
-3.2427871 10.016491 5.2696795 0 0 0 0 32.261314
-3.3483222 9.3754339 5.2075825 0 0 0 0 32.266262
-3.1594908 11.224539 5.323935 0 0 0 0 32.27121
-3.3189619 10.483448 5.2598119 0 0 0 0 32.276154
-3.4395182 9.8613787 5.2247138 0 0 0 0 32.281101
-3.5260706 9.2333336 5.1736217 0 0 0 0 32.286049
-3.3971882 11.039404 5.2569609 0 0 0 0 32.290997
-3.5477073 10.352316 5.2248473 0 0 0 0 32.295944
-3.6312497 9.7012739 5.1787515 0 0 0 0 32.300892
-3.758924 9.2311888 5.219677 0 0 0 0 32.305836
-3.6308918 10.855275 5.1949916 0 0 0 0 32.310783
-3.7454059 10.150213 5.1558809 0 0 0 0 32.315731
-3.8159764 9.5281773 5.1277909 0 0 0 0 32.320679
-3.9967809 9.234045 5.2717361 0 0 0 0 32.325626
-3.8646071 10.681151 5.1380272 0 0 0 0 32.330574
-3.9601507 10.007099 5.1199236 0 0 0 0 32.335518
-3.9846935 9.3350964 5.0678315 0 0 0 0 32.340466
-4.159514 9.0609665 5.2267828 0 0 0 0 32.345413
-4.0913267 10.506036 5.0840669 0 0 0 0 32.350361
-4.1608763 9.8299999 5.0689664 0 0 0 0 32.355309
-4.2255316 9.3119583 5.1028934 0 0 0 0 32.360252
-4.3162518 8.8878946 5.1818318 0 0 0 0 32.3652
-4.3080411 10.315931 5.0271091 0 0 0 0 32.370148
-4.3475962 9.6369143 5.0120111 0 0 0 0 32.375095
-4.4944 9.3338041 5.1659632 0 0 0 0 32.380043
-4.4709969 8.7198257 5.1408844 0 0 0 0 32.384991
-4.5267663 10.134828 4.9761558 0 0 0 0 32.389935
-4.5333271 9.4538307 4.9630604 0 0 0 0 32.394882
-4.6681399 9.1617279 5.1250167 0 0 0 0 32.39983
-4.62675 8.5577602 5.1059394 0 0 0 0 32.404778
-4.7314858 9.9377384 4.9202042 0 0 0 0 32.409725
-4.7771373 9.3877068 4.9761257 0 0 0 0 32.414673
-4.8348794 8.9816599 5.0800714 0 0 0 0 32.419617
-4.7785082 8.3976984 5.0729976 0 0 0 0 32.424564
-4.9372177 9.7526503 4.8732576 0 0 0 0 32.429512
-5.069005 9.4105501 5.0432072 0 0 0 0 32.43446
-4.9926162 8.7906008 5.0321279 0 0 0 0 32.439407
-4.914257 8.216651 5.0290561 0 0 0 0 32.444355
-5.121932 9.5315819 4.809309 0 0 0 0 32.449299
-5.253746 9.2284794 5.001266 0 0 0 0 32.454247
-4.6508532 7.7759123 4.5070786 0 0 0 0 32.459194
-4.5795531 7.2899542 4.5230188 0 0 0 0 32.464142
-5.4067664 9.5004425 4.8463898 0 0 0 0 32.46909
-5.4244795 9.02742 4.9513259 0 0 0 0 32.474037
-4.8066435 7.6388531 4.4861412 0 0 0 0 32.478981
-4.6833215 7.1089277 4.4740753 0 0 0 0 32.483929
-5.7326312 9.5222807 4.9134827 0 0 0 0 32.488876
-5.0647345 7.9987397 4.4432688 0 0 0 0 32.493824
-5.4428616 8.2304535 4.9013114 0 0 0 0 32.498772
-5.3055372 7.6865315 4.9102421 0 0 0 0 32.503716
-5.9123564 9.3012266 4.8595452 0 0 0 0 32.508663
-5.3366084 8.006608 4.5103588 0 0 0 0 32.513611
-5.5876212 8.0484114 4.864377 0 0 0 0 32.518559
-5.4303064 7.5124993 4.8723083 0 0 0 0 32.523506
-5.5069356 8.2122822 4.3473616 0 0 0 0 32.334499
-5.9041028 8.4199696 4.8103609 0 0 0 0 32.339447
-5.7227283 7.8580856 4.8213234 0 0 0 0 32.344391
-5.5453763 7.3301983 4.8322892 0 0 0 0 32.349339
-5.7337437 8.1161737 4.3594236 0 0 0 0 32.354286
-6.0638413 8.2299118 4.7754216 0 0 0 0 32.359234
-5.8634782 7.6790376 4.7873855 0 0 0 0 32.364182
-5.6691418 7.1661577 4.8043532 0 0 0 0 32.369125
-5.9685559 8.0240631 4.3744884 0 0 0 0 32.374073
-6.2055693 8.0188684 4.7294836 0 0 0 0 32.379021
-5.9962306 7.4959965 4.7534499 0 0 0 0 32.383968
-5.7869077 6.9971232 4.7744184 0 0 0 0 32.388916
-6.5676751 8.3946972 4.6525922 0 0 0 0 32.393864
-6.3453078 7.8148298 4.6875482 0 0 0 0 32.398808
-6.1339922 7.3209538 4.7265162 0 0 0 0 32.403755
-5.3462515 6.1874948 4.299439 0 0 0 0 32.408703
-6.7404146 8.1926422 4.6186585 0 0 0 0 32.413651
-6.4700422 7.5978031 4.6406136 0 0 0 0 32.418598
-6.2537489 7.1319265 4.6905837 0 0 0 0 32.423546
-5.4600539 6.0494609 4.2855048 0 0 0 0 32.42849
-6.8931484 7.9746032 4.5797257 0 0 0 0 32.433437
-6.6097941 7.4007678 4.6076822 0 0 0 0 32.438385
-6.37151 6.943902 4.6566525 0 0 0 0 32.443333
-5.5808654 5.9194241 4.2765727 0 0 0 0 32.44828
-7.0268769 7.7405791 4.5317945 0 0 0 0 32.453228
-6.7485538 7.2087345 4.5797529 0 0 0 0 32.458172
-5.8648748 6.1093082 4.1826606 0 0 0 0 32.46312
-5.7917376 5.8833265 4.340652 0 0 0 0 32.468067
-6.6102633 6.9309249 4.1418042 0 0 0 0 32.473015
-6.8863192 7.0197048 4.5538259 0 0 0 0 32.477962
-6.0056887 5.9782658 4.1807327 0 0 0 0 32.48291
-6.3277965 6.1570101 4.6417675 0 0 0 0 32.487854
-6.6469765 6.6379628 4.0548639 0 0 0 0 32.492802
-6.3557043 6.1791205 4.0988264 0 0 0 0 32.497749
-6.6908121 6.3678613 4.5538659 0 0 0 0 32.502697
-6.4175797 5.9790049 4.6098394 0 0 0 0 32.507645
-7.4311128 7.0685163 4.4180112 0 0 0 0 32.512589
-7.1038327 6.5896888 4.4759707 0 0 0 0 32.517536
-6.8075967 6.1908436 4.5329413 0 0 0 0 32.522484
-6.5043669 5.8020029 4.5799127 0 0 0 0 32.527431
-7.5528641 6.8385077 4.3800855 0 0 0 0 32.532379
-7.2266083 6.3956742 4.4510474 0 0 0 0 32.537327
-6.9213853 6.0148296 4.5140181 0 0 0 0 32.542271
-6.5961623 5.6319981 4.5569878 0 0 0 0 32.547218
-7.6756253 6.6164989 4.3491621 0 0 0 0 32.552166
-7.3203745 6.1766796 4.4121213 0 0 0 0 32.557114
-7.0351801 5.8418174 4.4980965 0 0 0 0 32.562061
-6.6969666 5.4729896 4.5420656 0 0 0 0 32.567009
-7.7773829 6.3785062 4.3072371 0 0 0 0 32.571953
-7.4321575 5.9796743 4.3891997 0 0 0 0 32.5769
-7.1219649 5.6448236 4.4671721 0 0 0 0 32.581848
-6.7727656 5.2959971 4.5151405 0 0 0 0 32.586796
-7.8981566 6.1615024 4.2833166 0 0 0 0 32.591743
-7.5309391 5.7726784 4.3612771 0 0 0 0 32.596691
-7.2007546 5.4488358 4.4352484 0 0 0 0 32.601635
-6.863575 5.132997 4.498219 0 0 0 0 32.606583
-7.993926 5.9285154 4.248394 0 0 0 0 32.61153
-7.6477332 5.5816736 4.3463588 0 0 0 0 32.616478
-7.2935543 5.2648406 4.4153271 0 0 0 0 32.621426
-6.6892939 4.7791624 4.3132606 0 0 0 0 32.626369
-8.0987053 5.7035246 4.2204738 0 0 0 0 32.631317
-7.7385235 5.3746858 4.3204374 0 0 0 0 32.636265
-7.1552825 4.9219861 4.2583733 0 0 0 0 32.641212
-6.7501092 4.6071801 4.2863355 0 0 0 0 32.64616
-8.205492 5.4855328 4.1995549 0 0 0 0 32.651108
-7.6992779 5.0817752 4.2244978 0 0 0 0 32.656052
-7.158071 4.6900439 4.1924396 0 0 0 0 32.660999
-6.8419366 4.4541812 4.2784142 0 0 0 0 32.665947
-8.2482653 5.2275796 4.1486282 0 0 0 0 32.670895
-7.6030297 4.7668962 4.1055493 0 0 0 0 32.675842
-7.2538924 4.522048 4.1845202 0 0 0 0 32.68079
-6.897759 4.2822037 4.2524896 0 0 0 0 32.685734
-8.0779905 4.845746 3.9956677 0 0 0 0 32.690681
-7.6988444 4.5789061 4.0926304 0 0 0 0 32.695629
-7.3217111 4.3380694 4.1625972 0 0 0 0 32.700577
-6.9575868 4.1152253 4.231566 0 0 0 0 32.705524
-8.1797991 4.640759 3.9827499 0 0 0 0 32.710472
-7.7616558 4.3749356 4.0667071 0 0 0 0 32.715416
-7.3755317 4.1490989 4.1356726 0 0 0 0 32.720364
-7.0244193 3.9512432 4.2156434 0 0 0 0 32.725311
-8.239603 4.4127951 3.9548256 0 0 0 0 32.730259
-7.81847 4.1659689 4.0387826 0 0 0 0 32.735207
-7.441359 3.9681227 4.1177502 0 0 0 0 32.74015
-7.0722523 3.7792728 4.1917176 0 0 0 0 32.745098
-7.4981875 3.7821524 4.0968261 0 0 0 0 32.759941
-7.1270905 3.6122992 4.1727939 0 0 0 0 32.764889
-0.43689325 0.20702752 0.20261054 0 0 0 0 32.769833
-7.5070143 3.5772083 4.0528941 0 0 0 0 32.779728
-7.1829333 3.4483249 4.1588707 0 0 0 0 32.784676
-0.43386033 0.19302276 0.21465059 0 0 0 0 32.794571
-7.17377 3.2553868 4.1089358 0 0 0 0 32.804462
-0.41814941 0.17307135 0.18815158 0 0 0 0 32.513248
-0.46015358 0.1940376 0.24017027 0 0 0 0 32.523144
-0.43312261 0.16905637 0.20819318 0 0 0 0 32.537983
-0.48112771 0.19301838 0.26721284 0 0 0 0 32.547878
-0.44110054 0.15805335 0.19421658 0 0 0 0 32.552826
-0.45509714 0.16803697 0.23323542 0 0 0 0 32.562717
-0.44507131 0.15004507 0.21025829 0 0 0 0 32.57756
-0.47207052 0.16602053 0.25727817 0 0 0 0 32.587452
-0.42304447 0.12905991 0.18328069 0 0 0 0 32.5924
-0.45004237 0.14303626 0.22630022 0 0 0 0 32.602295
-0.42101499 0.12005519 0.19532198 0 0 0 0 32.617134
-0.46001515 0.14002416 0.246343 0 0 0 0 32.627029
-0.41499239 0.10506012 0.17734465 0 0 0 0 32.631977
-0.44598976 0.12003453 0.22136492 0 0 0 0 32.641869
-0.42196459 0.099050157 0.19338629 0 0 0 0 32.656712
-0.4639639 0.12001788 0.24540845 0 0 0 0 32.666607
-0.41294232 0.083056942 0.17340843 0 0 0 0 32.671551
-0.43293783 0.096037954 0.21142881 0 0 0 0 32.681446
-0.41291466 0.07705079 0.18644993 0 0 0 0 32.696289
-0.44291109 0.094025813 0.23147178 0 0 0 0 32.706181
-0.40489322 0.061056364 0.1694717 0 0 0 0 32.711128
-0.42888826 0.075035721 0.20749284 0 0 0 0 32.721024
-0.40886649 0.057048108 0.1835136 0 0 0 0 32.735863
-0.43686154 0.073024914 0.22553577 0 0 0 0 32.745758
-0.40784612 0.04204997 0.16953558 0 0 0 0 32.750706
-0.41883981 0.05403661 0.20055611 0 0 0 0 32.760597
-0.40581921 0.037044913 0.18057686 0 0 0 0 32.77544
-0.4338133 0.053022183 0.22159967 0 0 0 0 32.785332
-0.40379956 0.022047242 0.16659857 0 0 0 0 32.790279
-0.41279256 0.034034897 0.19661923 0 0 0 0 32.800175
-0.40877283 0.018038299 0.18164048 0 0 0 0 32.815014
-0.4267664 0.034021188 0.21666309 0 0 0 0 32.824909
-0.41875306 0.0020348381 0.17266281 0 0 0 0 32.829857
-0.42274624 0.016024912 0.20068383 0 0 0 0 32.839752
-0.41472742 3.040949e-05 0.18370453 0 0 0 0 32.854591
-0.43171978 0.015014035 0.21772723 0 0 0 0 32.864487
-0.41970792 -0.016970688 0.17372614 0 0 0 0 32.869431
-0.42570087 -0.0019811871 0.20074779 0 0 0 0 32.879326
-0.40868279 -0.018971721 0.18076685 0 0 0 0 32.894169
-0.43267432 -0.0029912842 0.21779108 0 0 0 0 32.90406
-0.42766237 -0.03797942 0.17778961 0 0 0 0 32.909008
-0.4246558 -0.020985808 0.20081083 0 0 0 0 32.918903
-0.42763665 -0.039985675 0.18983161 0 0 0 0 32.933743
-0.46262679 -0.023009995 0.23185837 0 0 0 0 32.943638
-0.42561841 -0.057983533 0.1778519 0 0 0 0 32.948586
-0.43960974 -0.041997585 0.20787545 0 0 0 0 32.958477
-0.41459396 -0.057985291 0.1858926 0 0 0 0 32.97332
-0.4495832 -0.042008467 0.2249198 0 0 0 0 32.983215
-0.41863671 -0.077977642 0.17679977 0 0 0 0 32.921917
-0.43162936 -0.060990874 0.20482312 0 0 0 0 32.931808
-0.41461232 -0.077982157 0.18684146 0 0 0 0 32.946651
-0.44860238 -0.062005255 0.22586793 0 0 0 0 32.956543
-0.41459358 -0.097981274 0.17686124 0 0 0 0 32.961491
-0.43058544 -0.080995433 0.20488539 0 0 0 0 32.971386
-0.42756709 -0.10099324 0.1939047 0 0 0 0 32.986225
-0.45155782 -0.083011173 0.22693084 0 0 0 0 32.99612
-0.43154779 -0.123994 0.18592423 0 0 0 0 33.001068
-0.44253993 -0.10400622 0.21294883 0 0 0 0 33.01096
-0.43852171 -0.12600365 0.20196719 0 0 0 0 33.025803
-0.46251228 -0.10602104 0.23399454 0 0 0 0 33.035698
-0.4545002 -0.1550094 0.19998725 0 0 0 0 33.040642
-0.44749576 -0.12701353 0.21701102 0 0 0 0 33.050537
-0.45347616 -0.15301515 0.21103004 0 0 0 0 33.065376
-0.4674679 -0.1290281 0.23805709 0 0 0 0 33.075272
-0.47545311 -0.18702333 0.21305004 0 0 0 0 33.080219
-0.46844891 -0.15602733 0.22907482 0 0 0 0 33.090115
-0.47942781 -0.18703118 0.22709347 0 0 0 0 33.104954
-0.48642087 -0.15804099 0.25012094 0 0 0 0 33.114849
-0.50040448 -0.22503857 0.22911234 0 0 0 0 33.119797
-0.48740193 -0.18704034 0.24213797 0 0 0 0 33.129688
-5.3612695 -2.5719082 2.4996088 0 0 0 0 33.139584
-0.49338183 -0.21904206 0.23815514 0 0 0 0 33.144531
-0.49137688 -0.18404789 0.25518259 0 0 0 0 33.154423
-5.268229 -2.6818483 2.4866257 0 0 0 0 33.15937
-5.4062085 -2.5629237 2.6537168 0 0 0 0 33.164318
-0.50235534 -0.2200516 0.25419977 0 0 0 0 33.169266
-4.9772387 -2.6837165 2.3816216 0 0 0 0 33.179161
-5.3071704 -2.6678612 2.6347325 0 0 0 0 33.184105
-5.520134 -2.5729601 2.8268383 0 0 0 0 33.189053
-0.49833265 -0.21205574 0.26224399 0 0 0 0 33.194
-4.788228 -2.728626 2.3226261 0 0 0 0 33.198948
-5.0671697 -2.6947484 2.5447314 0 0 0 0 33.203896
-5.2971277 -2.6168501 2.7378383 0 0 0 0 33.208839
-5.717042 -2.5910261 3.0419836 0 0 0 0 33.213787
-4.6442099 -2.7935548 2.2856328 0 0 0 0 33.218735
-4.8541679 -2.7266483 2.4667315 0 0 0 0 33.223682
-5.1990938 -2.7157896 2.7138522 0 0 0 0 33.22863
-5.3890629 -2.5878761 2.8899674 0 0 0 0 33.233578
-4.62816 -2.9335318 2.3136492 0 0 0 0 33.238522
-4.6851573 -2.7755678 2.4117346 0 0 0 0 33.243469
-4.9441042 -2.7266738 2.6078451 0 0 0 0 33.248417
-5.3060269 -2.6948199 2.8679821 0 0 0 0 33.253365
-4.6681089 -2.9125443 2.4367514 0 0 0 0 33.26326
-4.7521014 -2.7635849 2.5348434 0 0 0 0 33.268204
-5.0720329 -2.7197108 2.7649748 0 0 0 0 33.273151
-4.580081 -3.0054963 2.4247591 0 0 0 0 33.283047
-4.6900663 -2.8715439 2.5318556 0 0 0 0 33.287994
-4.8700347 -2.7526169 2.6799703 0 0 0 0 33.292942
-4.6140366 -2.9714999 2.5218639 0 0 0 0 33.307781
-4.7120275 -2.8045416 2.6189694 0 0 0 0 33.312729
-4.6899848 -2.934515 2.633985 0 0 0 0 33.332516
-4.2690048 -3.4663427 2.3346741 0 0 0 0 33.337463
-4.6079607 -3.0284696 2.6179905 0 0 0 0 33.352303
-4.1289997 -3.5152874 2.3046684 0 0 0 0 33.35725
-3.5331442 -3.1520841 2.0146377 0 0 0 0 33.377041
