# .PCD v0.7 - Point Cloud Data file format
VERSION 0.7
FIELDS x y z normal_x normal_y normal_z intensity curvature
SIZE 4 4 4 4 4 4 4 4
TYPE F F F F F F F F
COUNT 1 1 1 1 1 1 1 1
WIDTH 946
HEIGHT 1
VIEWPOINT 0 0 0 1 0 0 0
POINTS 946
DATA ascii
0.97411674 -3.0861647 -0.16522716 0 0 0 0 32.284698
0.91314733 -3.0851448 -0.19625333 0 0 0 0 32.28965
0.88416952 -3.2011256 -0.23629788 0 0 0 0 32.294594
1.1061345 -3.0461833 -0.13409491 0 0 0 0 32.299545
1.0511611 -3.0791643 -0.16512847 0 0 0 0 32.304489
0.98619342 -3.0651441 -0.19715267 0 0 0 0 32.309433
0.92922419 -3.082124 -0.23218171 0 0 0 0 32.314384
1.1751783 -3.0201817 -0.1299969 0 0 0 0 32.319328
1.1302048 -3.0761628 -0.16503106 0 0 0 0 32.32428
1.0742365 -3.0891428 -0.20105805 0 0 0 0 32.329224
0.99727273 -3.0461216 -0.23508011 0 0 0 0 32.334167
0.94827706 -2.2801573 -0.096859559 0 0 0 0 32.339119
1.1902517 -3.0221593 -0.16193071 0 0 0 0 32.344063
1.1532817 -3.0821402 -0.20296024 0 0 0 0 32.349014
1.0893171 -3.0791192 -0.24298657 0 0 0 0 32.353958
0.7123605 -1.6081344 -0.066757657 0 0 0 0 32.358902
0.93234372 -2.2161372 -0.1187982 0 0 0 0 32.363853
0.88837099 -2.2171218 -0.1488148 0 0 0 0 32.368797
0.83739895 -2.2031064 -0.17783096 0 0 0 0 32.373749
0.80738598 -1.7151335 -0.069694832 0 0 0 0 32.378693
0.71841407 -1.6041187 -0.086706154 0 0 0 0 32.383644
0.94740957 -2.2131174 -0.15073717 0 0 0 0 32.388588
0.86644059 -2.1281011 -0.17575057 0 0 0 0 32.393532
0.92441112 -1.8531328 -0.07362739 0 0 0 0 32.398483
0.79844344 -1.6791157 -0.090642914 0 0 0 0 32.403427
0.72946942 -1.6021026 -0.11065248 0 0 0 0 32.408379
0.95947689 -2.2050967 -0.18567681 0 0 0 0 32.413322
0.90945166 -1.7251235 -0.067562722 0 0 0 0 32.418266
0.96946788 -1.9221152 -0.10457272 0 0 0 0 32.423218
0.76650327 -1.5840971 -0.11058885 0 0 0 0 32.428162
0.7325266 -1.5820857 -0.13659881 0 0 0 0 32.433113
0.98848236 -1.7751189 -0.067493573 0 0 0 0 32.438057
1.0884991 -2.0391111 -0.1104972 0 0 0 0 32.443008
1.0045297 -1.9570957 -0.13951413 0 0 0 0 32.447952
0.78256065 -1.5910798 -0.14053553 0 0 0 0 32.452896
0.98951948 -1.6841097 -0.0634325 0 0 0 0 32.457848
1.1455359 -2.0321033 -0.11142466 0 0 0 0 32.462791
1.0895656 -2.0070889 -0.1454405 0 0 0 0 32.467743
1.0685948 -2.0490751 -0.18545353 0 0 0 0 32.472687
0.98255491 -1.5891002 -0.05837651 0 0 0 0 32.477631
1.0485768 -1.7640911 -0.097374335 0 0 0 0 32.482582
1.1096026 -1.9350801 -0.14237346 0 0 0 0 32.487526
1.1076328 -2.0080664 -0.18638316 0 0 0 0 32.492477
0.94659013 -1.4560897 -0.052328907 0 0 0 0 32.497421
1.0246118 -1.6380813 -0.090320982 0 0 0 0 32.502365
0.94963765 -1.5700694 -0.11733729 0 0 0 0 32.507317
1.0846683 -1.8610575 -0.17732307 0 0 0 0 32.51226
1.0546201 -1.544083 -0.054255929 0 0 0 0 32.517212
0.96164578 -1.4610709 -0.081278883 0 0 0 0 32.522156
0.98467129 -1.5450605 -0.11827712 0 0 0 0 32.527107
1.1647056 -1.894048 -0.18525031 0 0 0 0 32.532051
1.0726528 -1.498073 -0.052201446 0 0 0 0 32.536995
1.0566787 -1.5270621 -0.086208105 0 0 0 0 32.541946
0.9957037 -1.4860513 -0.11622325 0 0 0 0 32.54689
0.96972972 -1.4960409 -0.1502308 0 0 0 0 32.551842
1.1346844 -1.5090631 -0.0511369 0 0 0 0 32.556786
1.0847104 -1.4930524 -0.084151693 0 0 0 0 32.561729
1.0757375 -1.5270416 -0.12115528 0 0 0 0 32.566681
1.1867738 -1.7410281 -0.1801333 0 0 0 0 32.571625
1.1597161 -1.4720523 -0.049082529 0 0 0 0 32.576576
1.1217425 -1.4720418 -0.084094234 0 0 0 0 32.58152
1.2017745 -1.6240298 -0.13207521 0 0 0 0 32.586464
1.1588036 -1.6160187 -0.17208749 0 0 0 0 32.591415
1.1397465 -1.3810413 -0.045041714 0 0 0 0 32.596359
1.1317735 -1.416031 -0.082044698 0 0 0 0 32.601311
1.210806 -1.5590189 -0.13002384 0 0 0 0 32.606255
1.1938362 -1.5830076 -0.17302887 0 0 0 0 32.611206
1.1617768 -1.34503 -0.042991199 0 0 0 0 32.61615
1.1428037 -1.36402 -0.079996526 0 0 0 0 32.621094
1.241838 -1.5240071 -0.12996815 0 0 0 0 32.626045
1.1638632 -1.4709983 -0.16498965 0 0 0 0 32.630989
1.1908066 -1.3160181 -0.040939368 0 0 0 0 32.635941
1.1808344 -1.3460081 -0.079941981 0 0 0 0 32.640884
1.1928639 -1.3959975 -0.12193698 0 0 0 0 32.645828
1.1828936 -1.4239873 -0.16493891 0 0 0 0 32.65078
2.7328908 -2.887969 -0.088415593 0 0 0 0 32.655724
2.6579442 -2.8929496 -0.17444521 0 0 0 0 32.660675
1.2098935 -1.3519859 -0.120889 0 0 0 0 32.665619
1.2309262 -1.4129744 -0.16888103 0 0 0 0 32.67057
2.887934 -2.9179416 -0.088310972 0 0 0 0 32.675514
2.7849877 -2.8949237 -0.17734931 0 0 0 0 32.680458
1.5959516 -1.7019571 -0.15572628 0 0 0 0 32.68541
1.3039608 -1.4269598 -0.17581594 0 0 0 0 32.690353
3.0659566 -2.9609239 -0.088214986 0 0 0 0 32.685387
2.9520118 -2.9309061 -0.18225749 0 0 0 0 32.690338
1.54696 -1.5739529 -0.14771391 0 0 0 0 32.695282
1.3959817 -1.4569491 -0.1847606 0 0 0 0 32.700233
3.7430246 -3.4558706 -0.10093462 0 0 0 0 32.705177
1.5119512 -1.4339526 -0.090686187 0 0 0 0 32.710121
1.3519713 -1.3119503 -0.12673657 0 0 0 0 32.715073
1.3560046 -1.3489394 -0.17773257 0 0 0 0 32.720016
3.9000697 -3.4408329 -0.098827228 0 0 0 0 32.724968
1.5299801 -1.3859378 -0.089640796 0 0 0 0 32.729912
1.3820004 -1.2799361 -0.12768781 0 0 0 0 32.734863
1.4010352 -1.3289245 -0.18067829 0 0 0 0 32.739807
4.0641146 -3.4257927 -0.096719131 0 0 0 0 32.744751
1.5490078 -1.3389227 -0.087596148 0 0 0 0 32.749702
1.4200296 -1.2559211 -0.1286374 0 0 0 0 32.754646
1.4470655 -1.3089091 -0.18362458 0 0 0 0 32.759598
4.2361593 -3.410749 -0.094610013 0 0 0 0 32.764542
1.5360328 -1.2679095 -0.084564157 0 0 0 0 32.769485
1.4580582 -1.2289053 -0.12958761 0 0 0 0 32.774437
1.4470905 -1.2488965 -0.18158782 0 0 0 0 32.779381
2.1560643 -1.6578614 -0.045310196 0 0 0 0 32.784332
2.0070956 -1.5818596 -0.10836127 0 0 0 0 32.789276
1.5700939 -1.261883 -0.13751267 0 0 0 0 32.79422
1.4571158 -1.197883 -0.18054864 0 0 0 0 32.799171
2.14309 -1.5728433 -0.042279251 0 0 0 0 32.804115
2.1171308 -1.5918329 -0.11228609 0 0 0 0 32.809067
1.648126 -1.2638624 -0.14245044 0 0 0 0 32.814011
1.4321364 -1.1208727 -0.17552309 0 0 0 0 32.818962
2.1421156 -1.4998244 -0.039245553 0 0 0 0 32.823906
2.1271565 -1.5228138 -0.11024784 0 0 0 0 32.82885
1.6541505 -1.2068472 -0.14141463 0 0 0 0 32.833801
1.4381601 -1.0718595 -0.17448783 0 0 0 0 32.838745
2.1411407 -1.4288055 -0.037213281 0 0 0 0 32.843697
2.1261809 -1.4497955 -0.10821523 0 0 0 0 32.84864
1.6521734 -1.1478328 -0.13938311 0 0 0 0 32.853584
1.4411829 -1.0208465 -0.1734546 0 0 0 0 32.858536
2.1501656 -1.3647854 -0.035178605 0 0 0 0 32.86348
2.1332049 -1.3847764 -0.10618117 0 0 0 0 32.868431
1.6571966 -1.0948176 -0.13835013 0 0 0 0 32.873375
1.4442053 -0.97283334 -0.1724225 0 0 0 0 32.878326
5.492424 -3.3174088 -0.084920473 0 0 0 0 32.88327
2.1602302 -1.3327549 -0.10514105 0 0 0 0 32.888214
1.6662195 -1.0458019 -0.13731676 0 0 0 0 32.893166
1.449227 -0.92581999 -0.17139055 0 0 0 0 32.898109
5.7454672 -3.298336 -0.083799183 0 0 0 0 32.903061
5.6525564 -3.3113227 -0.27183384 0 0 0 0 32.908005
1.6682411 -0.99378693 -0.13628702 0 0 0 0 32.912949
1.4562485 -0.8828063 -0.1703589 0 0 0 0 32.9179
6.0245109 -3.2812562 -0.082671642 0 0 0 0 32.922844
5.6135745 -3.1192839 -0.26582241 0 0 0 0 32.927795
1.6682618 -0.9417721 -0.13425897 0 0 0 0 32.932739
1.4522687 -0.83379388 -0.1693321 0 0 0 0 32.937683
6.3155527 -3.2591703 -0.081543505 0 0 0 0 32.942635
5.6285954 -2.9602385 -0.26179421 0 0 0 0 32.947578
1.6422794 -0.87676078 -0.13124131 0 0 0 0 32.95253
1.4612895 -0.79277968 -0.16930142 0 0 0 0 32.957474
1.9752632 -0.96371269 -0.023104744 0 0 0 0 32.962425
1.9712981 -0.97970605 -0.090101242 0 0 0 0 32.967369
1.9733324 -0.99469888 -0.15609534 0 0 0 0 32.972313
1.4633092 -0.74876642 -0.1682741 0 0 0 0 32.977264
1.9362807 -0.89070016 -0.022094315 0 0 0 0 32.982208
1.9313142 -0.90469438 -0.087091036 0 0 0 0 32.98716
1.9383477 -0.92068714 -0.15208326 0 0 0 0 32.992104
1.9313818 -0.93168205 -0.22108053 0 0 0 0 32.997047
1.9022979 -0.82468748 -0.020082882 0 0 0 0 33.001999
1.8973302 -0.83668238 -0.084079489 0 0 0 0 33.006943
1.894362 -0.84667724 -0.14807525 0 0 0 0 33.011894
1.8943948 -0.8576718 -0.21506989 0 0 0 0 33.016838
1.8823158 -0.76667303 -0.019067146 0 0 0 0 33.021782
1.8653462 -0.77267045 -0.082067937 0 0 0 0 33.026733
1.8633766 -0.7816658 -0.14406329 0 0 0 0 33.031677
1.8604082 -0.79066157 -0.21005896 0 0 0 0 33.036629
1.880365 -0.72865111 -0.081040516 0 0 0 0 33.046524
1.8653939 -0.73164916 -0.14304045 0 0 0 0 33.051468
1.8544241 -0.7356469 -0.20903893 0 0 0 0 33.056412
5.7856898 -2.0939481 -0.24966332 0 0 0 0 33.066307
4.8986878 -1.7900951 -0.37596914 0 0 0 0 33.071259
4.2316895 -1.5642064 -0.47519714 0 0 0 0 33.076202
4.9076967 -1.6650561 -0.37495935 0 0 0 0 33.091042
4.2456985 -1.4531722 -0.47518277 0 0 0 0 33.095993
4.8987017 -1.5340204 -0.37195787 0 0 0 0 33.110832
4.2457051 -1.3411407 -0.47417516 0 0 0 0 33.115776
4.9457102 -1.4219737 -0.37393984 0 0 0 0 33.130623
4.2517109 -1.232108 -0.47316739 0 0 0 0 33.135567
5.8167109 -1.5217612 -0.24265625 0 0 0 0 33.145462
4.9657149 -1.303932 -0.37393317 0 0 0 0 33.150406
4.2627158 -1.1250741 -0.47315994 0 0 0 0 33.155357
4.9460859 -1.1777608 -0.37200671 0 0 0 0 32.717201
4.264133 -1.0177668 -0.47230524 0 0 0 0 32.722145
4.951107 -1.0557231 -0.37098446 0 0 0 0 32.736992
4.2881541 -0.9157337 -0.47427356 0 0 0 0 32.741936
4.9661269 -0.93968445 -0.37096056 0 0 0 0 32.756775
4.3001738 -0.81270105 -0.47524935 0 0 0 0 32.761726
5.8031526 -0.29339352 -0.23555359 0 0 0 0 32.87056
5.8791623 -0.16333966 -0.23952375 0 0 0 0 32.890343
5.8451667 -0.028297774 -0.23854135 0 0 0 0 32.910133
5.8211699 0.10474484 -0.2375569 0 0 0 0 32.929924
5.8031712 0.23678793 -0.23757209 0 0 0 0 32.949707
5.7671647 0.63191837 -0.23962305 0 0 0 0 33.009071
5.7471585 0.76396024 -0.24064708 0 0 0 0 33.028862
5.6941504 0.88899612 -0.23968473 0 0 0 0 33.048653
5.6901407 1.0230398 -0.24170686 0 0 0 0 33.068436
5.6790557 1.2311192 -0.04375181 0 0 0 0 33.103065
5.3150582 1.2760934 -0.042894572 0 0 0 0 33.122856
4.5651374 1.1479502 -0.19913873 0 0 0 0 33.1278
4.1461911 1.0938711 -0.3242754 0 0 0 0 33.132751
4.0192351 1.1098485 -0.46331927 0 0 0 0 33.137695
4.3211365 1.1919363 -0.19023181 0 0 0 0 33.147591
3.8501914 1.111842 -0.30337995 0 0 0 0 33.152534
3.4712381 1.0477657 -0.40149793 0 0 0 0 33.157486
5.641058 1.696251 -0.25186014 0 0 0 0 33.167381
3.693188 1.1618387 -0.29243934 0 0 0 0 33.172325
3.2502375 1.0667448 -0.37857181 0 0 0 0 33.177269
4.7640309 1.6215751 -0.38086486 0 0 0 0 32.904121
3.1830864 1.1304008 -0.37354091 0 0 0 0 32.909065
4.7490234 1.7406095 -0.38288358 0 0 0 0 32.923904
4.1210861 1.5765471 -0.4871473 0 0 0 0 32.928856
4.7390141 1.8646445 -0.38590196 0 0 0 0 32.943695
4.1060786 1.6835756 -0.4881627 0 0 0 0 32.948639
4.715003 1.9836773 -0.38692781 0 0 0 0 32.963478
4.0830698 1.7906028 -0.49018273 0 0 0 0 32.96843
4.6969895 2.1077106 -0.38995299 0 0 0 0 32.983269
4.0660586 1.9006306 -0.49220192 0 0 0 0 32.98822
4.6689744 2.2287419 -0.39198378 0 0 0 0 33.003059
4.0550451 2.0156591 -0.49522045 0 0 0 0 33.008003
4.6589561 2.3587759 -0.39500958 0 0 0 0 33.022842
4.0370302 2.1296859 -0.49724329 0 0 0 0 33.027794
4.6349373 2.4838073 -0.39804244 0 0 0 0 33.042633
4.0130138 2.2407117 -0.49926993 0 0 0 0 33.047577
7.0446296 3.6792347 -0.1032049 0 0 0 0 33.052528
4.6309133 2.6248417 -0.40207016 0 0 0 0 33.062424
3.989995 2.3537371 -0.50129789 0 0 0 0 33.067368
6.9705954 3.8412774 -0.1082852 0 0 0 0 33.072319
4.5908909 2.7448692 -0.40411228 0 0 0 0 33.082207
3.9869728 2.4837658 -0.50632077 0 0 0 0 33.087158
6.9645514 4.0423312 -0.11434481 0 0 0 0 33.092102
4.5588651 2.8738978 -0.4071534 0 0 0 0 33.101997
3.9549506 2.5967889 -0.50835508 0 0 0 0 33.106941
6.9335055 4.2363806 -0.12041588 0 0 0 0 33.111893
4.9517632 3.1530037 -0.27005321 0 0 0 0 33.116837
4.69382 3.1139584 -0.42514473 0 0 0 0 33.121788
3.935925 2.7208142 -0.51138705 0 0 0 0 33.126732
4.8487396 3.2460215 -0.27012348 0 0 0 0 33.136627
4.604794 3.2119756 -0.42320856 0 0 0 0 33.141571
3.9988878 2.9088554 -0.52639723 0 0 0 0 33.146523
4.5367427 3.1899941 -0.2582531 0 0 0 0 33.156418
4.4177794 3.238971 -0.41330013 0 0 0 0 33.161362
4.0568466 3.1008961 -0.54141325 0 0 0 0 33.166306
4.842639 3.4260945 -0.10019394 0 0 0 0 33.171257
4.3027387 3.1759791 -0.25135544 0 0 0 0 33.176201
4.0717878 3.1339297 -0.38643089 0 0 0 0 33.181152
3.9078281 3.1388936 -0.52848756 0 0 0 0 33.186096
4.0957332 3.1709669 -0.24444664 0 0 0 0 33.195992
3.8497839 3.1089113 -0.37252286 0 0 0 0 33.200935
3.6698244 3.0958691 -0.50358152 0 0 0 0 33.205887
4.7965746 3.8931589 -0.29431921 0 0 0 0 33.215782
3.6457794 3.0898936 -0.3586064 0 0 0 0 33.220726
3.455821 3.058847 -0.48166484 0 0 0 0 33.22567
4.8125191 4.0931993 -0.30336925 0 0 0 0 33.235565
3.4897695 3.1008842 -0.34967542 0 0 0 0 33.240517
3.2758143 3.0438297 -0.46373656 0 0 0 0 33.245461
4.8244562 4.1112447 -0.12739831 0 0 0 0 33.250404
4.8024631 4.2802334 -0.31142905 0 0 0 0 33.255356
3.3577566 3.1268787 -0.34373704 0 0 0 0 33.2603
3.116807 3.0368152 -0.44880041 0 0 0 0 33.265251
4.8184009 4.2952814 -0.13545814 0 0 0 0 33.270195
4.7724071 4.4532623 -0.31849596 0 0 0 0 33.275139
2.9997919 3.065809 -0.43985417 0 0 0 0 33.285034
4.7723494 4.4533076 -0.142529 0 0 0 0 33.289986
4.7623425 4.6522956 -0.32756281 0 0 0 0 33.29493
2.8667822 3.0717971 -0.42790839 0 0 0 0 33.304825
4.7442904 4.6303372 -0.1505993 0 0 0 0 33.309769
4.7032843 4.8123155 -0.33364114 0 0 0 0 33.31472
4.7122283 4.8103652 -0.1596736 0 0 0 0 33.329559
4.672215 5.0043421 -0.34171814 0 0 0 0 33.334503
4.6711626 4.9913902 -0.1677528 0 0 0 0 33.34935
4.6211462 5.1863623 -0.34980157 0 0 0 0 33.354294
4.62011 5.4433475 -0.53084731 0 0 0 0 33.359245
4.6036263 5.1513243 -0.17705394 0 0 0 0 33.862762
4.5605283 5.3632493 -0.35814235 0 0 0 0 33.867714
4.5705104 5.3503408 -0.18717495 0 0 0 0 33.882553
4.5543842 5.6142764 -0.37128258 0 0 0 0 33.887497
4.5533743 5.5843644 -0.19931099 0 0 0 0 33.902344
4.5152512 5.8342876 -0.38141692 0 0 0 0 33.907288
4.5112462 5.7953758 -0.21044296 0 0 0 0 33.922127
4.4491258 6.0322857 -0.39054695 0 0 0 0 33.927078
4.4391303 5.9753704 -0.22056687 0 0 0 0 33.941917
4.3590097 6.2052703 -0.39867038 0 0 0 0 33.946861
4.3660059 6.1663637 -0.2316971 0 0 0 0 33.961708
4.2668886 6.3832521 -0.40679744 0 0 0 0 33.966652
4.1877537 6.6311517 -0.57691032 0 0 0 0 33.971596
4.2998672 6.3783584 -0.24383779 0 0 0 0 33.981491
4.1817555 6.5782356 -0.41593295 0 0 0 0 33.986443
4.0576444 6.7751122 -0.57902735 0 0 0 0 33.991386
4.1967521 6.5403328 -0.25496089 0 0 0 0 34.001282
4.0626416 6.7322006 -0.42305377 0 0 0 0 34.006226
3.9325285 6.9270725 -0.5831483 0 0 0 0 34.011177
4.1206074 6.7523193 -0.26810619 0 0 0 0 34.021072
3.9405274 6.8821621 -0.43017381 0 0 0 0 34.026016
3.7984138 7.0730267 -0.58526731 0 0 0 0 34.03096
3.9885006 6.8882751 -0.27822104 0 0 0 0 34.040855
3.8214035 7.0451226 -0.43830025 0 0 0 0 34.045807
3.6822741 7.2589869 -0.59240437 0 0 0 0 34.050751
3.8743746 7.0552373 -0.29035008 0 0 0 0 34.060646
3.686286 7.1920724 -0.44542038 0 0 0 0 34.06559
3.5321655 7.3849282 -0.59351587 0 0 0 0 34.070541
3.3440681 7.5337601 -0.75059146 0 0 0 0 34.075485
3.7352672 7.184185 -0.30046284 0 0 0 0 34.080429
3.5571589 7.3520236 -0.45354703 0 0 0 0 34.085381
3.3580801 7.466856 -0.59160697 0 0 0 0 34.090324
3.175966 7.6406889 -0.74569374 0 0 0 0 34.095276
3.4030523 7.4719586 -0.45965555 0 0 0 0 34.105171
3.2319291 7.6598034 -0.59974921 0 0 0 0 34.110115
2.9968793 7.7186098 -0.73878169 0 0 0 0 34.115059
3.2249758 7.5368791 -0.46273747 0 0 0 0 34.124954
3.0338709 7.6897135 -0.59381425 0 0 0 0 34.129906
2.8397574 7.8545389 -0.73689646 0 0 0 0 34.13485
4.1168213 9.4584417 -0.4187223 0 0 0 0 34.139793
3.0698609 7.6648088 -0.46984866 0 0 0 0 34.144745
2.8697634 7.8016376 -0.5949173 0 0 0 0 34.149689
3.8847356 9.5123301 -0.42881685 0 0 0 0 34.159584
2.9137459 7.7897348 -0.47695825 0 0 0 0 34.164528
2.6996598 7.9045548 -0.59601521 0 0 0 0 34.169479
2.5254765 8.1773863 -0.73915046 0 0 0 0 34.174423
3.6835978 9.6502314 -0.44295156 0 0 0 0 34.179375
2.7596185 7.9316592 -0.48507613 0 0 0 0 34.184319
2.5395293 8.0484753 -0.60013312 0 0 0 0 34.18927
2.3393803 8.2602921 -0.73323774 0 0 0 0 34.194214
3.475467 9.7731247 -0.4570778 0 0 0 0 34.199158
2.3714092 8.1723871 -0.60324061 0 0 0 0 34.209053
2.1472921 8.3291931 -0.72531623 0 0 0 0 34.214005
3.2733209 9.9170179 -0.47321412 0 0 0 0 34.218948
2.1962876 8.2952938 -0.60534662 0 0 0 0 34.228844
1.9671661 8.4560957 -0.7234236 0 0 0 0 34.233788
3.0631757 10.055903 -0.48834676 0 0 0 0 34.238739
2.7730474 10.217656 -0.627424 0 0 0 0 34.243683
2.0281439 8.450201 -0.61146933 0 0 0 0 34.248634
1.7830477 8.5679941 -0.72052234 0 0 0 0 34.253578
2.8380501 10.159777 -0.50245911 0 0 0 0 34.258522
2.5449233 10.316526 -0.63453257 0 0 0 0 34.263474
1.866954 8.6731062 -0.6216284 0 0 0 0 34.268417
1.5939318 8.6738863 -0.71661669 0 0 0 0 34.273369
2.6318791 10.331656 -0.52060771 0 0 0 0 34.278313
2.3207788 10.444396 -0.64365524 0 0 0 0 34.283257
2.0206666 10.577149 -0.75171399 0 0 0 0 34.288208
1.402801 8.7997723 -0.71472055 0 0 0 0 34.293152
2.4157174 10.484525 -0.53874499 0 0 0 0 34.298103
2.0856476 10.549255 -0.65076333 0 0 0 0 34.303047
1.7785542 10.651004 -0.75080323 0 0 0 0 34.307991
1.8495255 10.637109 -0.65886033 0 0 0 0 34.322838
1.5374207 10.754855 -0.75190687 0 0 0 0 34.327782
1.6152298 10.75883 -0.66799486 0 0 0 0 34.083923
1.2991362 10.890615 -0.75506252 0 0 0 0 34.088867
0.96606934 10.973385 -0.84810728 0 0 0 0 34.093811
1.0500131 10.988478 -0.75617135 0 0 0 0 34.108658
1.0964689 17.06926 -1.2989602 0 0 0 0 34.113602
1.0696585 14.896373 -1.0200495 0 0 0 0 34.128441
0.45878422 11.229099 -0.84034628 0 0 0 0 34.133392
1.7043374 15.372817 -0.86835545 0 0 0 0 34.138336
0.7956593 16.414169 -1.1168554 0 0 0 0 34.148232
0.28265929 16.358822 -1.2068309 0 0 0 0 34.153175
1.3243759 15.1366 -0.87133723 0 0 0 0 34.158127
0.94322151 17.013277 -1.0772375 0 0 0 0 34.163071
0.40962675 16.283947 -1.1018873 0 0 0 0 34.168022
1.092141 17.011404 -0.99933863 0 0 0 0 34.17791
0.52649802 16.367044 -1.0420204 0 0 0 0 34.182861
0.02514852 15.247747 -1.0264701 0 0 0 0 34.187805
0.66641659 16.372158 -0.98111904 0 0 0 0 34.197701
0.14639038 16.361805 -1.0491053 0 0 0 0 34.202652
-0.31456128 14.613558 -0.97923213 0 0 0 0 34.207596
-0.78675646 14.88323 -1.0493542 0 0 0 0 34.21254
0.28530529 16.371912 -1.0002053 0 0 0 0 34.217491
-0.21267563 14.685631 -0.94734681 0 0 0 0 34.222435
-0.68305838 15.254302 -1.0186193 0 0 0 0 34.227386
-1.1489692 15.065995 -1.0475094 0 0 0 0 34.23233
-0.10101645 16.705648 -1.0414555 0 0 0 0 34.237274
-0.54663533 14.46742 -0.9403016 0 0 0 0 34.242226
-1.0421488 15.237068 -1.0136753 0 0 0 0 34.247169
-1.6741769 16.809597 -1.1524519 0 0 0 0 34.252121
-0.42473736 14.518498 -0.92340738 0 0 0 0 34.257065
-0.93324786 15.275134 -1.0007757 0 0 0 0 34.262016
-1.5392642 16.817688 -1.115546 0 0 0 0 34.26696
-1.7657003 14.340614 -0.96925235 0 0 0 0 34.271904
-0.80230254 15.243216 -0.9888432 0 0 0 0 34.276855
-1.4173223 16.775757 -1.1086141 0 0 0 0 34.281799
-1.9333534 16.779419 -1.109589 0 0 0 0 34.286751
-2.032474 13.850449 -0.92304432 0 0 0 0 34.291695
-1.1483119 15.098975 -0.99982488 0 0 0 0 34.296638
-1.8184495 16.794474 -1.1186849 0 0 0 0 34.30159
-1.9355985 13.938498 -0.91915858 0 0 0 0 34.306534
-2.3695827 13.880215 -0.91209745 0 0 0 0 34.311485
-1.6745495 16.813543 -1.1367878 0 0 0 0 34.316429
-1.8869103 14.302493 -0.96141988 0 0 0 0 34.321373
-2.262656 13.888268 -0.91416883 0 0 0 0 34.326324
-3.2505493 16.692518 -1.0826099 0 0 0 0 34.331268
-1.7690015 14.328542 -0.9885084 0 0 0 0 34.33622
-2.1597211 13.879304 -0.94123167 0 0 0 0 34.341164
-3.1186373 16.694576 -1.0976952 0 0 0 0 34.346115
-3.1661446 14.448632 -0.9244588 0 0 0 0 34.351059
-2.0437899 13.873346 -0.97729886 0 0 0 0 34.356003
-2.700583 15.010871 -1.0288715 0 0 0 0 34.360954
-3.5167317 16.667278 -1.0947185 0 0 0 0 34.365898
-4.1028805 16.851892 -1.0647664 0 0 0 0 34.37085
-2.390928 13.938076 -1.0023633 0 0 0 0 34.375793
-3.4088314 16.677294 -1.1548051 0 0 0 0 34.380737
-3.9368722 16.706959 -1.0967706 0 0 0 0 34.385689
-3.2659316 16.684326 -1.2258964 0 0 0 0 34.395584
-3.8009 16.609989 -1.1627982 0 0 0 0 34.400528
-4.372036 16.779623 -1.1018343 0 0 0 0 34.405479
-3.1824665 14.433434 -1.0836803 0 0 0 0 34.415367
-4.2080073 16.598661 -1.1758151 0 0 0 0 34.420319
-4.0721087 16.60067 -1.2738994 0 0 0 0 34.435158
-4.6481738 16.670303 -1.1948699 0 0 0 0 34.440102
-4.4842019 16.565327 -1.2988937 0 0 0 0 34.454948
-5.0783076 16.694946 -1.211893 0 0 0 0 34.459892
-5.6243224 16.701614 -1.100824 0 0 0 0 34.464836
-4.895298 16.533974 -1.3258839 0 0 0 0 34.474731
-5.5234485 16.727571 -1.2299124 0 0 0 0 34.479683
-5.315402 16.513607 -1.3548727 0 0 0 0 34.494522
-6.7038918 15.806834 -0.91722798 0 0 0 0 34.509361
-5.7615385 16.536213 -1.3878771 0 0 0 0 34.514313
-6.6090412 15.866776 -1.0543271 0 0 0 0 34.5242
-7.1239667 15.768478 -0.90418029 0 0 0 0 34.529152
-6.2136807 16.564806 -1.4218781 0 0 0 0 34.534096
-6.5231762 15.897693 -1.2184079 0 0 0 0 34.539047
-7.0010729 15.766432 -1.0512439 0 0 0 0 34.543991
-7.5560551 15.749106 -0.89313567 0 0 0 0 34.548935
-6.4420066 16.017303 -1.4067814 0 0 0 0 34.306725
-6.9098592 15.780083 -1.2266158 0 0 0 0 34.311668
-7.4408493 15.753814 -1.0545548 0 0 0 0 34.31662
-7.9848256 15.708536 -0.88047993 0 0 0 0 34.321564
-6.7589149 15.709036 -1.4126365 0 0 0 0 34.326515
-7.3519664 15.776721 -1.2456168 0 0 0 0 34.331459
-7.872931 15.717464 -1.057534 0 0 0 0 34.336403
-8.4389162 15.689176 -0.87046057 0 0 0 0 34.341354
-6.8394885 14.913943 -1.3742406 0 0 0 0 34.346298
-7.788043 15.727358 -1.2615865 0 0 0 0 34.35125
-8.3380413 15.722084 -1.0635248 0 0 0 0 34.356194
-7.6631384 15.706268 -1.4826279 0 0 0 0 34.366089
-8.2491474 15.71897 -1.2815688 0 0 0 0 34.371033
-8.7831068 15.662713 -1.0664755 0 0 0 0 34.375984
-8.1332579 15.714859 -1.5206168 0 0 0 0 34.385872
-8.6932125 15.654587 -1.2985144 0 0 0 0 34.390823
-7.5560174 13.787273 -1.3676268 0 0 0 0 34.405663
-8.2113848 14.163709 -1.4417819 0 0 0 0 34.425453
-8.6464624 14.13031 -1.4767241 0 0 0 0 34.445236
-11.879932 16.24634 -0.85148627 0 0 0 0 34.460083
-11.780063 16.242157 -1.1525186 0 0 0 0 34.474922
-11.728225 16.269917 -1.4855634 0 0 0 0 34.489761
-11.634372 16.265688 -1.8445966 0 0 0 0 34.504601
-13.027672 15.463257 -0.79084623 0 0 0 0 34.519447
-12.963827 15.478007 -1.1368744 0 0 0 0 34.534286
-13.469625 15.265839 -0.77464181 0 0 0 0 34.53923
-12.927986 15.486715 -1.5098941 0 0 0 0 34.549126
-13.396771 15.264581 -1.1356585 0 0 0 0 34.554077
-13.524244 14.632716 -0.7372241 0 0 0 0 34.559021
-12.853149 15.486427 -1.9149165 0 0 0 0 34.563965
-13.347916 15.246285 -1.5216599 0 0 0 0 34.568916
-13.455387 14.625449 -1.1032321 0 0 0 0 34.57386
-13.474801 13.930674 -0.69777143 0 0 0 0 34.578812
-13.296093 15.256963 -1.9446813 0 0 0 0 34.583755
-13.39752 14.595156 -1.4922234 0 0 0 0 34.588699
-13.40293 13.907408 -1.0647657 0 0 0 0 34.593651
-13.426368 13.255631 -0.65932518 0 0 0 0 34.598595
-13.31366 14.557856 -1.9142157 0 0 0 0 34.603546
-13.331039 13.848123 -1.4517363 0 0 0 0 34.60849
-12.418766 12.303127 -0.95690084 0 0 0 0 34.613434
-13.372951 12.614593 -0.62389207 0 0 0 0 34.618385
-13.253173 13.804815 -1.8737193 0 0 0 0 34.623329
-12.361867 12.249853 -1.3178673 0 0 0 0 34.628281
-13.048877 12.337526 -0.97576475 0 0 0 0 34.633224
-13.337561 12.020538 -0.59247667 0 0 0 0 34.638176
-12.307998 12.220549 -1.7128494 0 0 0 0 34.64312
-12.990976 12.274232 -1.3577213 0 0 0 0 34.648064
-13.266668 11.97426 -0.9644444 0 0 0 0 34.653015
-13.295172 11.44049 -0.56106299 0 0 0 0 34.657959
-13.017178 12.319836 -1.7857327 0 0 0 0 34.66291
-13.227275 11.388206 -0.93502247 0 0 0 0 34.672798
-13.260803 10.896434 -0.53266323 0 0 0 0 34.67775
-15.474634 13.949558 -2.0932457 0 0 0 0 34.682693
-13.180893 10.829158 -0.90761179 0 0 0 0 34.692589
-13.220439 10.368384 -0.50526738 0 0 0 0 34.69754
-13.050445 11.207618 -1.7418981 0 0 0 0 34.702484
-13.093958 10.721874 -1.2945337 0 0 0 0 34.707428
-13.165541 10.315084 -0.88321638 0 0 0 0 34.712379
-13.559314 10.141019 -0.49297938 0 0 0 0 34.717323
-13.009054 10.639561 -1.7154727 0 0 0 0 34.722275
-13.116625 10.232763 -1.2751428 0 0 0 0 34.727219
-13.58146 10.136638 -0.88793975 0 0 0 0 34.732162
-14.157335 10.096429 -0.49074528 0 0 0 0 34.737114
-13.08475 10.182396 -1.7050872 0 0 0 0 34.742058
-13.628611 10.125216 -1.3038878 0 0 0 0 34.747009
-14.200494 10.096008 -0.90669906 0 0 0 0 34.751953
-14.793352 10.045799 -0.48748678 0 0 0 0 34.756897
-13.701802 10.142732 -1.7658494 0 0 0 0 34.761848
-14.267652 10.082546 -1.344636 0 0 0 0 34.766792
-14.855526 10.053339 -0.92643696 0 0 0 0 34.771744
-15.469373 10.000127 -0.48621053 0 0 0 0 34.776688
-14.35 10.090758 -1.8294783 0 0 0 0 34.826012
-14.930832 10.030572 -1.3872439 0 0 0 0 34.830963
-15.520673 9.9833775 -0.94601452 0 0 0 0 34.835907
-15.051057 10.050982 -1.9001838 0 0 0 0 34.845802
-5.0819855 -3.6038468 -0.42449871 0 0 0 0 36.118156
-5.1528363 -3.594698 -0.2324312 0 0 0 0 36.123108
-4.9728894 -3.774013 -0.63828564 0 0 0 0 36.133003
-5.0327406 -3.7518206 -0.42524359 0 0 0 0 36.137947
-5.0526457 -3.7005987 -0.23127156 0 0 0 0 36.142891
-5.1015205 -3.6724179 -0.03924606 0 0 0 0 36.147842
-5.7698088 -4.6032844 -0.74944979 0 0 0 0 36.152786
-5.80268 -4.5410028 -0.4964793 0 0 0 0 36.157738
-4.9834199 -3.8315415 -0.23105338 0 0 0 0 36.162682
-4.992342 -3.7683065 -0.040106479 0 0 0 0 36.167633
-5.7264953 -4.7982779 -0.75311154 0 0 0 0 36.172577
-5.7723556 -4.7430115 -0.50012112 0 0 0 0 36.177521
-5.8242283 -4.6947913 -0.27611652 0 0 0 0 36.182472
-5.8541241 -4.6285391 -0.051153954 0 0 0 0 36.187416
-5.8657522 -4.859601 -0.053718861 0 0 0 0 36.207207
-3.9359081 -4.1977201 -0.55287915 0 0 0 0 36.271515
-4.0157695 -4.1805902 -0.3728126 0 0 0 0 36.276466
-3.9435456 -4.3035183 -0.37260747 0 0 0 0 36.296249
-4.0214138 -4.1851902 -0.049659956 0 0 0 0 36.306145
-2.1604354 -4.05018 -0.38669056 0 0 0 0 36.489182
-2.152185 -4.1030107 -0.2675198 0 0 0 0 36.513916
-2.2071567 -4.049943 -0.16452825 0 0 0 0 36.518867
-2.1436143 -4.1586795 -0.1683878 0 0 0 0 36.281158
-0.34830523 -3.9172833 -0.24528356 0 0 0 0 36.568085
-0.342125 -3.9601903 -0.18914247 0 0 0 0 36.592819
-0.41315663 -3.9032302 -0.14414546 0 0 0 0 36.597763
-0.32995585 -4.0041099 -0.14800477 0 0 0 0 36.617554
-0.39907601 -3.8901484 -0.10409728 0 0 0 0 36.622505
0.010048311 -1.9925216 -0.110357 0 0 0 0 36.64724
0.057067961 -1.9804415 -0.10737589 0 0 0 0 36.667023
0.10414898 -2.0083621 -0.10533298 0 0 0 0 36.686813
0.061172035 -2.0053988 -0.086283781 0 0 0 0 36.691757
0.14915925 -1.9902837 -0.10236076 0 0 0 0 36.706604
0.10822283 -2.0143204 -0.085270777 0 0 0 0 36.711548
0.070275269 -2.0343602 -0.073189877 0 0 0 0 36.716492
0.19314761 -1.9572028 -0.097412266 0 0 0 0 36.726387
0.15219897 -1.9752443 -0.083331436 0 0 0 0 36.731339
0.11730649 -2.0312827 -0.073196083 0 0 0 0 36.736282
0.23925832 -1.9551134 -0.095322058 0 0 0 0 36.789185
0.19728158 -1.955157 -0.081267901 0 0 0 0 36.794128
0.15932804 -1.9722008 -0.071190245 0 0 0 0 36.799072
0.12241918 -2.0182462 -0.06306649 0 0 0 0 36.804024
0.48039979 -3.3078318 -0.16133381 0 0 0 0 36.808968
0.24231791 -1.9550788 -0.080270223 0 0 0 0 36.813919
0.20231298 -1.9401261 -0.070242122 0 0 0 0 36.818863
0.16435984 -1.9591749 -0.063160703 0 0 0 0 36.823814
0.53725249 -3.1817167 -0.15054452 0 0 0 0 36.828758
0.288351 -1.9529984 -0.079277523 0 0 0 0 36.833702
0.25038344 -1.9630473 -0.072210602 0 0 0 0 36.838654
0.20736018 -1.9381028 -0.064195491 0 0 0 0 36.843597
0.60321999 -3.1305935 -0.1446449 0 0 0 0 36.848549
0.54232538 -3.1796679 -0.13048773 0 0 0 0 36.853493
0.49046817 -3.2567408 -0.12429363 0 0 0 0 36.858437
0.25642002 -1.9550235 -0.067175128 0 0 0 0 36.863388
0.70043057 -3.2334301 -0.14552648 0 0 0 0 36.868332
0.61131227 -3.1425443 -0.12756939 0 0 0 0 36.873283
0.55539405 -3.1826258 -0.12243126 0 0 0 0 36.878227
0.49850282 -3.2397103 -0.11826359 0 0 0 0 36.883171
0.78149569 -3.2432835 -0.14154451 0 0 0 0 36.888123
0.70750719 -3.2363846 -0.13046457 0 0 0 0 36.893066
0.62740541 -3.1625011 -0.12248905 0 0 0 0 36.898018
0.56342804 -3.1675994 -0.1193995 0 0 0 0 36.902962
0.86054122 -3.2411389 -0.13758136 0 0 0 0 36.907913
0.78856766 -3.2452421 -0.12948491 0 0 0 0 36.912857
0.72257948 -3.2443457 -0.12740295 0 0 0 0 36.917801
0.64148217 -3.1754692 -0.12241808 0 0 0 0 36.922752
0.90036494 -3.1010478 -0.12780796 0 0 0 0 36.927696
0.86861503 -3.2460997 -0.12851858 0 0 0 0 36.932648
0.79960483 -3.2332118 -0.12845315 0 0 0 0 36.937592
0.73262829 -3.2413228 -0.12935446 0 0 0 0 36.942535
0.97238624 -3.0849125 -0.123864 0 0 0 0 36.947487
0.90039384 -3.0810249 -0.1207804 0 0 0 0 36.952431
0.88267219 -3.2480688 -0.13046741 0 0 0 0 36.957382
0.81668854 -3.2531817 -0.13337442 0 0 0 0 36.962326
1.0454057 -3.0677745 -0.11992414 0 0 0 0 36.96727
0.97340947 -3.0628905 -0.11884189 0 0 0 0 36.972221
0.91544735 -3.0829952 -0.12473247 0 0 0 0 36.977165
0.89270151 -3.2360511 -0.13643578 0 0 0 0 36.982117
1.1254568 -3.0696235 -0.1159611 0 0 0 0 36.987061
1.057483 -3.08074 -0.11885573 0 0 0 0 36.992012
0.98042023 -3.0408769 -0.12482691 0 0 0 0 36.996956
0.93150592 -3.091974 -0.13467392 0 0 0 0 37.0019
1.1844147 -3.0155048 -0.11107142 0 0 0 0 37.006851
1.1375242 -3.0785933 -0.11790022 0 0 0 0 37.011795
1.0735292 -3.0817156 -0.12781222 0 0 0 0 37.016747
0.99546772 -3.0448601 -0.13677688 0 0 0 0 37.02169
0.93817121 -2.2328517 -0.078094058 0 0 0 0 37.026634
1.1954744 -3.0214789 -0.1150157 0 0 0 0 37.031586
1.152563 -3.0765729 -0.12886159 0 0 0 0 37.03653
1.0795285 -3.0577147 -0.14080077 0 0 0 0 37.041481
0.7181685 -1.6031692 -0.051892143 0 0 0 0 37.046425
0.93918806 -2.2178447 -0.082069442 0 0 0 0 37.051376
1.2155246 -3.0284548 -0.12896842 0 0 0 0 37.05632
0.85523903 -2.2520227 -0.10489541 0 0 0 0 37.061264
0.80535603 -1.6950157 -0.053793646 0 0 0 0 37.066216
0.73022842 -1.6181486 -0.057832859 0 0 0 0 37.071159
0.94017613 -2.1908503 -0.093065985 0 0 0 0 37.076111
0.907233 -2.2279284 -0.10695404 0 0 0 0 37.081055
0.93566775 -1.8597904 -0.057616752 0 0 0 0 37.085999
0.92177624 -1.9258326 -0.069476336 0 0 0 0 37.09095
0.77939981 -1.7030783 -0.071693584 0 0 0 0 37.095894
0.95019734 -2.1868486 -0.10903324 0 0 0 0 37.100845
0.9184764 -1.7237979 -0.050796922 0 0 0 0 37.105789
0.91861886 -1.8108197 -0.064635396 0 0 0 0 37.110733
0.80033773 -1.6470319 -0.070777901 0 0 0 0 37.115685
0.82355058 -1.7780229 -0.08956518 0 0 0 0 37.120628
0.98455966 -1.7516721 -0.049786635 0 0 0 0 37.12558
0.9194864 -1.7118015 -0.060772836 0 0 0 0 37.130524
0.99685949 -1.9387091 -0.08545278 0 0 0 0 37.135475
0.87658793 -1.7819276 -0.09258119 0 0 0 0 37.140419
1.002494 -1.6916237 -0.045876577 0 0 0 0 37.145363
1.0056255 -1.7736458 -0.06272608 0 0 0 0 37.150314
1.106053 -2.0335197 -0.091373026 0 0 0 0 37.155258
1.064051 -2.0406256 -0.11130212 0 0 0 0 37.16021
1.042495 -1.67154 -0.043922491 0 0 0 0 37.165154
0.99848425 -1.6706407 -0.058863956 0 0 0 0 37.170097
1.1038976 -1.9215056 -0.087531447 0 0 0 0 37.175049
1.13411 -2.0564997 -0.1153169 0 0 0 0 37.179993
0.95415711 -1.4536679 -0.03517206 0 0 0 0 37.184944
0.98634273 -1.5676428 -0.053997602 0 0 0 0 37.189888
0.95032811 -1.5667356 -0.0719482 0 0 0 0 37.194832
1.1189114 -1.9205085 -0.1115041 0 0 0 0 37.199783
1.0553249 -1.5314816 -0.036117099 0 0 0 0 37.204727
0.96418279 -1.4556643 -0.050137147 0 0 0 0 37.209679
0.95022482 -1.4877205 -0.069054507 0 0 0 0 37.214622
1.0305291 -1.6756302 -0.09880276 0 0 0 0 37.219574
1.0963349 -1.5173945 -0.03415655 0 0 0 0 37.224518
1.0633399 -1.5284843 -0.053088963 0 0 0 0 37.229462
1.0243202 -1.5255849 -0.072039291 0 0 0 0 37.234413
0.94819653 -1.4627479 -0.089053705 0 0 0 0 37.239357
1.1403483 -1.5053017 -0.032196805 0 0 0 0 37.244308
1.1003362 -1.507406 -0.052136894 0 0 0 0 37.249252
1.0813624 -1.5324768 -0.074060321 0 0 0 0 37.254196
1.050359 -1.541571 -0.09699817 0 0 0 0 37.259148
1.1812813 -1.485866 -0.028287506 0 0 0 0 37.836601
1.1512885 -1.5009685 -0.05020573 0 0 0 0 37.841545
1.109248 -1.4930974 -0.073154323 0 0 0 0 37.846489
1.0742297 -1.4962125 -0.096089952 0 0 0 0 37.85144
1.1561222 -1.3878963 -0.02442191 0 0 0 0 37.856384
1.1602067 -1.4429349 -0.048305336 0 0 0 0 37.861336
1.2384671 -1.5908411 -0.080100857 0 0 0 0 37.86628
1.2164818 -1.6139405 -0.10801318 0 0 0 0 37.871231
1.1911141 -1.3668098 -0.022483096 0 0 0 0 37.876175
1.138057 -1.3509617 -0.045432564 0 0 0 0 37.881119
1.1541516 -1.4129827 -0.072318062 0 0 0 0 37.88607
1.2334011 -1.5578948 -0.10812044 0 0 0 0 37.891014
2.6432185 -2.9059274 -0.053309556 0 0 0 0 37.895966
1.1750509 -1.3318733 -0.044493165 0 0 0 0 37.900909
1.1710888 -1.3659348 -0.071408197 0 0 0 0 37.905853
1.1460842 -1.3790393 -0.098336808 0 0 0 0 37.910805
2.7582543 -2.8996627 -0.049453419 0 0 0 0 37.915749
2.6711833 -2.8999534 -0.10631914 0 0 0 0 37.9207
1.1940444 -1.3288767 -0.071487032 0 0 0 0 37.925644
1.1900842 -1.365945 -0.10139538 0 0 0 0 37.930595
2.8913114 -2.9043617 -0.046601977 0 0 0 0 37.935539
2.8192713 -2.9236333 -0.10844901 0 0 0 0 37.940483
2.7091217 -2.8879788 -0.16835652 0 0 0 0 37.945435
1.2150376 -1.3288847 -0.10247787 0 0 0 0 37.950378
3.0724542 -2.9509602 -0.04373353 0 0 0 0 37.95533
2.9913924 -2.9632616 -0.11058177 0 0 0 0 37.960274
2.8702183 -2.9196413 -0.1754899 0 0 0 0 37.965218
1.656839 -1.7310476 -0.1402365 0 0 0 0 37.970169
3.7525089 -3.4455466 -0.047642961 0 0 0 0 37.975113
3.1053813 -2.9370024 -0.11077159 0 0 0 0 37.980064
1.494362 -1.4482539 -0.085577033 0 0 0 0 37.985008
1.3280735 -1.3216438 -0.10959576 0 0 0 0 37.989952
3.9045274 -3.4281917 -0.042871743 0 0 0 0 37.994904
3.8074358 -3.4415736 -0.13169332 0 0 0 0 37.999847
1.5213066 -1.4061844 -0.085676029 0 0 0 0 38.004799
1.3630428 -1.2935636 -0.11167665 0 0 0 0 38.009743
4.0715542 -3.414803 -0.038116664 0 0 0 0 38.014694
3.9784696 -3.4361908 -0.13292651 0 0 0 0 38.019638
1.5262183 -1.3471559 -0.083779998 0 0 0 0 38.024582
1.4010159 -1.2674764 -0.11375869 0 0 0 0 38.029533
4.2485871 -3.4043913 -0.033372674 0 0 0 0 38.034477
4.154489 -3.4237952 -0.13418479 0 0 0 0 38.039429
1.5501636 -1.306092 -0.083874583 0 0 0 0 38.044373
1.4399927 -1.2433867 -0.11583892 0 0 0 0 38.049316
2.1610107 -1.6516529 -0.010022954 0 0 0 0 38.054268
4.3304968 -3.4063966 -0.13545664 0 0 0 0 38.059212
1.8795944 -1.5104293 -0.10189512 0 0 0 0 38.064163
1.4789611 -1.2162988 -0.11892661 0 0 0 0 38.069107
2.1478708 -1.5666544 -0.0071601253 0 0 0 0 38.074051
2.1398752 -1.6027812 -0.060063183 0 0 0 0 38.079002
2.1008186 -1.6099733 -0.11298234 0 0 0 0 38.083946
1.6751711 -1.3129066 -0.13398245 0 0 0 0 38.088898
2.1477528 -1.4926288 -0.0042942381 0 0 0 0 38.093842
2.1437597 -1.5307498 -0.058198765 0 0 0 0 38.098793
2.106699 -1.5369406 -0.11212294 0 0 0 0 38.103737
1.6790748 -1.2528836 -0.13409129 0 0 0 0 38.108681
2.1496444 -1.4235988 -0.0014217317 0 0 0 0 38.113632
2.1436408 -1.4577267 -0.056331769 0 0 0 0 38.118576
2.1065776 -1.4629183 -0.11025795 0 0 0 0 38.123528
1.6679595 -1.1828879 -0.13220029 0 0 0 0 38.128471
2.153543 -1.3585644 0.0014552762 0 0 0 0 38.133415
2.1395211 -1.3847121 -0.054459903 0 0 0 0 38.138367
2.1144726 -1.3978812 -0.10938668 0 0 0 0 38.143311
1.6668649 -1.1238734 -0.13130142 0 0 0 0 38.148262
5.5027151 -3.3084486 -0.0023329924 0 0 0 0 38.153206
2.1654425 -1.3316337 -0.052591149 0 0 0 0 38.158157
2.1383846 -1.341812 -0.10952134 0 0 0 0 38.163101
1.6667758 -1.0678567 -0.13039847 0 0 0 0 38.168045
5.748723 -3.2858667 0.0032574297 0 0 0 0 38.172997
5.6455474 -3.3064065 -0.14653546 0 0 0 0 38.17794
5.4992871 -3.2840281 -0.2913568 0 0 0 0 38.182892
1.6676902 -1.0138377 -0.12949358 0 0 0 0 38.187836
6.0117216 -3.2592449 0.0088087479 0 0 0 0 38.19278
5.91154 -3.2837996 -0.14997949 0 0 0 0 38.197731
5.4499145 -3.0850778 -0.28570589 0 0 0 0 38.202675
1.6645973 -0.9568274 -0.12859011 0 0 0 0 38.207626
6.3127456 -3.2435353 0.015321281 0 0 0 0 38.21257
6.2065377 -3.264127 -0.15346614 0 0 0 0 38.217514
5.4185729 -2.9030921 -0.28104779 0 0 0 0 38.222466
1.6565058 -0.90082777 -0.12767754 0 0 0 0 38.227409
1.9818583 -0.95981151 0.011955367 0 0 0 0 38.232361
1.9798267 -0.98093206 -0.041988652 0 0 0 0 38.237305
1.9867933 -1.0020356 -0.096946634 0 0 0 0 38.242256
1.9687325 -1.0111958 -0.15289231 0 0 0 0 38.2472
1.9547473 -0.89384723 0.013872458 0 0 0 0 38.252144
1.9477067 -0.91097909 -0.040072583 0 0 0 0 38.257095
1.9476616 -0.92609608 -0.094033025 0 0 0 0 38.262039
1.9476138 -0.94222015 -0.15099114 0 0 0 0 38.266991
1.9186295 -0.82590503 0.014798492 0 0 0 0 38.271935
1.9055808 -0.83804607 -0.03714826 0 0 0 0 38.276878
1.9095373 -0.85415494 -0.091112696 0 0 0 0 38.28183
1.9034821 -0.86629021 -0.14707032 0 0 0 0 38.286774
1.9065404 -0.77090895 0.016715311 0 0 0 0 38.291725
1.877474 -0.77508533 -0.035224102 0 0 0 0 38.296669
1.8784252 -0.78819895 -0.088190563 0 0 0 0 38.301613
1.8673624 -0.79634351 -0.14314924 0 0 0 0 38.306564
1.8840002 -0.72931349 -0.034645386 0 0 0 0 38.015465
1.872941 -0.73544562 -0.087610669 0 0 0 0 38.020409
1.8628792 -0.74258238 -0.14357524 0 0 0 0 38.025352
5.596437 -2.0550971 -0.27827224 0 0 0 0 38.040199
4.8367581 -1.8018967 -0.38468841 0 0 0 0 38.045143
5.5711517 -1.8990982 -0.27456594 0 0 0 0 38.059982
4.8405175 -1.67085 -0.38396838 0 0 0 0 38.064934
5.6139116 -1.7689679 -0.27590775 0 0 0 0 38.079773
4.8432822 -1.5438077 -0.38424048 0 0 0 0 38.084717
5.6276507 -1.6288935 -0.27523035 0 0 0 0 38.099564
4.8500514 -1.4197568 -0.3845143 0 0 0 0 38.104507
5.6273875 -1.4878461 -0.27353653 0 0 0 0 38.119347
4.8558183 -1.2957081 -0.38478881 0 0 0 0 38.124298
5.6121206 -1.3458306 -0.27182442 0 0 0 0 38.139137
4.862586 -1.1736592 -0.38606265 0 0 0 0 38.144081
5.6218624 -1.2107666 -0.2721374 0 0 0 0 38.158928
4.8583512 -1.0506315 -0.38632402 0 0 0 0 38.163872
5.6236 -1.0737171 -0.27144495 0 0 0 0 38.178711
4.8811264 -0.93354845 -0.38761574 0 0 0 0 38.183662
5.637342 -0.93964213 -0.27076679 0 0 0 0 38.198502
6.6491175 -0.1908146 -0.11109223 0 0 0 0 38.312279
9.1807299 1.1468366 0.15853935 0 0 0 0 38.445854
9.1372986 1.3468181 0.16009551 0 0 0 0 38.465637
9.1287231 1.5509623 0.16321039 0 0 0 0 38.239433
7.0021057 1.3503548 0.12893775 0 0 0 0 38.259216
4.7699037 1.058356 -0.40192652 0 0 0 0 38.274063
6.3670478 1.3740101 0.11884901 0 0 0 0 38.279007
5.432056 1.2225312 -0.084345512 0 0 0 0 38.283958
4.778028 1.1267802 -0.23410442 0 0 0 0 38.288902
4.6757097 1.1562008 -0.39601409 0 0 0 0 38.293846
7.0364137 1.6815531 0.13206626 0 0 0 0 38.298798
5.0859761 1.2678323 -0.078922056 0 0 0 0 38.303741
4.3860312 1.1430038 -0.21553615 0 0 0 0 38.308693
3.992955 1.0888734 -0.33879396 0 0 0 0 38.313637
7.0430565 1.8506299 0.13363467 0 0 0 0 38.318581
7.0904717 1.9391865 -0.11365271 0 0 0 0 38.323532
4.2568879 1.2177695 -0.2095138 0 0 0 0 38.328476
3.7069597 1.1073278 -0.31639007 0 0 0 0 38.333427
7.0736771 2.0287592 0.13514119 0 0 0 0 38.338371
7.0631094 2.1071846 -0.11303207 0 0 0 0 38.343315
5.4537449 1.6992935 -0.27253938 0 0 0 0 38.348267
3.6108344 1.1741613 -0.30939668 0 0 0 0 38.35321
7.0613222 2.1937923 0.13574301 0 0 0 0 38.358162
7.1166825 2.302356 -0.11460597 0 0 0 0 38.363106
5.5233831 1.8624777 -0.27805093 0 0 0 0 38.368057
4.660666 1.6402903 -0.40516186 0 0 0 0 38.373001
7.0529537 2.3638339 0.13632429 0 0 0 0 38.377945
7.0693245 2.4653075 -0.11494733 0 0 0 0 38.382896
5.4631152 1.9863894 -0.27726641 0 0 0 0 38.38784
4.6503963 1.763298 -0.4074479 0 0 0 0 38.392792
7.0415778 2.5358691 0.136903 0 0 0 0 38.397736
7.0499406 2.6393204 -0.11536156 0 0 0 0 38.402679
5.4677896 2.1334374 -0.27964178 0 0 0 0 38.407631
4.6491089 1.8923233 -0.41076443 0 0 0 0 38.412575
7.033195 2.7099104 0.13746943 0 0 0 0 38.417526
5.4494767 2.2744367 -0.28096834 0 0 0 0 38.427414
4.6138563 2.0072796 -0.41099513 0 0 0 0 38.432365
7.0118122 2.8829226 0.13805659 0 0 0 0 38.437309
7.037117 3.0074008 -0.1172872 0 0 0 0 38.442261
4.6235466 2.1443267 -0.41535231 0 0 0 0 38.452156
6.9934177 3.0599413 0.13862684 0 0 0 0 38.4571
6.9997182 3.1833704 -0.11868494 0 0 0 0 38.462044
5.5017271 2.6056237 -0.28788877 0 0 0 0 38.466995
4.6182423 2.2783422 -0.41868025 0 0 0 0 38.471939
6.9830098 3.2409754 0.13817179 0 0 0 0 38.476891
6.9912868 3.3734066 -0.11916585 0 0 0 0 38.481834
5.4454341 2.7355397 -0.28813419 0 0 0 0 38.486778
4.5719819 2.394273 -0.41890034 0 0 0 0 38.49173
6.9785872 3.4280252 0.13868977 0 0 0 0 38.496674
6.992826 3.5744629 -0.12069231 0 0 0 0 38.501625
4.5616713 2.5292771 -0.42222631 0 0 0 0 38.51152
6.969151 3.619061 0.1382035 0 0 0 0 38.516464
6.9743791 3.7674716 -0.12317003 0 0 0 0 38.521408
4.5283852 2.6542335 -0.4234924 0 0 0 0 38.531303
6.9297442 3.7960291 0.13779736 0 0 0 0 38.536255
6.9439368 3.9574552 -0.12462362 0 0 0 0 38.541199
5.40135 3.2055516 -0.29527789 0 0 0 0 38.546143
4.5250416 2.8012502 -0.42786261 0 0 0 0 38.551094
6.9152956 3.9900529 0.13730645 0 0 0 0 38.556038
6.9014964 4.1464133 -0.12505747 0 0 0 0 38.560989
4.5855851 2.9923985 -0.4384478 0 0 0 0 38.570877
6.8748627 4.175015 0.13587771 0 0 0 0 38.575829
6.8570518 4.3343616 -0.12748815 0 0 0 0 38.580772
4.8853436 3.2205102 -0.27151969 0 0 0 0 38.585724
4.5392871 3.1203265 -0.43870571 0 0 0 0 38.590668
6.8304276 4.3599672 0.13445316 0 0 0 0 38.595619
4.6004333 3.1879234 -0.25899351 0 0 0 0 38.605507
4.520936 3.268311 -0.44206062 0 0 0 0 38.610458
6.8089519 4.5619745 0.13394621 0 0 0 0 38.615402
4.8662338 3.3979671 -0.090972848 0 0 0 0 38.620354
4.3814397 3.189477 -0.24965683 0 0 0 0 38.625298
4.1482468 3.1535614 -0.41018191 0 0 0 0 38.630241
6.7724829 4.758944 0.13247377 0 0 0 0 38.635193
6.8104849 4.992404 -0.13417093 0 0 0 0 38.640137
4.1654606 3.1850345 -0.24030763 0 0 0 0 38.645088
3.9003646 3.1140656 -0.39069101 0 0 0 0 38.650032
6.7549624 4.9769564 0.13091516 0 0 0 0 38.654976
6.7769656 5.2073755 -0.13669753 0 0 0 0 38.659927
4.7878666 3.8414142 -0.28199422 0 0 0 0 38.664871
3.6944225 3.0986564 -0.37432623 0 0 0 0 38.669823
6.722455 5.1879344 0.12939587 0 0 0 0 38.674767
6.7274456 5.4213095 -0.13919729 0 0 0 0 38.679718
4.7794347 4.0204244 -0.28545392 0 0 0 0 38.684662
3.5254292 3.1023209 -0.36206833 0 0 0 0 38.689606
6.6599789 5.3838415 0.12796186 0 0 0 0 38.694557
6.6829081 5.6412535 -0.14172323 0 0 0 0 38.699501
4.7799563 4.217453 -0.28997603 0 0 0 0 38.704453
3.3823938 3.122036 -0.35289216 0 0 0 0 38.709396
6.6164308 5.595871 0.12535383 0 0 0 0 38.743721
6.636312 5.8692703 -0.14437163 0 0 0 0 38.748672
4.7515001 4.3954706 -0.29346865 0 0 0 0 38.753616
6.5838618 5.8278461 0.12377151 0 0 0 0 38.763512
6.5637865 6.0801468 -0.14683476 0 0 0 0 38.768456
4.7290373 4.5824447 -0.29793453 0 0 0 0 38.773407
6.5432925 6.0577993 0.12120474 0 0 0 0 38.783302
6.5131989 6.3150711 -0.15039867 0 0 0 0 38.788246
4.685596 4.7603736 -0.30034387 0 0 0 0 38.79319
6.4897242 6.2857218 0.11866263 0 0 0 0 38.803085
6.4625864 6.5589957 -0.15398821 0 0 0 0 38.808037
4.6341667 4.9322824 -0.30272657 0 0 0 0 38.812981
6.445117 6.5276618 0.11506656 0 0 0 0 38.822876
6.3620772 6.7588019 -0.15638259 0 0 0 0 38.82782
4.5857096 5.1141958 -0.3061417 0 0 0 0 38.832771
4.5796914 5.3756456 -0.52479756 0 0 0 0 38.837715
7.1775484 7.6024957 0.12500131 0 0 0 0 38.842667
6.2894673 6.9986715 -0.15992895 0 0 0 0 38.84761
4.5511918 5.3201408 -0.30964428 0 0 0 0 38.852554
7.159709 7.9365067 0.12210656 0 0 0 0 38.86245
6.2058706 7.2315135 -0.16344108 0 0 0 0 38.867401
4.5216212 5.5450926 -0.31520659 0 0 0 0 38.872345
7.1348457 8.2774973 0.11820133 0 0 0 0 38.88224
6.0903325 7.4392796 -0.16583537 0 0 0 0 38.887184
4.479064 5.7640147 -0.31973377 0 0 0 0 38.892136
4.3742323 5.9462318 -0.53401953 0 0 0 0 38.897079
7.103961 8.6254749 0.11428379 0 0 0 0 38.902031
5.9867387 7.667068 -0.17030376 0 0 0 0 38.906975
4.4155507 5.9638891 -0.32317802 0 0 0 0 38.911919
4.3554997 6.2301931 -0.54475892 0 0 0 0 38.91687
7.0680394 8.9864388 0.11033695 0 0 0 0 38.921814
5.8960876 7.9178886 -0.17385642 0 0 0 0 38.926765
4.3470201 6.1697493 -0.32663092 0 0 0 0 38.931709
4.2391129 6.3789487 -0.54298198 0 0 0 0 38.936653
7.0390315 9.3804178 0.10628787 0 0 0 0 38.941605
5.7266779 8.0685196 -0.1760138 0 0 0 0 38.946548
4.2665153 6.3645825 -0.32903647 0 0 0 0 38.9515
4.1724944 6.6168046 -0.54852384 0 0 0 0 38.956444
7.0199409 9.805418 0.10113517 0 0 0 0 38.961395
5.5781713 8.2581987 -0.17830922 0 0 0 0 38.966339
4.1610675 6.5353565 -0.33033705 0 0 0 0 38.971283
4.0620298 6.7935658 -0.54883224 0 0 0 0 38.976234
6.962893 10.209324 0.095099002 0 0 0 0 38.981178
5.4236794 8.4398575 -0.18157421 0 0 0 0 38.98613
4.0605907 6.7161379 -0.33267388 0 0 0 0 38.991074
3.9425843 6.9623065 -0.548105 0 0 0 0 38.996017
6.9326963 10.672297 0.089855559 0 0 0 0 39.000969
5.2492356 8.6004667 -0.1847492 0 0 0 0 39.005913
3.9451404 6.8858838 -0.33395633 0 0 0 0 39.010864
3.8161364 7.1310277 -0.54736602 0 0 0 0 39.015808
6.8924327 11.158239 0.082563989 0 0 0 0 39.020752
5.0737967 8.7590723 -0.18691744 0 0 0 0 39.025703
3.8237014 7.0506158 -0.334216 0 0 0 0 39.030647
3.6946394 7.3177562 -0.54768372 0 0 0 0 39.035599
6.8600521 11.689202 0.076133564 0 0 0 0 39.040543
4.8814139 8.8936338 -0.18899217 0 0 0 0 39.045494
3.703234 7.2243438 -0.33650184 0 0 0 0 39.050438
3.5194099 7.4003692 -0.54063302 0 0 0 0 39.055382
4.7129116 9.0752487 -0.19223307 0 0 0 0 39.065277
4.4610744 9.2340355 -0.42319885 0 0 0 0 39.070229
3.3421936 7.4779768 -0.53256446 0 0 0 0 39.075172
9.2195807 17.490211 0.079380758 0 0 0 0 39.080116
4.2417922 9.3295374 -0.41912037 0 0 0 0 39.090012
3.1699352 7.5705895 -0.52654314 0 0 0 0 39.094963
7.671627 15.393366 0.057571597 0 0 0 0 39.099907
4.0284624 9.4430456 -0.41609874 0 0 0 0 39.109802
3.0056279 7.6822195 -0.5205856 0 0 0 0 39.114746
6.7878957 14.430176 0.041599892 0 0 0 0 39.119698
3.8201065 9.5655622 -0.41410893 0 0 0 0 39.129593
2.8452585 7.8158484 -0.51769286 0 0 0 0 39.134537
6.7636919 15.269147 0.030295121 0 0 0 0 39.139481
3.6087456 9.6900702 -0.41111776 0 0 0 0 39.149376
2.6918292 7.9724932 -0.51487392 0 0 0 0 39.154327
7.2839403 17.520493 0.019217683 0 0 0 0 39.159271
6.6492357 17.487869 -0.37753773 0 0 0 0 39.164215
3.4172294 9.8726149 -0.41231674 0 0 0 0 39.169167
3.1194122 10.023287 -0.63417053 0 0 0 0 39.17411
6.7979498 17.459286 0.003130181 0 0 0 0 39.179062
6.1891022 17.494759 -0.37784889 0 0 0 0 39.184006
2.9020197 10.159777 -0.62819743 0 0 0 0 39.193901
6.3278928 17.426117 -0.011054022 0 0 0 0 39.198845
5.7141895 17.414608 -0.37689391 0 0 0 0 39.203796
2.6687295 10.257232 -0.61908913 0 0 0 0 39.213692
5.8651962 17.383383 -0.023257788 0 0 0 0 38.979721
5.2545681 17.364004 -0.37413248 0 0 0 0 38.984673
4.671946 17.366777 -0.6921128 0 0 0 0 38.989616
2.4440994 10.387498 -0.61114544 0 0 0 0 38.994568
5.4240804 17.37331 -0.038584407 0 0 0 0 38.999512
4.8026152 17.297937 -0.37428963 0 0 0 0 39.004456
4.2339306 17.334768 -0.67937803 0 0 0 0 39.009407
2.2196469 10.55098 -0.60523081 0 0 0 0 39.014351
4.9780593 17.325224 -0.052797392 0 0 0 0 39.019302
4.362586 17.262892 -0.37454119 0 0 0 0 39.024246
3.7930162 17.262749 -0.6655277 0 0 0 0 39.02919
4.5370169 17.28614 -0.067035511 0 0 0 0 39.039085
3.9325585 17.22686 -0.37580171 0 0 0 0 39.044037
3.357101 17.191736 -0.6516816 0 0 0 0 39.048981
4.1049967 17.238073 -0.081260055 0 0 0 0 39.058876
3.5045331 17.190832 -0.37605906 0 0 0 0 39.06382
2.9410441 17.17676 -0.6400106 0 0 0 0 39.068771
2.3585474 17.152594 -0.92089844 0 0 0 0 39.073715
3.6859159 17.214029 -0.096564196 0 0 0 0 39.078667
3.0884864 17.162825 -0.37735286 0 0 0 0 39.083611
2.2468064 15.269256 -0.55887717 0 0 0 0 39.088554
1.8087101 15.896461 -0.83272558 0 0 0 0 39.093506
3.2638695 17.176973 -0.11082222 0 0 0 0 39.09845
2.3763134 15.205174 -0.33503985 0 0 0 0 39.103401
1.9151314 15.500447 -0.55897784 0 0 0 0 39.108345
1.5316874 17.039688 -0.87131959 0 0 0 0 39.113289
2.541491 15.275187 -0.11062156 0 0 0 0 39.11824
2.1073966 15.921478 -0.35353121 0 0 0 0 39.123184
1.482686 14.860461 -0.52660066 0 0 0 0 39.128136
0.9901523 14.900668 -0.74180597 0 0 0 0 39.13308
2.1528184 15.096205 -0.12253772 0 0 0 0 39.138031
1.6150787 14.824317 -0.3298364 0 0 0 0 39.142975
1.2854985 16.848825 -0.58957398 0 0 0 0 39.147919
0.70119888 16.399815 -0.79631674 0 0 0 0 39.15287
1.7820754 14.946261 -0.13455568 0 0 0 0 39.157814
1.4106349 16.527718 -0.37205586 0 0 0 0 39.162766
0.80086941 15.113788 -0.52019382 0 0 0 0 39.167709
0.3153916 16.297913 -0.77143061 0 0 0 0 39.172653
1.4125075 14.728317 -0.14538799 0 0 0 0 39.177605
0.91512674 14.727573 -0.33246699 0 0 0 0 39.182549
