# .PCD v0.7 - Point Cloud Data file format
VERSION 0.7
FIELDS x y z normal_x normal_y normal_z intensity curvature
SIZE 4 4 4 4 4 4 4 4
TYPE F F F F F F F F
COUNT 1 1 1 1 1 1 1 1
WIDTH 941
HEIGHT 1
VIEWPOINT 0 0 0 1 0 0 0
POINTS 941
DATA ascii
3.2680922 4.9138927 -0.44114551 0 0 0 0 54.955608
2.9109364 4.6395254 -0.51554358 0 0 0 0 54.960552
3.2133851 5.0845833 -0.44900063 0 0 0 0 54.975391
2.8612187 4.809155 -0.52242684 0 0 0 0 54.980343
3.1517162 5.25737 -0.45581326 0 0 0 0 54.995182
2.8208919 5.0086603 -0.53140515 0 0 0 0 55.000126
3.0850458 5.4302235 -0.46359345 0 0 0 0 55.014973
2.7408373 5.1507006 -0.53406078 0 0 0 0 55.019917
3.0205798 5.6180511 -0.47140497 0 0 0 0 55.034756
4.2944603 7.4102774 -0.36269188 0 0 0 0 55.044651
3.4740961 7.0670929 -0.35804394 0 0 0 0 55.104015
3.3234963 7.1700659 -0.36820298 0 0 0 0 55.123806
3.2039368 7.4855294 -0.49481145 0 0 0 0 55.12875
3.2575691 7.4759092 -0.38914689 0 0 0 0 55.143589
2.9979196 7.4772592 -0.49247861 0 0 0 0 55.14854
2.3884859 6.4863482 -0.5003745 0 0 0 0 55.153484
2.1802249 6.5060406 -0.58205652 0 0 0 0 55.158436
3.0690305 7.5073967 -0.39597356 0 0 0 0 55.16338
2.3959086 6.3983221 -0.41631517 0 0 0 0 55.168324
2.3527575 6.8828015 -0.52461433 0 0 0 0 55.173275
2.0740016 6.7094507 -0.58861041 0 0 0 0 55.178219
2.8742783 7.5229721 -0.40273887 0 0 0 0 55.18317
2.4274909 6.9718671 -0.45420054 0 0 0 0 55.188114
2.2229166 7.039526 -0.52996117 0 0 0 0 55.193066
2.2757518 7.061882 -0.45932645 0 0 0 0 55.207905
1.856537 6.3874507 -0.47281379 0 0 0 0 55.212849
1.966143 7.6228585 -0.64499515 0 0 0 0 55.2178
2.0155957 7.6102753 -0.56129628 0 0 0 0 55.232639
1.7784185 7.6313825 -0.63278705 0 0 0 0 55.237583
2.319459 7.6023297 -0.42424986 0 0 0 0 55.242535
1.833022 7.6337218 -0.55713892 0 0 0 0 55.252422
0.98124534 4.6841965 -0.37210089 0 0 0 0 55.257374
2.1253288 7.5889158 -0.42897522 0 0 0 0 55.262318
1.8843671 7.624084 -0.49645618 0 0 0 0 55.267269
1.6493745 7.6511884 -0.55196518 0 0 0 0 55.272213
1.4123766 7.6803145 -0.612463 0 0 0 0 55.277164
1.9415971 7.6063638 -0.43680245 0 0 0 0 55.282108
1.6996882 7.6425571 -0.49827656 0 0 0 0 55.287052
1.465565 7.6566606 -0.54677385 0 0 0 0 55.292004
1.2286061 7.6857972 -0.60127008 0 0 0 0 55.296947
1.7620687 7.638761 -0.44467255 0 0 0 0 55.301899
0.94038004 4.7208066 -0.29884917 0 0 0 0 55.306843
1.2839793 7.6791077 -0.542615 0 0 0 0 55.311787
1.0470667 7.7092538 -0.59211087 0 0 0 0 55.316738
0.97435749 4.7003717 -0.26803625 0 0 0 0 55.321682
1.3342158 7.6704636 -0.50092506 0 0 0 0 55.326633
1.1013471 7.6985712 -0.53944349 0 0 0 0 55.331577
0.69414914 6.1750522 -0.46097118 0 0 0 0 55.336529
1.3958802 7.6607766 -0.45934296 0 0 0 0 55.235226
1.1561217 7.6999569 -0.50383681 0 0 0 0 55.240177
0.76030183 6.351263 -0.4366641 0 0 0 0 55.245121
0.56100309 6.342916 -0.46536109 0 0 0 0 55.250065
1.2182908 7.6891479 -0.46822006 0 0 0 0 55.255016
0.80907261 6.3926249 -0.41502041 0 0 0 0 55.25996
0.63350528 6.5889697 -0.45011446 0 0 0 0 55.264912
0.46369636 7.1522293 -0.51768339 0 0 0 0 55.269855
0.87114114 6.4568057 -0.39549068 0 0 0 0 55.274799
0.68450332 6.6492972 -0.4335078 0 0 0 0 55.279751
0.51443541 7.1105762 -0.48295274 0 0 0 0 55.284695
0.23907825 5.7172771 -0.40149909 0 0 0 0 55.289646
0.67820168 6.0783935 -0.37677586 0 0 0 0 55.29459
0.54432476 6.8591838 -0.44883683 0 0 0 0 55.299541
0.28233743 5.7217131 -0.38077348 0 0 0 0 55.304485
0.1173179 6.4909296 -0.45061752 0 0 0 0 55.309429
0.59540105 6.7764997 -0.43006033 0 0 0 0 55.314381
0.40031302 7.1581254 -0.47124603 0 0 0 0 55.319324
0.1662652 6.4722853 -0.43090153 0 0 0 0 55.324276
-0.022062635 4.9268236 -0.33082524 0 0 0 0 55.32922
0.45932937 7.1493278 -0.46260938 0 0 0 0 55.334164
0.18866299 5.7329807 -0.37415138 0 0 0 0 55.339115
0.015411111 4.9533257 -0.32208747 0 0 0 0 55.344059
-0.14571559 5.1745071 -0.34229934 0 0 0 0 55.34901
0.23649932 5.7143297 -0.37042883 0 0 0 0 55.353954
0.049541928 4.9588594 -0.32230344 0 0 0 0 55.358906
-0.10647617 5.2609811 -0.34164482 0 0 0 0 55.36385
0.11584076 6.4989576 -0.43156734 0 0 0 0 55.373745
-0.0651761 4.9764132 -0.32455987 0 0 0 0 55.378689
-0.22091588 5.0695381 -0.32565165 0 0 0 0 55.38364
-0.44016436 5.8855271 -0.37919512 0 0 0 0 55.388584
-0.022861818 4.9228272 -0.3267585 0 0 0 0 55.393528
-0.18359976 5.0170188 -0.3298184 0 0 0 0 55.398479
-0.39514166 5.8829136 -0.38047138 0 0 0 0 55.403423
-0.56758314 5.7692723 -0.36420467 0 0 0 0 55.408375
-0.13793997 4.9153838 -0.33198103 0 0 0 0 55.413319
-0.51213735 5.6495104 -0.36240816 0 0 0 0 55.423214
-0.71343619 5.8482718 -0.36332631 0 0 0 0 55.428158
-0.66033399 5.7805371 -0.36957666 0 0 0 0 55.443005
-0.98823452 6.7640429 -0.41660771 0 0 0 0 55.447948
-0.39283672 5.2248397 -0.36764944 0 0 0 0 55.452892
-0.60617328 5.6467733 -0.38175526 0 0 0 0 55.457844
-0.8009432 5.8044629 -0.36966449 0 0 0 0 55.462788
-0.5613718 5.639132 -0.40602455 0 0 0 0 55.472683
-0.74572122 5.6776791 -0.38685814 0 0 0 0 55.477627
-1.0908488 6.714438 -0.42983782 0 0 0 0 55.482578
-0.69888437 5.675005 -0.41614649 0 0 0 0 55.492474
-0.88915151 5.7176414 -0.39294478 0 0 0 0 55.497417
-1.5264635 8.1744175 -0.52671522 0 0 0 0 55.502369
-0.83202726 5.6628227 -0.42223758 0 0 0 0 55.512257
-1.0149127 5.6563663 -0.39102373 0 0 0 0 55.517208
-0.93843663 5.4792767 -0.41629618 0 0 0 0 55.532047
-1.6781554 8.2114515 -0.58372247 0 0 0 0 55.536991
-1.8754187 8.1881657 -0.58837265 0 0 0 0 55.556782
-1.9890946 8.0886555 -0.66245973 0 0 0 0 55.591412
-2.2188196 8.1858149 -0.68403614 0 0 0 0 55.611202
-2.4326949 8.1957626 -0.69860899 0 0 0 0 55.630985
-2.6706223 8.2780457 -0.72010785 0 0 0 0 55.650776
-3.6982801 8.429903 -0.66583747 0 0 0 0 55.475216
-5.1459293 7.7683377 -0.36229849 0 0 0 0 55.584049
-5.1048069 7.7726173 -0.5175426 0 0 0 0 55.598888
-5.3440185 7.6791224 -0.3538385 0 0 0 0 55.60384
-5.0796599 7.7851 -0.68569207 0 0 0 0 55.613735
-5.3108335 7.6915045 -0.51603949 0 0 0 0 55.618679
-5.6413636 7.7202821 -0.35087875 0 0 0 0 55.623623
-5.044621 7.7974248 -0.86990714 0 0 0 0 55.628574
-5.2799692 7.6859016 -0.68920416 0 0 0 0 55.633518
-5.591536 7.7104249 -0.52116179 0 0 0 0 55.63847
-5.6853051 7.4179492 -0.33217305 0 0 0 0 55.643414
-5.2361932 7.6820979 -0.87945688 0 0 0 0 55.648357
-5.5745449 7.7200007 -0.70625228 0 0 0 0 55.653309
-5.6503625 7.4182935 -0.50537014 0 0 0 0 55.658253
-5.7182145 7.1184659 -0.31354269 0 0 0 0 55.663204
-5.5377727 7.7212825 -0.90746397 0 0 0 0 55.668148
-5.6206651 7.406693 -0.69051862 0 0 0 0 55.6731
-5.679399 7.1107531 -0.48875555 0 0 0 0 55.678043
-5.7539363 6.8340201 -0.29691106 0 0 0 0 55.682987
-5.5760775 7.3948646 -0.89176607 0 0 0 0 55.687939
-5.6488166 7.0911388 -0.67390013 0 0 0 0 55.692883
-5.7131872 6.822279 -0.47313178 0 0 0 0 55.697834
-5.7785983 6.5544233 -0.2803576 0 0 0 0 55.702778
-5.6043577 7.0703111 -0.87513572 0 0 0 0 55.707722
-5.6796985 6.7966223 -0.65928817 0 0 0 0 55.712673
-5.7488093 6.5468311 -0.45851076 0 0 0 0 55.717617
-5.8109884 6.2959332 -0.26577777 0 0 0 0 55.722569
-5.6353054 6.7717934 -0.8615185 0 0 0 0 55.727512
-5.7163725 6.5181866 -0.64565641 0 0 0 0 55.732464
-5.7773347 6.279285 -0.44494545 0 0 0 0 55.737408
-5.845233 6.048471 -0.25119817 0 0 0 0 55.742352
-5.6710043 6.4923429 -0.84889191 0 0 0 0 55.747303
-5.7459226 6.2496538 -0.63308311 0 0 0 0 55.752247
-5.8086796 6.0257783 -0.43237773 0 0 0 0 55.757198
-5.8704495 5.8038831 -0.23768117 0 0 0 0 55.762142
-5.7016616 6.2168221 -0.8373028 0 0 0 0 55.767086
-5.7733541 5.9900923 -0.62053388 0 0 0 0 55.772038
-5.8280387 5.7711086 -0.41888738 0 0 0 0 55.776981
-5.890645 5.5612264 -0.22419918 0 0 0 0 55.781933
-5.7340961 5.9583268 -0.82672161 0 0 0 0 55.786877
-5.7987165 5.7365017 -0.60900497 0 0 0 0 55.791821
-5.8600903 5.5406132 -0.40834138 0 0 0 0 55.796772
-5.9284554 5.3478146 -0.21263497 0 0 0 0 55.801716
-5.7634406 5.7067909 -0.81616861 0 0 0 0 55.806667
-5.8268685 5.4989514 -0.59847617 0 0 0 0 55.811611
-5.8920774 5.3151174 -0.39780113 0 0 0 0 55.816563
-5.287055 4.5559559 -0.17588849 0 0 0 0 55.821507
-5.7876949 5.4621849 -0.80565721 0 0 0 0 55.82645
-5.0651283 4.5604744 -0.50635433 0 0 0 0 55.831402
-5.3316526 4.5914021 -0.34660041 0 0 0 0 55.836346
-5.7061515 4.6938462 -0.18021297 0 0 0 0 55.841297
-5.0366921 4.5308843 -0.68747514 0 0 0 0 55.846241
-5.3834209 4.6199336 -0.52825606 0 0 0 0 55.851185
-5.7568479 4.729362 -0.36588255 0 0 0 0 55.856136
-6.166121 4.8413157 -0.18527152 0 0 0 0 55.86108
-5.4530497 4.6706834 -0.73481965 0 0 0 0 55.866032
-5.8464117 4.7814026 -0.5653128 0 0 0 0 55.870975
-9.9959955 7.824348 -0.63430715 0 0 0 0 55.875919
-10.086554 7.5520477 -0.30134428 0 0 0 0 55.880871
-5.9528551 4.8556447 -0.7926572 0 0 0 0 55.885815
-9.9363127 7.7351747 -0.95854658 0 0 0 0 55.890766
-10.038463 7.4900455 -0.62053883 0 0 0 0 55.89571
-10.127886 7.2267346 -0.28559351 0 0 0 0 55.900661
-8.0078802 6.2141218 -1.059528 0 0 0 0 55.905605
-9.9877567 7.4039941 -0.94672215 0 0 0 0 55.910549
-10.071947 7.1546202 -0.60582811 0 0 0 0 55.915501
-10.166093 6.9113784 -0.2708748 0 0 0 0 55.920444
-8.3943815 6.1935549 -1.0968519 0 0 0 0 55.925396
-10.015318 7.0644822 -0.93404597 0 0 0 0 55.93034
-10.110216 6.8362608 -0.59310532 0 0 0 0 55.935284
-6.0613375 3.925112 -0.14263175 0 0 0 0 55.940235
-9.002327 6.3141422 -1.1631366 0 0 0 0 56.143353
-5.9494567 3.9897764 -0.53588873 0 0 0 0 56.148296
-6.0326295 3.8812201 -0.33517453 0 0 0 0 56.153248
-5.9373488 3.9553704 -0.75089204 0 0 0 0 56.163143
-9.3254681 -6.3896804 -1.1548243 0 0 0 0 57.207096
-9.4181814 -6.3477559 -0.77318865 0 0 0 0 57.21204
-9.5607634 -6.2396374 -0.084253445 0 0 0 0 57.221935
-8.8955488 -6.4138622 -1.1127607 0 0 0 0 57.226887
-9.0469971 -6.4121017 -0.75065744 0 0 0 0 57.231831
-9.1967173 -6.4124126 -0.42256433 0 0 0 0 57.236774
-9.3765812 -6.4252701 -0.088240385 0 0 0 0 57.241726
-8.5038137 -6.4484963 -1.0744178 0 0 0 0 57.24667
-8.6513462 -6.4458117 -0.72634363 0 0 0 0 57.251621
-8.8112211 -6.4499917 -0.41217336 0 0 0 0 57.256565
-8.9740381 -6.4541154 -0.089981556 0 0 0 0 57.261509
-8.1290035 -6.4768925 -1.0379673 0 0 0 0 57.26646
-8.2796764 -6.47718 -0.70386702 0 0 0 0 57.271404
-8.4346285 -6.4814463 -0.40073156 0 0 0 0 57.276356
-8.5995359 -6.4855561 -0.091524802 0 0 0 0 57.2813
-7.7833724 -6.5158706 -1.0043004 0 0 0 0 57.286243
-7.9320779 -6.5122037 -0.68321908 0 0 0 0 57.291195
-8.0871286 -6.5174842 -0.3920815 0 0 0 0 57.296139
-8.2389736 -6.5127993 -0.092978701 0 0 0 0 57.30109
-7.4455934 -6.5437422 -0.97259593 0 0 0 0 57.306034
-7.5964193 -6.5430589 -0.66249561 0 0 0 0 57.310986
-7.7413845 -6.5375013 -0.38244355 0 0 0 0 57.315929
-7.9024673 -6.542697 -0.096262239 0 0 0 0 57.320873
-7.1177163 -6.5644765 -0.94183421 0 0 0 0 57.325825
-7.2696552 -6.5657916 -0.64372325 0 0 0 0 57.330769
-7.4167643 -6.5652161 -0.37364936 0 0 0 0 57.33572
-7.5799084 -6.5693951 -0.098454416 0 0 0 0 57.340664
-6.9907789 -6.7682953 -0.93840951 0 0 0 0 57.345608
-7.0340266 -6.6602001 -0.63321304 0 0 0 0 57.350559
-7.1050758 -6.5877476 -0.36577353 0 0 0 0 57.355503
-7.2673492 -6.5959525 -0.10057934 0 0 0 0 57.360455
-7.0305123 -7.1386943 -0.95858341 0 0 0 0 57.365398
-7.0796771 -7.0275025 -0.64834815 0 0 0 0 57.37035
-7.1109366 -6.9046278 -0.37625667 0 0 0 0 57.375294
-7.1412301 -6.7827716 -0.10717085 0 0 0 0 57.380238
-7.0685301 -7.5271206 -0.97974545 0 0 0 0 57.385189
-7.1103759 -7.397028 -0.66458619 0 0 0 0 57.390133
-7.1404557 -7.2641635 -0.38851559 0 0 0 0 57.395084
-7.1836505 -7.1371098 -0.11634378 0 0 0 0 57.400028
-7.1070037 -7.9445462 -1.0028663 0 0 0 0 57.404972
-7.1525512 -7.7973866 -0.68170178 0 0 0 0 57.409924
-7.1874728 -7.6554446 -0.4026078 0 0 0 0 57.414867
-7.2182727 -7.5035672 -0.12755604 0 0 0 0 57.419819
-7.1396675 -8.3740578 -1.0260119 0 0 0 0 57.424763
-7.1900783 -8.2198191 -0.70082128 0 0 0 0 57.429707
-7.2206054 -8.0539312 -0.41678903 0 0 0 0 57.434658
-7.2522326 -7.8920364 -0.13874392 0 0 0 0 57.439602
-7.189054 -8.8493309 -1.0529783 0 0 0 0 57.444553
-7.2187824 -8.6533833 -0.71998876 0 0 0 0 57.449497
-7.2572241 -8.4833727 -0.43290472 0 0 0 0 57.454449
-7.287478 -8.2984896 -0.1508985 0 0 0 0 57.459393
-6.7347012 -8.7109432 -1.0063413 0 0 0 0 57.464336
-7.2723727 -9.1435881 -0.74290413 0 0 0 0 57.469288
-7.3043742 -8.9466619 -0.45090038 0 0 0 0 57.474232
-7.3384466 -8.7517138 -0.16487928 0 0 0 0 57.479183
-6.7999582 -9.2409964 -1.0381246 0 0 0 0 57.484127
-7.2948756 -9.628252 -0.76404846 0 0 0 0 57.489071
-7.3407764 -9.4261141 -0.4689512 0 0 0 0 57.494022
-7.3796077 -9.2170868 -0.17891367 0 0 0 0 57.498966
-6.8617225 -9.8031063 -1.0718901 0 0 0 0 57.503918
-7.3106828 -10.13202 -0.78621536 0 0 0 0 57.508862
-7.4052916 -9.9771576 -0.49070698 0 0 0 0 57.513805
-7.4344883 -9.7282619 -0.19578941 0 0 0 0 57.518757
-6.9171062 -10.404319 -1.10865 0 0 0 0 57.523701
-7.3546939 -10.712381 -0.81408024 0 0 0 0 57.528652
-7.4386907 -10.519664 -0.51269603 0 0 0 0 57.533596
-7.4593401 -10.236885 -0.21288314 0 0 0 0 57.538548
-7.3403049 -11.626186 -1.2089652 0 0 0 0 57.543491
-7.4742651 -11.456647 -0.85318953 0 0 0 0 57.548435
-7.5003042 -11.14076 -0.53737974 0 0 0 0 57.553387
-7.5225091 -10.830948 -0.23259009 0 0 0 0 57.558331
-6.9808187 -11.667452 -1.1814259 0 0 0 0 57.563282
-7.2202625 -11.651382 -0.84969336 0 0 0 0 57.568226
-7.4541368 -11.645451 -0.55698812 0 0 0 0 57.57317
-7.5873747 -11.468992 -0.25522667 0 0 0 0 57.578121
-6.7156463 -11.854351 -1.1700243 0 0 0 0 57.583065
-6.9098272 -11.753951 -0.83972538 0 0 0 0 57.588017
-7.1037893 -11.684617 -0.55338889 0 0 0 0 57.59296
-7.3415837 -11.67063 -0.26666415 0 0 0 0 57.597912
-6.8395147 -11.857525 -0.55700046 0 0 0 0 57.612751
-7.0301046 -11.761242 -0.27572167 0 0 0 0 57.617695
-3.9767947 -12.751503 -1.0159168 0 0 0 0 57.478954
-4.1412425 -12.708364 -0.5746941 0 0 0 0 57.50864
-2.857795 -12.116886 -0.90261513 0 0 0 0 57.538319
-2.5500171 -12.069427 -0.87884438 0 0 0 0 57.558109
-2.8098869 -12.14129 -0.700863 0 0 0 0 57.563053
-2.2668352 -12.123631 -0.86476982 0 0 0 0 57.577892
-2.5041339 -12.089822 -0.68908584 0 0 0 0 57.582844
-2.9945424 -12.17807 -0.40340286 0 0 0 0 57.592739
-1.9696454 -12.113041 -0.84588301 0 0 0 0 57.597683
-2.2197697 -12.128059 -0.68304294 0 0 0 0 57.602627
-2.4456267 -12.112475 -0.5474174 0 0 0 0 57.607578
-2.6763105 -12.085815 -0.41077054 0 0 0 0 57.612522
-1.6839254 -12.132291 -0.82987875 0 0 0 0 57.617474
-1.9266952 -12.120425 -0.67412549 0 0 0 0 57.622417
-2.1555932 -12.102807 -0.54847986 0 0 0 0 57.627369
-2.3950598 -12.123034 -0.42270848 0 0 0 0 57.632313
-1.3984835 -12.169548 -0.81485283 0 0 0 0 57.637257
-1.6420318 -12.138679 -0.66811758 0 0 0 0 57.642208
-1.8691142 -12.129099 -0.55147403 0 0 0 0 57.647152
-2.1039474 -12.103399 -0.43379444 0 0 0 0 57.652103
-1.0021225 -10.989227 -0.71819872 0 0 0 0 57.657047
-1.3587437 -12.180924 -0.66407239 0 0 0 0 57.661991
-1.5865903 -12.152339 -0.554447 0 0 0 0 57.666943
-1.8205781 -12.132662 -0.44576502 0 0 0 0 57.671886
-0.83391565 -12.262997 -0.78874153 0 0 0 0 57.676838
-1.0738934 -12.187193 -0.65708834 0 0 0 0 57.681782
-1.3085324 -12.205525 -0.55935258 0 0 0 0 57.686726
-1.5402014 -12.160889 -0.45871878 0 0 0 0 57.691677
-0.50987607 -11.424679 -0.71813327 0 0 0 0 57.696621
-0.7922079 -12.203424 -0.65207201 0 0 0 0 57.701572
-1.0229275 -12.222826 -0.56336254 0 0 0 0 57.706516
-1.2645628 -12.23706 -0.47357979 0 0 0 0 57.711468
-0.276151 -12.986501 -0.80378294 0 0 0 0 57.716412
-0.47972149 -11.521994 -0.60918182 0 0 0 0 57.721355
-0.7386449 -12.196106 -0.56542319 0 0 0 0 57.726307
-0.97887254 -12.244378 -0.486606 0 0 0 0 57.731251
0.0220546 -10.46447 -0.63016605 0 0 0 0 57.736202
-0.464102 -12.476302 -0.58202082 0 0 0 0 57.74609
-0.69609165 -12.245659 -0.49962234 0 0 0 0 57.751041
0.25680086 -10.030916 -0.59040165 0 0 0 0 57.755985
-0.4177064 -12.46692 -0.52232635 0 0 0 0 57.770824
0.4819195 -9.8942842 -0.57118767 0 0 0 0 57.775776
0.28000736 -9.9151497 -0.50768358 0 0 0 0 57.78072
0.71098691 -9.8897438 -0.55983478 0 0 0 0 57.795567
0.50738722 -9.8865891 -0.50334871 0 0 0 0 57.80051
0.32321829 -9.975771 -0.4708848 0 0 0 0 57.805454
1.0966941 -11.515902 -0.64351857 0 0 0 0 57.81535
0.74212575 -9.9641657 -0.50393325 0 0 0 0 57.820301
0.54869694 -9.8731823 -0.46963406 0 0 0 0 57.825245
0.36238864 -10.096365 -0.45197996 0 0 0 0 57.830189
1.2344685 -10.419195 -0.56751394 0 0 0 0 58.204266
1.1244223 -11.51666 -0.58225614 0 0 0 0 58.209217
0.78871125 -10.046185 -0.48268548 0 0 0 0 58.214161
0.58249688 -9.8759508 -0.45237285 0 0 0 0 58.219112
1.8542429 -13.092273 -0.70658934 0 0 0 0 58.224056
1.2625217 -10.427592 -0.52268273 0 0 0 0 58.229008
1.1673402 -11.457309 -0.5596227 0 0 0 0 58.233952
1.0281425 -12.551355 -0.59815115 0 0 0 0 58.238895
2.1706746 -13.127167 -0.69587171 0 0 0 0 58.243847
1.8932363 -13.102847 -0.6598388 0 0 0 0 58.248791
1.6366097 -13.078882 -0.6489597 0 0 0 0 58.253742
1.1250508 -10.642525 -0.51634759 0 0 0 0 58.258686
2.488174 -13.158083 -0.68417114 0 0 0 0 58.26363
2.2057786 -13.125698 -0.65911096 0 0 0 0 58.268581
1.9519925 -13.107789 -0.65724427 0 0 0 0 58.273525
1.6872321 -13.086713 -0.65829945 0 0 0 0 58.278477
2.8136334 -13.191132 -0.67353088 0 0 0 0 58.283421
2.5259724 -13.17068 -0.65941501 0 0 0 0 58.288364
2.2663827 -13.135691 -0.66652668 0 0 0 0 58.293316
1.9996023 -13.111592 -0.67656988 0 0 0 0 58.29826
3.1390843 -13.225186 -0.66189319 0 0 0 0 58.303211
2.8486121 -13.187701 -0.65777779 0 0 0 0 58.308155
2.5848334 -13.159661 -0.67584836 0 0 0 0 58.313107
2.3178012 -13.146574 -0.69687438 0 0 0 0 58.31805
3.4666965 -13.248283 -0.65129006 0 0 0 0 58.322994
3.1797485 -13.23587 -0.65916699 0 0 0 0 58.327946
2.9119425 -13.20478 -0.68721074 0 0 0 0 58.33289
2.6402531 -13.165626 -0.7162354 0 0 0 0 58.337841
3.8021526 -13.281511 -0.64073604 0 0 0 0 58.342785
3.5101542 -13.267034 -0.65957713 0 0 0 0 58.347729
3.2393358 -13.231906 -0.69760293 0 0 0 0 58.35268
2.9664721 -13.19875 -0.7376101 0 0 0 0 58.357624
4.150413 -13.326948 -0.6312657 0 0 0 0 58.362576
3.8487129 -13.288329 -0.66006517 0 0 0 0 58.367519
3.5785956 -13.267229 -0.70907694 0 0 0 0 58.372471
3.3064253 -13.248098 -0.76107001 0 0 0 0 58.377415
4.497067 -13.347365 -0.62082058 0 0 0 0 58.382359
4.1959057 -13.332771 -0.66159147 0 0 0 0 58.38731
3.9209471 -13.296605 -0.720586 0 0 0 0 58.392254
3.6332386 -13.243241 -0.78150725 0 0 0 0 58.397205
4.8505573 -13.377898 -0.61141747 0 0 0 0 58.402149
4.5425858 -13.346209 -0.66215891 0 0 0 0 58.407093
4.2691803 -13.333085 -0.73313397 0 0 0 0 58.412045
3.9927528 -13.319918 -0.80708575 0 0 0 0 58.416988
4.2982292 -11.057944 -0.49134067 0 0 0 0 58.42194
4.4341192 -12.107349 -0.5989759 0 0 0 0 58.426884
4.6310387 -13.392791 -0.74775761 0 0 0 0 58.431828
4.3515525 -13.37759 -0.83368832 0 0 0 0 58.436779
4.3937473 -10.581386 -0.46068019 0 0 0 0 58.441723
5.2872853 -13.476932 -0.6705544 0 0 0 0 58.446674
4.307734 -11.578479 -0.65372527 0 0 0 0 58.451618
4.7231345 -10.682571 -0.45601153 0 0 0 0 58.461514
4.6760545 -11.154051 -0.55103928 0 0 0 0 58.466457
3.8463819 -8.6097116 -0.42017445 0 0 0 0 58.486248
3.4420173 -8.4926395 -0.56429833 0 0 0 0 58.496143
4.0873246 -8.6085196 -0.4219802 0 0 0 0 58.506039
3.8787272 -8.5413904 -0.50050497 0 0 0 0 58.510983
3.7018185 -8.5557728 -0.58515948 0 0 0 0 58.515926
4.5262361 -8.5882807 -0.34129837 0 0 0 0 58.520878
4.3216028 -8.5862255 -0.42276675 0 0 0 0 58.525822
4.142797 -8.5915842 -0.51241887 0 0 0 0 58.530773
3.9929128 -8.6624126 -0.61020148 0 0 0 0 58.535717
4.7840276 -8.6003571 -0.33621988 0 0 0 0 58.540668
4.5734515 -8.5912161 -0.42465228 0 0 0 0 58.545612
4.437191 -8.6832685 -0.52850926 0 0 0 0 58.550556
3.2309859 -6.5961313 -0.47219971 0 0 0 0 58.555508
5.0703454 -8.642889 -0.33131883 0 0 0 0 58.560452
4.8760366 -8.6750221 -0.43181843 0 0 0 0 58.565403
3.5947704 -6.6417542 -0.40586993 0 0 0 0 58.570347
3.3841007 -6.5175705 -0.48045012 0 0 0 0 58.575291
5.4045711 -8.7541885 -0.3296909 0 0 0 0 58.580242
3.920845 -6.611764 -0.3243593 0 0 0 0 58.585186
3.7518916 -6.5652552 -0.40915063 0 0 0 0 58.590137
3.5877662 -6.5288248 -0.49596453 0 0 0 0 58.595081
4.1239128 -6.6039939 -0.32589793 0 0 0 0 58.604977
3.9518919 -6.5584459 -0.41766438 0 0 0 0 58.609921
3.800313 -6.5472255 -0.51253897 0 0 0 0 58.614872
4.3407602 -6.6094494 -0.32952553 0 0 0 0 58.624767
4.1813245 -6.58711 -0.42835563 0 0 0 0 58.629711
4.0646715 -6.6384616 -0.53641051 0 0 0 0 58.634655
4.8088083 -6.7176943 -0.23291154 0 0 0 0 58.639606
4.5753856 -6.6291909 -0.33327106 0 0 0 0 58.64455
4.4763083 -6.7048292 -0.44742662 0 0 0 0 58.649502
4.2581034 -6.601563 -0.54991949 0 0 0 0 58.654446
4.8528199 -6.4643974 -0.21858336 0 0 0 0 58.659389
4.8306947 -6.6682673 -0.3391501 0 0 0 0 58.664341
4.6465635 -6.6195555 -0.45182788 0 0 0 0 58.669285
4.5072908 -6.6405649 -0.57175171 0 0 0 0 58.674236
4.9202623 -6.253376 -0.20630114 0 0 0 0 58.355396
4.9611053 -6.5242405 -0.33425421 0 0 0 0 58.36034
4.8532495 -6.5817742 -0.45937869 0 0 0 0 58.365292
3.2881382 -4.6002359 -0.40030852 0 0 0 0 58.370235
5.5909057 -6.7869158 -0.2226087 0 0 0 0 58.375179
4.9431434 -6.2009716 -0.32054999 0 0 0 0 58.380131
3.4520528 -4.5978413 -0.41353181 0 0 0 0 58.390026
5.8774915 -6.8134308 -0.21872254 0 0 0 0 58.39497
5.6393533 -6.7529488 -0.35602972 0 0 0 0 58.399914
3.6317949 -4.6057005 -0.42886198 0 0 0 0 58.409809
6.1072102 -6.7670598 -0.21351086 0 0 0 0 58.414761
4.1226215 -4.7090864 -0.24338907 0 0 0 0 58.419704
3.9587548 -4.6506929 -0.34224364 0 0 0 0 58.424656
3.8243878 -4.622766 -0.44527841 0 0 0 0 58.4296
6.4020123 -6.7797141 -0.20971122 0 0 0 0 58.434544
4.3077006 -4.7010207 -0.2467856 0 0 0 0 58.439495
4.1604767 -4.6618986 -0.3537389 0 0 0 0 58.444439
4.0800018 -4.6998334 -0.46909004 0 0 0 0 58.44939
4.5146055 -4.7043004 -0.25033295 0 0 0 0 58.459278
4.3898292 -4.6965432 -0.36641273 0 0 0 0 58.46423
4.2719502 -4.6938963 -0.48553711 0 0 0 0 58.469173
4.7776952 -4.758472 -0.25823694 0 0 0 0 58.479069
4.700089 -4.7984705 -0.38660726 0 0 0 0 58.484013
4.4689603 -4.6840429 -0.50202972 0 0 0 0 58.488964
5.22154 -4.8302565 -0.13347106 0 0 0 0 58.493908
5.0902929 -4.8434272 -0.26847491 0 0 0 0 58.498859
4.8816271 -4.758368 -0.39502701 0 0 0 0 58.503803
4.2302155 -4.2292829 -0.46784112 0 0 0 0 58.508755
5.4931054 -4.8585567 -0.13147968 0 0 0 0 58.513699
5.3725624 -4.8859096 -0.27654505 0 0 0 0 58.518642
5.1509485 -4.7936578 -0.41100886 0 0 0 0 58.523594
4.2814932 -4.0811214 -0.46742409 0 0 0 0 58.528538
5.7796836 -4.8860979 -0.12960546 0 0 0 0 58.533489
5.585103 -4.8482962 -0.28020051 0 0 0 0 58.538433
4.7737536 -4.2407241 -0.37291163 0 0 0 0 58.543377
4.2607346 -3.873822 -0.4605445 0 0 0 0 58.548328
6.1079822 -4.9313006 -0.1290251 0 0 0 0 58.553272
5.8579111 -4.8566384 -0.2872512 0 0 0 0 58.558224
4.8024583 -4.0672097 -0.36836243 0 0 0 0 58.563168
4.2832422 -3.7122083 -0.45793015 0 0 0 0 58.568111
6.4019246 -4.9359674 -0.12624387 0 0 0 0 58.573063
3.3319387 -2.7501292 -0.34604099 0 0 0 0 58.587902
6.7761211 -4.9879045 -0.12600815 0 0 0 0 58.592854
3.4435399 -2.7069285 -0.35493705 0 0 0 0 58.607693
3.6942084 -2.7087555 -0.26482084 0 0 0 0 58.622532
3.5541658 -2.661716 -0.36482987 0 0 0 0 58.627476
3.7644341 -2.6288984 -0.2664566 0 0 0 0 58.642323
3.6806805 -2.6237564 -0.37483448 0 0 0 0 58.647266
3.8445666 -2.5542023 -0.27016145 0 0 0 0 58.662106
3.7964172 -2.571629 -0.38477811 0 0 0 0 58.667057
5.4649987 -3.3896873 -0.22929804 0 0 0 0 58.676952
3.9742236 -2.5092914 -0.27620226 0 0 0 0 58.681896
3.9240673 -2.5246937 -0.39580652 0 0 0 0 58.68684
4.2188072 -2.5292096 -0.29202837 0 0 0 0 58.701687
4.0547733 -2.4738107 -0.40786493 0 0 0 0 58.706631
4.2729897 -2.3869028 -0.16562644 0 0 0 0 58.716526
4.2119684 -2.3921373 -0.28816196 0 0 0 0 58.72147
4.1746545 -2.4127564 -0.41785657 0 0 0 0 58.726421
4.3602529 -2.3063221 -0.16539845 0 0 0 0 58.736317
4.3160491 -2.3208292 -0.29304901 0 0 0 0 58.741261
4.2361336 -2.3157747 -0.42245483 0 0 0 0 58.746204
4.4891744 -2.2464058 -0.16846016 0 0 0 0 58.7561
4.4816751 -2.2765028 -0.30336848 0 0 0 0 58.761051
4.265902 -2.2022877 -0.42283529 0 0 0 0 58.765995
4.6221519 -2.1835549 -0.17055821 0 0 0 0 58.77589
4.6642365 -2.2364478 -0.31381294 0 0 0 0 58.780834
4.4374676 -2.1590657 -0.43919966 0 0 0 0 58.785786
4.7701049 -2.1219449 -0.17377016 0 0 0 0 58.795673
4.8092451 -2.1687987 -0.3220112 0 0 0 0 58.800625
4.2241707 -1.9327021 -0.41488492 0 0 0 0 58.805569
5.0420742 -2.0690608 -0.027908524 0 0 0 0 58.81052
4.940001 -2.0636866 -0.17814644 0 0 0 0 58.815464
4.8450823 -2.051415 -0.32244745 0 0 0 0 58.820415
4.2221098 -1.8097094 -0.41303703 0 0 0 0 58.825359
5.1861215 -1.9951878 -0.025222288 0 0 0 0 59.057682
5.1724296 -2.0242252 -0.1850854 0 0 0 0 59.062634
5.048667 -1.9984889 -0.33517629 0 0 0 0 59.067577
4.1999679 -1.6840606 -0.41008312 0 0 0 0 59.072529
5.3821192 -1.9343694 -0.023819732 0 0 0 0 59.077473
5.414135 -1.9781498 -0.19201478 0 0 0 0 59.082417
4.845089 -1.7892613 -0.31790093 0 0 0 0 59.087368
4.1958361 -1.5670347 -0.40821242 0 0 0 0 59.092312
5.6200171 -1.8802249 -0.022732982 0 0 0 0 59.097263
5.5655155 -1.8906294 -0.19530813 0 0 0 0 59.102207
4.7685499 -1.6370761 -0.31052428 0 0 0 0 59.107159
4.1856923 -1.4509128 -0.40629441 0 0 0 0 59.112103
5.9147863 -1.8349941 -0.021074994 0 0 0 0 59.117046
5.7836261 -1.8191848 -0.20209567 0 0 0 0 59.121998
4.7496238 -1.5078177 -0.30755982 0 0 0 0 59.126942
4.1924138 -1.3430625 -0.4054952 0 0 0 0 59.131893
6.3411617 -1.8148777 -0.021400755 0 0 0 0 59.136837
5.4694042 -1.5861925 -0.1870016 0 0 0 0 59.141781
4.7515545 -1.3868963 -0.30674487 0 0 0 0 59.146732
4.2021136 -1.2362616 -0.40571779 0 0 0 0 59.151676
5.4416757 -1.4448 -0.18398999 0 0 0 0 59.161572
4.7424974 -1.2657975 -0.3048456 0 0 0 0 59.166515
4.1829319 -1.122995 -0.40372658 0 0 0 0 59.171467
5.4308677 -1.3086782 -0.18110171 0 0 0 0 59.181362
4.7284603 -1.1436187 -0.30290943 0 0 0 0 59.186306
4.1856461 -1.0160807 -0.40289581 0 0 0 0 59.191257
5.4578495 -1.185166 -0.18048844 0 0 0 0 59.201145
4.7243447 -1.0265989 -0.30104294 0 0 0 0 59.206097
4.1912985 -0.91221696 -0.40408385 0 0 0 0 59.21104
5.4350185 -1.0508515 -0.17750518 0 0 0 0 59.220936
4.741117 -0.91591769 -0.30132958 0 0 0 0 59.22588
5.4231005 -0.92171365 -0.17559929 0 0 0 0 59.240726
5.4091711 -0.79354322 -0.17367658 0 0 0 0 59.260509
5.4171686 -0.66972679 -0.17291795 0 0 0 0 59.2803
5.1895828 -0.52210909 -0.16336472 0 0 0 0 59.300091
4.1599183 -0.32353827 -0.12465231 0 0 0 0 59.319874
4.0143266 -0.29939091 -0.24855989 0 0 0 0 59.324825
5.1845536 -0.29686505 0.0093556549 0 0 0 0 59.334721
4.2873292 -0.23563991 -0.12876566 0 0 0 0 59.339664
4.2445874 -0.21616474 -0.26446557 0 0 0 0 59.344608
5.2024264 -0.18220457 0.011050457 0 0 0 0 59.354504
4.4637837 -0.14453767 -0.13526636 0 0 0 0 59.359455
5.2602706 -0.069190823 0.011436148 0 0 0 0 59.374294
4.6263952 -0.044213835 -0.14067422 0 0 0 0 59.379238
4.8670702 0.044099297 0.014331608 0 0 0 0 59.394085
4.7721167 0.062380873 -0.14496122 0 0 0 0 59.399029
4.9398537 0.15287408 0.01460769 0 0 0 0 59.413868
5.0260181 0.18122008 -0.15410991 0 0 0 0 59.418819
5.0487547 0.26806557 0.015592405 0 0 0 0 59.433659
5.1039577 0.30090523 -0.15689072 0 0 0 0 59.438602
5.3650374 0.40490416 0.015927985 0 0 0 0 59.453442
5.3491573 0.43787715 -0.16600177 0 0 0 0 59.458393
5.3950629 0.52836418 0.016512994 0 0 0 0 59.473232
4.63901 0.48433995 -0.14053008 0 0 0 0 59.478184
5.4190927 0.65192074 0.017144164 0 0 0 0 59.493023
4.4193392 0.5638563 -0.13292912 0 0 0 0 59.497967
5.4571714 0.77824926 0.01766118 0 0 0 0 59.512806
4.2265534 0.63594127 -0.12552573 0 0 0 0 59.517757
5.4518886 0.90329486 0.017709466 0 0 0 0 59.25481
4.1095767 0.71458054 -0.12165146 0 0 0 0 59.259754
3.8575165 0.70943022 -0.24369776 0 0 0 0 59.264706
5.3449655 1.0586675 -0.1676949 0 0 0 0 59.279545
3.6534154 0.7596814 -0.23018713 0 0 0 0 59.284489
3.5307343 0.77546543 -0.34926182 0 0 0 0 59.28944
5.2436752 1.1632414 -0.16506393 0 0 0 0 59.299335
3.5374875 0.82251394 -0.22237507 0 0 0 0 59.304279
3.3806653 0.82685632 -0.3351683 0 0 0 0 59.309231
6.7130322 1.5798885 0.015967852 0 0 0 0 59.314175
5.2206335 1.2835577 -0.16506048 0 0 0 0 59.319118
3.4345281 0.88413751 -0.21666072 0 0 0 0 59.32407
3.2365165 0.873155 -0.3211121 0 0 0 0 59.329014
6.504674 1.6821654 0.01542525 0 0 0 0 59.333965
5.1925955 1.4039551 -0.16501825 0 0 0 0 59.338909
4.503386 1.2738208 -0.29549518 0 0 0 0 59.343853
3.1414833 0.92865992 -0.31244838 0 0 0 0 59.348804
6.2972131 1.7774336 0.015887655 0 0 0 0 59.353748
5.1795983 1.5271097 -0.16609654 0 0 0 0 59.3587
4.4730992 1.3782631 -0.29440925 0 0 0 0 59.363644
3.058434 0.98397106 -0.30587655 0 0 0 0 59.368587
6.1228142 1.8761744 0.016090631 0 0 0 0 59.373539
5.1967854 1.6617779 -0.16842531 0 0 0 0 59.378483
4.4518785 1.4875578 -0.29540023 0 0 0 0 59.383434
5.933218 1.9631617 0.01542984 0 0 0 0 59.39333
5.1587262 1.7803382 -0.16830246 0 0 0 0 59.398273
4.4396915 1.5987072 -0.29646403 0 0 0 0 59.403217
5.6801343 2.0201757 0.015306571 0 0 0 0 59.413113
5.4043293 2.0043175 -0.179533 0 0 0 0 59.418064
4.4104533 1.7061336 -0.29638985 0 0 0 0 59.423008
3.8672118 1.5617141 -0.40296456 0 0 0 0 59.427952
5.4620948 2.0796294 0.014909821 0 0 0 0 59.432903
5.2748232 2.0943542 -0.17665949 0 0 0 0 59.437847
4.404376 1.8241847 -0.29851064 0 0 0 0 59.442799
3.8468518 1.662002 -0.40394628 0 0 0 0 59.447742
5.2761483 2.1445704 0.014257827 0 0 0 0 59.452694
5.1442451 2.1794121 -0.17276938 0 0 0 0 59.457638
4.369112 1.9297097 -0.2983866 0 0 0 0 59.462582
3.8244944 1.7623228 -0.40491232 0 0 0 0 59.467533
5.109201 2.2092083 0.013460109 0 0 0 0 59.472477
5.0629463 2.2826734 -0.17228749 0 0 0 0 59.477428
4.3993354 2.0671716 -0.30381748 0 0 0 0 59.482372
3.7940841 1.8587755 -0.40481004 0 0 0 0 59.487316
4.9421577 2.2678514 0.012673275 0 0 0 0 59.492268
4.820395 2.3065484 -0.16443604 0 0 0 0 59.497211
4.5112863 2.251307 -0.31495166 0 0 0 0 59.502163
3.7707565 1.9611123 -0.406771 0 0 0 0 59.507107
4.791162 2.3292387 0.011759184 0 0 0 0 59.512051
4.6310954 2.3465648 -0.15902026 0 0 0 0 59.517002
4.4368429 2.3444688 -0.31250474 0 0 0 0 59.521946
3.7494874 2.0664177 -0.40775195 0 0 0 0 59.526897
4.630991 2.3797774 0.010933477 0 0 0 0 59.531841
4.4487228 2.3824716 -0.15465084 0 0 0 0 59.536793
4.3553052 2.431747 -0.30999348 0 0 0 0 59.541737
3.7423329 2.179493 -0.41085398 0 0 0 0 59.54668
4.2965417 2.4298942 -0.15053146 0 0 0 0 59.556576
4.2495623 2.5054214 -0.30527303 0 0 0 0 59.561527
3.7493906 2.3063362 -0.41608635 0 0 0 0 59.566471
4.1502957 2.4732234 -0.14645119 0 0 0 0 59.576366
4.0569234 2.5215127 -0.29379109 0 0 0 0 59.58131
3.7090271 2.4049542 -0.41590834 0 0 0 0 59.586262
4.0130572 2.5174086 -0.14344107 0 0 0 0 59.596149
3.8600991 2.5256772 -0.28125757 0 0 0 0 59.601101
3.700036 2.52806 -0.42000982 0 0 0 0 59.606045
3.8635948 2.5477941 -0.14031446 0 0 0 0 59.61594
3.6904094 2.5394011 -0.27194795 0 0 0 0 59.620892
3.6253567 2.6052415 -0.41553229 0 0 0 0 59.625835
3.5550001 2.5705719 -0.26392961 0 0 0 0 59.640675
3.4869387 2.6344664 -0.40448698 0 0 0 0 59.645626
3.4194696 2.5947452 -0.25689912 0 0 0 0 59.660465
3.3008511 2.6194768 -0.38600412 0 0 0 0 59.665409
5.9515324 4.3550467 -0.013230245 0 0 0 0 59.670361
4.8533564 3.7065723 -0.19570825 0 0 0 0 59.675304
3.3041403 2.6315928 -0.25104344 0 0 0 0 59.680256
3.1591897 2.6327634 -0.3729077 0 0 0 0 59.6852
5.8061075 4.4503498 -0.016234575 0 0 0 0 59.690144
4.8118029 3.8542027 -0.19759502 0 0 0 0 59.695095
3.1917794 2.6663942 -0.24520697 0 0 0 0 59.700039
3.0417054 2.658654 -0.36401749 0 0 0 0 59.70499
5.4853458 4.403502 -0.017660268 0 0 0 0 59.709934
4.7459297 3.9822292 -0.19926286 0 0 0 0 59.714878
2.9292538 2.6864657 -0.35516816 0 0 0 0 59.724773
5.6128163 4.7150092 -0.02243723 0 0 0 0 60.098682
4.7289548 4.1552873 -0.20359468 0 0 0 0 60.103634
2.8124442 2.7036159 -0.34524128 0 0 0 0 60.113529
3.9836087 3.8373358 -0.33119839 0 0 0 0 60.128368
2.7181563 2.741158 -0.33753568 0 0 0 0 60.133312
3.9490802 3.98487 -0.33513281 0 0 0 0 60.148151
2.6451328 2.7963452 -0.33402416 0 0 0 0 60.153103
3.8984246 4.1236744 -0.33692539 0 0 0 0 60.167942
3.3752887 3.7501411 -0.44321162 0 0 0 0 60.172894
3.8631201 4.2842255 -0.34087113 0 0 0 0 60.187733
3.3499026 3.9065311 -0.44822776 0 0 0 0 60.192677
4.8717942 5.1280003 -0.038142994 0 0 0 0 60.197628
3.84115 4.4655547 -0.34695283 0 0 0 0 60.207516
3.3062654 4.047225 -0.45207521 0 0 0 0 60.212467
5.0592475 5.5728655 -0.046282355 0 0 0 0 60.217411
3.2545824 4.1840568 -0.45385215 0 0 0 0 60.232258
4.8067055 5.5389981 -0.048217155 0 0 0 0 60.237202
3.7670617 4.8177199 -0.35685882 0 0 0 0 60.247097
3.2448728 4.3821878 -0.46305221 0 0 0 0 60.252041
4.326715 5.5086322 -0.23532996 0 0 0 0 60.261936
3.2006054 4.5448971 -0.46792445 0 0 0 0 60.271832
3.1565592 4.7206054 -0.47281629 0 0 0 0 60.291615
4.9774055 6.5940681 -0.073103815 0 0 0 0 60.296566
3.1238754 4.9191236 -0.48083144 0 0 0 0 60.311405
5.2490854 7.2915382 -0.08828482 0 0 0 0 60.316357
3.0421247 5.0504646 -0.4813562 0 0 0 0 60.331196
4.9878068 7.2728314 -0.091164686 0 0 0 0 60.33614
2.9965773 5.2562032 -0.48827684 0 0 0 0 60.350979
4.5907273 7.0273752 -0.091626674 0 0 0 0 60.35593
4.3760653 7.0459051 -0.095928244 0 0 0 0 60.375713
4.3433595 7.3604259 -0.10511442 0 0 0 0 60.395504
4.069036 7.3747191 -0.29592133 0 0 0 0 60.400455
4.1358852 7.3898458 -0.10948554 0 0 0 0 60.415295
3.8118894 7.2999773 -0.28974178 0 0 0 0 60.420238
3.8889661 7.332922 -0.11241339 0 0 0 0 60.435078
3.5710568 7.2439704 -0.28371751 0 0 0 0 60.440029
3.7110589 7.3968577 -0.11906751 0 0 0 0 60.454868
3.4428854 7.4100914 -0.28891608 0 0 0 0 60.45982
3.2054834 7.4618373 -0.44406712 0 0 0 0 60.464764
3.5021322 7.399313 -0.12338135 0 0 0 0 60.474659
3.2691278 7.4799747 -0.289608 0 0 0 0 60.479603
3.0203729 7.5079217 -0.43863153 0 0 0 0 60.484554
2.3929276 6.5112095 -0.5111388 0 0 0 0 60.489498
3.3044057 7.4135876 -0.12780021 0 0 0 0 60.494442
3.0705006 7.4972773 -0.28802189 0 0 0 0 60.499393
2.4115715 6.4150829 -0.36414996 0 0 0 0 60.504337
2.3513331 6.8959012 -0.5303387 0 0 0 0 60.509289
3.1316433 7.4854531 -0.1335005 0 0 0 0 60.514233
2.8758733 7.5145168 -0.28646579 0 0 0 0 60.519176
2.3477356 6.7221513 -0.37505984 0 0 0 0 60.524128
2.2138009 7.0372076 -0.52841574 0 0 0 0 60.529072
2.9410942 7.5106153 -0.13898844 0 0 0 0 60.534023
2.6884055 7.5416412 -0.28597948 0 0 0 0 60.538967
2.4438205 7.5715547 -0.41803372 0 0 0 0 60.543919
1.8516269 6.4022851 -0.46657047 0 0 0 0 60.548862
2.7534773 7.531733 -0.14449224 0 0 0 0 60.553806
2.4967113 7.554841 -0.28443685 0 0 0 0 60.558758
1.9988695 6.7159891 -0.36120397 0 0 0 0 60.563702
2.0066497 7.6206932 -0.54754215 0 0 0 0 60.568653
2.5613747 7.5393543 -0.14892931 0 0 0 0 60.334599
2.3109305 7.5793319 -0.2849656 0 0 0 0 60.33955
2.0631635 7.5922861 -0.40498459 0 0 0 0 60.344494
1.8187329 7.6301742 -0.53506482 0 0 0 0 60.349445
2.3779562 7.5723848 -0.15449297 0 0 0 0 60.354389
2.1242006 7.5904284 -0.28346986 0 0 0 0 60.359341
1.8785653 7.6093574 -0.39951244 0 0 0 0 60.364285
1.6311501 7.645308 -0.52356392 0 0 0 0 60.369228
2.1921201 7.5804563 -0.16000001 0 0 0 0 60.37418
1.9396052 7.6104918 -0.28400165 0 0 0 0 60.379124
1.6991848 7.6393476 -0.39409831 0 0 0 0 60.384075
1.449676 7.6673436 -0.51311976 0 0 0 0 60.389019
2.0063341 7.5915322 -0.16550934 0 0 0 0 60.393963
1.7590344 7.6314945 -0.28356504 0 0 0 0 60.398914
0.93844289 4.7149162 -0.22784029 0 0 0 0 60.403858
1.2659597 7.6744213 -0.5016343 0 0 0 0 60.40881
1.8278412 7.620491 -0.1721005 0 0 0 0 60.413754
0.97052062 4.684463 -0.16204689 0 0 0 0 60.418697
1.3275303 7.6455526 -0.38208374 0 0 0 0 60.423649
0.97373748 6.9122953 -0.43718982 0 0 0 0 60.428593
1.6430224 7.6295595 -0.17761032 0 0 0 0 60.433544
1.2901955 7.0862722 -0.25998977 0 0 0 0 60.438488
1.0523624 7.0181231 -0.34296536 0 0 0 0 60.443439
0.71805459 6.1245565 -0.37500131 0 0 0 0 60.448383
1.4073309 7.3454576 -0.17529462 0 0 0 0 60.453327
1.1157862 7.0571804 -0.25852531 0 0 0 0 60.458279
0.78630239 6.2155352 -0.29567125 0 0 0 0 60.463223
0.65463471 7.0106606 -0.42371559 0 0 0 0 60.468174
1.1889825 7.0820718 -0.17314543 0 0 0 0 60.473118
0.87338752 6.4841914 -0.2357443 0 0 0 0 60.478062
0.73054498 7.1375246 -0.33849853 0 0 0 0 60.483013
0.49905336 7.1492882 -0.42163324 0 0 0 0 60.487957
0.97022206 6.7336917 -0.16787066 0 0 0 0 60.492908
0.67555118 6.0664721 -0.21853936 0 0 0 0 60.497852
0.56484789 7.1493082 -0.33415616 0 0 0 0 60.502804
0.26672718 5.7131352 -0.322716 0 0 0 0 60.507748
0.73897487 6.1155014 -0.15411279 0 0 0 0 60.512691
0.62842309 7.2043447 -0.26473927 0 0 0 0 60.517643
0.39831147 7.1711102 -0.33081892 0 0 0 0 60.522587
0.12011629 5.0575762 -0.27558705 0 0 0 0 60.527538
0.69456649 7.1723309 -0.19122182 0 0 0 0 60.532482
0.45646548 7.1422257 -0.26223996 0 0 0 0 60.537426
0.16599023 5.0798845 -0.2219779 0 0 0 0 60.542377
0.0013677694 5.1885886 -0.2767868 0 0 0 0 60.547321
0.52403182 7.1391802 -0.19677454 0 0 0 0 60.552273
0.21442862 5.2021403 -0.18353076 0 0 0 0 60.557217
0.049108844 5.2038627 -0.22518289 0 0 0 0 60.56216
-0.12192214 5.224679 -0.27081484 0 0 0 0 60.567112
0.35813656 7.143961 -0.20241615 0 0 0 0 60.572056
0.092621803 5.1501851 -0.18144843 0 0 0 0 60.577007
-0.071424559 5.2269001 -0.22221494 0 0 0 0 60.581951
-0.26032466 5.5590415 -0.28313735 0 0 0 0 60.586903
0.14283997 5.2003989 -0.14391513 0 0 0 0 60.591846
-0.028575325 5.2562337 -0.18659158 0 0 0 0 60.59679
-0.27523276 7.2334843 -0.31535423 0 0 0 0 60.601742
-0.51328558 7.2574253 -0.3694413 0 0 0 0 60.606686
0.024490524 6.5615096 -0.19484581 0 0 0 0 60.611637
-0.15151139 5.2573066 -0.18757154 0 0 0 0 60.616581
-0.44725791 7.2864013 -0.31400564 0 0 0 0 60.621525
-0.68340385 7.2413177 -0.35900927 0 0 0 0 60.626476
-0.098752812 5.2224612 -0.15293917 0 0 0 0 60.63142
-0.29117253 5.5766902 -0.2018611 0 0 0 0 60.636372
-0.61660266 7.2592721 -0.30856425 0 0 0 0 60.641315
-0.85148019 7.228178 -0.34959599 0 0 0 0 60.646267
-0.22606155 5.3236132 -0.16202258 0 0 0 0 60.651211
-0.55587161 7.2803054 -0.27307501 0 0 0 0 60.656155
-0.78828692 7.2721891 -0.30515793 0 0 0 0 60.661106
-0.96237946 6.8010497 -0.31806546 0 0 0 0 60.66605
-0.48540372 7.2861691 -0.23864479 0 0 0 0 60.671001
-0.72446108 7.241159 -0.2726205 0 0 0 0 60.675945
-0.76691794 5.8387327 -0.23629282 0 0 0 0 60.680889
-0.92299134 5.6053238 -0.24968094 0 0 0 0 60.685841
-0.65588963 7.2560472 -0.24418728 0 0 0 0 60.690784
-0.69921499 5.6856103 -0.20861508 0 0 0 0 60.695736
-0.87435418 5.6265478 -0.22409166 0 0 0 0 60.70068
-1.0477058 5.5554528 -0.24056546 0 0 0 0 60.705624
-0.82855254 7.27597 -0.25278035 0 0 0 0 60.710575
-0.99999964 5.5826879 -0.21897689 0 0 0 0 60.72047
-1.1844089 5.5667925 -0.23443636 0 0 0 0 60.725414
-0.95478165 5.5859456 -0.20733494 0 0 0 0 60.73531
-1.1090505 5.4545417 -0.21087776 0 0 0 0 60.740253
-1.9564159 8.2151175 -0.34981146 0 0 0 0 60.745205
-1.0675343 5.4778581 -0.20423356 0 0 0 0 60.7551
-1.8940148 8.2831106 -0.33139914 0 0 0 0 60.760044
-1.2266065 5.5915775 -0.21106321 0 0 0 0 60.774883
-1.9942095 8.139843 -0.32332602 0 0 0 0 60.794674
-1.9385133 8.2390985 -0.33266598 0 0 0 0 60.985561
-3.7589273 8.4025059 -0.42751247 0 0 0 0 61.143864
-4.8764725 7.9421239 -0.28037602 0 0 0 0 61.213123
-5.1365271 7.8397546 -0.19204134 0 0 0 0 61.218067
-5.0779357 7.8506594 -0.27451462 0 0 0 0 61.232906
-5.2900229 7.6844673 -0.17848767 0 0 0 0 61.237858
-5.0441108 7.8829699 -0.37281236 0 0 0 0 61.247753
-5.2256575 7.6852617 -0.26699466 0 0 0 0 61.252697
-5.5451488 7.6689577 -0.168281 0 0 0 0 61.257648
-5.0062757 7.9201965 -0.48015147 0 0 0 0 61.262592
-5.1803808 7.6873655 -0.36834466 0 0 0 0 61.267536
-5.4662437 7.6464872 -0.26387593 0 0 0 0 61.272488
-5.710371 7.5298848 -0.15464748 0 0 0 0 61.277431
-5.1348767 7.7084475 -0.48172468 0 0 0 0 61.282383
-5.414175 7.640461 -0.37327069 0 0 0 0 61.287327
-5.6843987 7.5743265 -0.25989443 0 0 0 0 61.292271
-5.7395682 7.2164378 -0.13790244 0 0 0 0 61.297222
-5.3707647 7.6595697 -0.49362975 0 0 0 0 61.302166
-5.6549954 7.5916853 -0.37713209 0 0 0 0 61.307117
-5.7068334 7.2487555 -0.24618876 0 0 0 0 61.312061
-5.7772431 6.9341416 -0.12213006 0 0 0 0 61.317013
-5.6292763 7.634089 -0.50837553 0 0 0 0 61.321957
-5.6873612 7.2722807 -0.36735195 0 0 0 0 61.3269
-5.7515779 6.9645748 -0.23435435 0 0 0 0 61.331852
-5.8058915 6.6536894 -0.10643522 0 0 0 0 61.336796
-5.6550283 7.2935634 -0.5006206 0 0 0 0 61.341747
-5.7263265 6.9769936 -0.35855004 0 0 0 0 61.346691
-5.7774196 6.6750665 -0.22267015 0 0 0 0 61.351635
-5.8373199 6.3872852 -0.092736445 0 0 0 0 61.356586
-5.6911783 6.9892206 -0.49482942 0 0 0 0 61.36153
-5.7552652 6.6835337 -0.34983414 0 0 0 0 61.366482
-5.8059807 6.402607 -0.21198681 0 0 0 0 61.371426
-5.871459 6.1379313 -0.079038538 0 0 0 0 61.376369
-5.7182941 6.6867237 -0.48811582 0 0 0 0 61.381321
-5.779047 6.3999839 -0.34217507 0 0 0 0 61.386265
-5.8373389 6.1421981 -0.20129643 0 0 0 0 61.391216
-5.8936143 5.8883681 -0.066440374 0 0 0 0 61.39616
-5.7441483 6.4002066 -0.48243505 0 0 0 0 61.401112
-5.8115034 6.1355886 -0.33446971 0 0 0 0 61.406055
-5.8615751 5.8896656 -0.1916766 0 0 0 0 61.410999
-5.9166708 5.6448221 -0.053842612 0 0 0 0 61.415951
-5.7776504 6.1348243 -0.47771952 0 0 0 0 61.420895
-5.839776 5.882123 -0.32681447 0 0 0 0 61.425846
-5.8876772 5.6451674 -0.18205187 0 0 0 0 61.43079
-5.9434457 5.4183431 -0.04223742 0 0 0 0 61.435734
-5.8129759 5.8804746 -0.47400367 0 0 0 0 61.440685
-5.8639417 5.6355858 -0.32020313 0 0 0 0 61.445629
-5.9224439 5.4208221 -0.17338236 0 0 0 0 61.450581
-5.177916 4.5089655 -0.022332134 0 0 0 0 61.455524
-5.8343287 5.6239958 -0.47008651 0 0 0 0 61.205601
-5.9018097 5.4053893 -0.31519151 0 0 0 0 61.210552
-5.1508532 4.4995732 -0.14015508 0 0 0 0 61.215496
-5.5676656 4.6280036 -0.016836977 0 0 0 0 61.22044
-5.8692889 5.3896379 -0.46740606 0 0 0 0 61.225391
-5.166595 4.5146952 -0.26601222 0 0 0 0 61.230335
-5.5783453 4.6480374 -0.14574169 0 0 0 0 61.235287
-6.0723567 4.8178329 -0.01083324 0 0 0 0 61.240231
-5.2060184 4.5552087 -0.40570787 0 0 0 0 61.245174
-5.5992208 4.6612329 -0.28355154 0 0 0 0 61.250126
-6.0861692 4.836904 -0.15370856 0 0 0 0 61.25507
-10.136777 7.667645 -0.020822955 0 0 0 0 61.260021
-5.6387949 4.6997304 -0.43724144 0 0 0 0 61.264965
-6.0983791 4.8369317 -0.30457026 0 0 0 0 61.269917
-10.087262 7.6344981 -0.26014012 0 0 0 0 61.27486
-10.174234 7.3393922 -0.0049604014 0 0 0 0 61.279804
-6.1224189 4.8551407 -0.47235933 0 0 0 0 61.284756
-10.043145 7.5844216 -0.51138872 0 0 0 0 61.2897
-10.125829 7.3022571 -0.24826261 0 0 0 0 61.294651
-10.210615 7.0161219 0.010886988 0 0 0 0 61.299595
-9.9981041 7.5393 -0.78165323 0 0 0 0 61.304539
-10.084871 7.2452283 -0.50347477 0 0 0 0 61.30949
-10.16821 6.9820814 -0.23836951 0 0 0 0 61.314434
-6.0872054 3.9853137 0.027706429 0 0 0 0 61.319386
-10.030018 7.1909285 -0.77680844 0 0 0 0 61.324329
-10.130352 6.9211006 -0.49654987 0 0 0 0 61.329281
-6.0589104 3.9566355 -0.12245347 0 0 0 0 61.334225
-10.072713 6.8567452 -0.77389264 0 0 0 0 61.34412
-6.0447001 3.9261913 -0.27849299 0 0 0 0 61.349064
-0.32513922 -0.0092680212 0.0061295526 0 0 0 0 62.221447
-0.32197306 -0.059336614 0.00631447 0 0 0 0 62.340176
-0.33941656 -0.09799166 0.030629126 0 0 0 0 62.429226
-0.32116482 -0.12936944 0.0055960692 0 0 0 0 62.498478
-0.35443914 -0.15075143 0.017949043 0 0 0 0 62.523212
-0.36323139 -0.15155141 0.043040082 0 0 0 0 62.533108
-0.33975062 -0.15603453 0.0045633838 0 0 0 0 62.299229
-0.36641386 -0.20752177 0.030978054 0 0 0 0 62.388271
-0.33545497 -0.20410091 0.017719761 0 0 0 0 62.403111
-9.4382257 -6.3639922 -0.74449354 0 0 0 0 62.457531
-9.4994926 -6.2931933 -0.345025 0 0 0 0 62.462475
-9.565279 -6.2333746 0.017498152 0 0 0 0 62.467426
-9.6210222 -6.1717348 0.38093087 0 0 0 0 62.47237
-9.0359306 -6.4161158 -0.71785349 0 0 0 0 62.477322
-9.2147732 -6.4232321 -0.3352409 0 0 0 0 62.482265
-9.3868265 -6.4285164 0.019308966 0 0 0 0 62.487209
-9.5649605 -6.4426756 0.38292617 0 0 0 0 62.492161
-8.6505232 -6.4609461 -0.69308126 0 0 0 0 62.497105
-8.8152828 -6.4583325 -0.32160634 0 0 0 0 62.502056
-8.9844217 -6.462687 0.020916615 0 0 0 0 62.507
-9.1444187 -6.4631925 0.37135461 0 0 0 0 62.511951
-8.2638369 -6.4908042 -0.66734707 0 0 0 0 62.516895
-8.4317265 -6.4891543 -0.30884334 0 0 0 0 62.521839
-8.6020126 -6.4965057 0.022694193 0 0 0 0 62.526791
-8.7661133 -6.4969554 0.36116803 0 0 0 0 62.531734
-7.9031911 -6.5212059 -0.64438844 0 0 0 0 62.536686
-8.0712109 -6.5215702 -0.29688051 0 0 0 0 62.54163
-8.2496805 -6.5337911 0.023736147 0 0 0 0 62.546574
-8.4027596 -6.5284543 0.35210478 0 0 0 0 62.551525
-7.5646214 -6.5552182 -0.62223506 0 0 0 0 62.556469
-7.7266192 -6.549706 -0.28478858 0 0 0 0 62.56142
-7.8869624 -6.5502682 0.025651766 0 0 0 0 62.566364
-8.0553322 -6.5556731 0.34317064 0 0 0 0 62.571316
-7.2359872 -6.5850596 -0.60100472 0 0 0 0 62.57626
-7.3919811 -6.5746708 -0.27361819 0 0 0 0 62.581203
-7.5574546 -6.5771565 0.025870202 0 0 0 0 62.586155
-7.7249103 -6.5825934 0.33338124 0 0 0 0 62.591099
-7.0424728 -6.7244945 -0.59142828 0 0 0 0 62.59605
-7.0936265 -6.6139903 -0.26411155 0 0 0 0 62.600994
-7.2500243 -6.6086516 0.027285647 0 0 0 0 62.605938
-7.4094596 -6.6082478 0.32471764 0 0 0 0 62.610889
-7.0884914 -7.0996614 -0.60439724 0 0 0 0 62.615833
-7.1383004 -6.9741654 -0.2691139 0 0 0 0 62.620785
-7.170372 -6.8450522 0.028006544 0 0 0 0 62.625729
-7.2056313 -6.7238908 0.32016671 0 0 0 0 62.630672
-7.1217046 -7.4860592 -0.61546111 0 0 0 0 62.635624
-7.1660323 -7.337646 -0.27325943 0 0 0 0 62.640568
-7.2070107 -7.2053633 0.027935194 0 0 0 0 62.645519
-7.2460141 -7.0731211 0.32611239 0 0 0 0 62.650463
-7.1563268 -7.8934379 -0.62848049 0 0 0 0 62.655415
-7.2125692 -7.7437944 -0.27917498 0 0 0 0 62.660358
-7.2398682 -7.5777431 0.028849453 0 0 0 0 62.665302
-7.2786336 -7.4344954 0.3310087 0 0 0 0 62.670254
-7.2005486 -8.3326464 -0.64236689 0 0 0 0 62.675198
-7.2451472 -8.152195 -0.28420907 0 0 0 0 62.680149
-7.2885227 -7.9928427 0.02896753 0 0 0 0 62.685093
-7.3268328 -7.8275895 0.33709055 0 0 0 0 62.690037
-7.253562 -8.8137054 -0.65811235 0 0 0 0 62.694988
-7.2894421 -8.5983906 -0.29108268 0 0 0 0 62.699932
-7.3242455 -8.4111776 0.028977485 0 0 0 0 62.704884
-7.3622718 -8.2329178 0.34207913 0 0 0 0 62.709827
-7.2896919 -9.3010702 -0.6729961 0 0 0 0 62.714779
-7.3425312 -9.0874329 -0.29781356 0 0 0 0 62.719723
-7.3829403 -8.8821011 0.029269673 0 0 0 0 62.724667
-7.414402 -8.6759462 0.34827238 0 0 0 0 62.729618
-7.3295979 -9.8293762 -0.68978453 0 0 0 0 62.734562
-7.3961511 -9.6044693 -0.30549678 0 0 0 0 62.739513
-7.4156523 -9.3534985 0.029334318 0 0 0 0 62.744457
-7.4598904 -9.1380978 0.35443667 0 0 0 0 62.749401
-7.3742375 -10.396602 -0.70747185 0 0 0 0 62.754353
-7.4370971 -10.13874 -0.313265 0 0 0 0 62.759296
-7.4816279 -9.8932991 0.029796254 0 0 0 0 62.764248
-7.5048838 -9.6272621 0.36063811 0 0 0 0 62.769192
-7.437624 -11.036547 -0.72981822 0 0 0 0 62.530766
-7.5142789 -10.769428 -0.3235057 0 0 0 0 62.535717
-7.5356007 -10.458393 0.028254095 0 0 0 0 62.540661
-7.5563416 -10.164392 0.36703348 0 0 0 0 62.545612
-7.4632688 -11.662132 -0.74859166 0 0 0 0 62.550556
-7.547441 -11.373854 -0.3312436 0 0 0 0 62.555508
-7.5804863 -11.05159 0.028602937 0 0 0 0 62.560452
-7.6015182 -10.721567 0.37333184 0 0 0 0 62.565395
-7.085464 -11.679863 -0.72680742 0 0 0 0 62.570347
-7.3599801 -11.674214 -0.33036909 0 0 0 0 62.575291
-7.6179047 -11.672929 0.02792928 0 0 0 0 62.580242
-7.6680832 -11.355363 0.38193333 0 0 0 0 62.585186
-6.8095665 -11.851797 -0.71490377 0 0 0 0 62.59013
-7.0325203 -11.759072 -0.3220467 0 0 0 0 62.595081
-7.2595301 -11.70335 0.026899798 0 0 0 0 62.600025
-7.5266023 -11.707903 0.38028899 0 0 0 0 62.604977
-6.9927893 -11.87814 0.026886631 0 0 0 0 62.619816
-7.1948543 -11.767869 0.36953408 0 0 0 0 62.62476
-6.5041261 -12.474337 0.35371447 0 0 0 0 62.684124
-6.1743722 -12.533295 0.34296176 0 0 0 0 62.703915
-5.8640809 -12.61791 0.33341518 0 0 0 0 62.723705
-4.046978 -12.721454 -0.57939488 0 0 0 0 62.768223
-4.2181826 -12.683786 0.27625573 0 0 0 0 62.822643
-2.9359417 -12.144419 -0.49993587 0 0 0 0 62.827587
-2.6219301 -12.094098 -0.48074794 0 0 0 0 62.847378
-2.9191709 -12.174229 -0.21796794 0 0 0 0 62.852322
-2.3378508 -12.146262 -0.46714538 0 0 0 0 62.867168
-2.6100972 -12.11484 -0.21075273 0 0 0 0 62.872112
-2.871774 -12.144678 0.010636987 0 0 0 0 62.877056
-2.03931 -12.120679 -0.44979084 0 0 0 0 62.886951
-2.3237865 -12.151059 -0.20419635 0 0 0 0 62.891903
