# .PCD v0.7 - Point Cloud Data file format
VERSION 0.7
FIELDS x y z normal_x normal_y normal_z intensity curvature
SIZE 4 4 4 4 4 4 4 4
TYPE F F F F F F F F
COUNT 1 1 1 1 1 1 1 1
WIDTH 964
HEIGHT 1
VIEWPOINT 0 0 0 1 0 0 0
POINTS 964
DATA ascii
-3.7106848 -5.1972814 0.56133246 0 0 0 0 38.444279
-3.9027143 -5.3013201 0.75627851 0 0 0 0 38.449226
-4.0997496 -5.4063582 0.96522248 0 0 0 0 38.454174
-3.2176535 -4.9101639 0.34750664 0 0 0 0 38.459118
-3.399684 -5.0052004 0.53545511 0 0 0 0 38.464066
-3.5687156 -5.0882335 0.71640652 0 0 0 0 38.469013
-3.7657428 -5.2032743 0.91435224 0 0 0 0 38.473961
-2.9496512 -4.7450914 0.33561748 0 0 0 0 38.478909
-3.1186793 -4.834125 0.51257008 0 0 0 0 38.483852
-3.2937021 -4.9321623 0.68552178 0 0 0 0 38.4888
-3.4657328 -5.0231962 0.8694731 0 0 0 0 38.493748
-2.7336285 -4.6450334 0.32872009 0 0 0 0 38.498695
-2.8676713 -4.6820564 0.49267688 0 0 0 0 38.503643
-3.031692 -4.7750916 0.65563208 0 0 0 0 38.508591
-3.1967204 -4.8611255 0.82958531 0 0 0 0 38.513535
-2.4776411 -4.4529572 0.31582177 0 0 0 0 38.518482
-2.6366622 -4.5409913 0.47477806 0 0 0 0 38.52343
-2.7936802 -4.6310258 0.62873548 0 0 0 0 38.528378
-2.9527044 -4.7180595 0.79369134 0 0 0 0 38.533325
-2.2736318 -4.3278966 0.30791539 0 0 0 0 38.538273
-2.4166565 -4.3969264 0.45687449 0 0 0 0 38.543217
-2.5676718 -4.4869609 0.60383439 0 0 0 0 38.548164
-2.7286885 -4.5839972 0.7607913 0 0 0 0 38.553112
-2.0846212 -4.2118392 0.30000496 0 0 0 0 38.55806
-2.2256424 -4.2828698 0.44296515 0 0 0 0 38.563007
-2.3716545 -4.3729038 0.58292711 0 0 0 0 38.567955
-2.5136755 -4.4479346 0.7288875 0 0 0 0 38.572899
-1.9106094 -4.1047845 0.29409036 0 0 0 0 38.577847
-2.0506246 -4.1838164 0.4310526 0 0 0 0 38.582794
-2.188637 -4.2648487 0.56301606 0 0 0 0 38.587742
-2.3226571 -4.3348784 0.70197868 0 0 0 0 38.59269
-1.7545907 -4.018734 0.28917295 0 0 0 0 38.597633
-1.8786137 -4.0717611 0.41813636 0 0 0 0 38.602581
-2.0106237 -4.1507931 0.54310191 0 0 0 0 38.607529
-2.1446383 -4.2278247 0.67606598 0 0 0 0 38.612476
-1.6035757 -3.9276836 0.28425267 0 0 0 0 38.617424
-1.7295915 -3.992713 0.4082177 0 0 0 0 38.622372
-1.8486071 -4.0517411 0.52618444 0 0 0 0 38.627316
-1.9806184 -4.1297731 0.65314949 0 0 0 0 38.632263
-1.4635587 -3.8456352 0.28032988 0 0 0 0 38.637211
-1.5795788 -3.893662 0.39729539 0 0 0 0 38.642159
-1.7005864 -3.9666922 0.51126432 0 0 0 0 38.647106
-1.8235991 -4.0347219 0.63123101 0 0 0 0 38.652054
-1.3495209 -3.8155954 0.27940789 0 0 0 0 38.656998
-1.4445591 -3.8156152 0.3883715 0 0 0 0 38.661945
-1.5585681 -3.8796437 0.49634138 0 0 0 0 38.666893
-1.6805775 -3.9506745 0.61230916 0 0 0 0 38.671841
-1.2814262 -3.9215722 0.28949788 0 0 0 0 38.676788
-1.3574928 -3.8545849 0.39245391 0 0 0 0 38.681736
-1.4285464 -3.805598 0.48441646 0 0 0 0 38.68668
-1.5375618 -3.854625 0.59138477 0 0 0 0 38.691628
-1.212328 -4.0325475 0.30059096 0 0 0 0 38.696575
-1.2913982 -3.9585614 0.40254346 0 0 0 0 38.701523
-1.3594613 -3.8875742 0.49150163 0 0 0 0 38.70647
-1.425522 -3.8225856 0.58046204 0 0 0 0 38.711418
-1.1432219 -4.1575208 0.31268895 0 0 0 0 38.716362
-1.2222995 -4.0685353 0.41363728 0 0 0 0 38.72131
-1.2963629 -3.9985507 0.50259244 0 0 0 0 38.726257
-1.3624301 -3.9205627 0.59054917 0 0 0 0 38.731205
-1.0679493 -4.2813654 0.32425046 0 0 0 0 38.432072
-1.1550101 -4.1943784 0.42620552 0 0 0 0 38.437019
-1.228065 -4.1083899 0.51416641 0 0 0 0 38.441967
-1.2991191 -4.0244012 0.60012811 0 0 0 0 38.446915
-0.99085236 -4.413343 0.33734459 0 0 0 0 38.451859
-1.0789194 -4.3113565 0.43929577 0 0 0 0 38.456806
-1.1559784 -4.2133698 0.52425206 0 0 0 0 38.461754
-1.23403 -4.1403832 0.6122126 0 0 0 0 38.466702
-0.90975064 -4.5533171 0.35144371 0 0 0 0 38.471649
-1.000825 -4.4333324 0.45238939 0 0 0 0 38.476597
-1.0848825 -4.344348 0.53934401 0 0 0 0 38.481541
-1.1659392 -4.2573628 0.62529999 0 0 0 0 38.486488
-0.82064986 -4.6862864 0.36654657 0 0 0 0 38.491436
-0.92272079 -4.5783062 0.46748936 0 0 0 0 38.496384
-1.0067866 -4.4673228 0.55243891 0 0 0 0 38.501331
-1.0908471 -4.3713388 0.63739127 0 0 0 0 38.506279
-0.73053926 -4.8402538 0.38265604 0 0 0 0 38.511223
-0.83761364 -4.7272758 0.48459497 0 0 0 0 38.516171
-0.92968154 -4.6122956 0.56853962 0 0 0 0 38.521118
-1.016746 -4.5073137 0.65248823 0 0 0 0 38.526066
-0.63542235 -5.0062175 0.40077221 0 0 0 0 38.531013
-0.74650842 -4.8642411 0.50070256 0 0 0 0 38.535961
-0.84457731 -4.7492638 0.58464396 0 0 0 0 38.540905
-0.93764484 -4.6382847 0.66758806 0 0 0 0 38.545853
-0.53030807 -5.1591749 0.41889206 0 0 0 0 38.5508
-0.65239137 -5.0272036 0.51881891 0 0 0 0 38.555748
-0.75446743 -4.8962283 0.60175443 0 0 0 0 38.560696
-0.85453868 -4.7762532 0.68269283 0 0 0 0 38.565639
-0.42417049 -5.3681293 0.44202679 0 0 0 0 38.570587
-0.55127394 -5.186161 0.53793961 0 0 0 0 38.575535
-0.66035265 -5.0501895 0.61987013 0 0 0 0 38.580482
-0.76442999 -4.9162164 0.69880295 0 0 0 0 38.58543
-0.30803886 -5.5530772 0.46316314 0 0 0 0 38.590378
-0.44414261 -5.3761134 0.56107205 0 0 0 0 38.595322
-0.5602318 -5.2151456 0.63999307 0 0 0 0 38.600269
-0.671314 -5.0701766 0.71691948 0 0 0 0 38.605217
-0.18289454 -5.7650189 0.48831216 0 0 0 0 38.610165
-0.3320027 -5.5800614 0.58521235 0 0 0 0 38.615112
-0.45510265 -5.3950973 0.6621238 0 0 0 0 38.62006
-0.57219166 -5.2351317 0.73704332 0 0 0 0 38.625004
-0.047825273 -5.7809582 0.49642271 0 0 0 0 38.629951
-0.20786056 -5.7830019 0.61036044 0 0 0 0 38.634899
-0.34196943 -5.5780439 0.68426126 0 0 0 0 38.639847
-0.4690575 -5.4240823 0.76017672 0 0 0 0 38.644794
0.085198179 -5.6858974 0.4965072 0 0 0 0 38.649742
-0.074797764 -5.780941 0.61446649 0 0 0 0 38.654686
-0.22281541 -5.8079839 0.71341503 0 0 0 0 38.659634
-0.35692087 -5.6120276 0.78331631 0 0 0 0 38.664581
0.2172296 -5.6138344 0.49859712 0 0 0 0 38.669529
0.057234373 -5.7038798 0.61055499 0 0 0 0 38.674477
-0.088755563 -5.7949219 0.71251959 0 0 0 0 38.67942
-0.23777761 -5.8089671 0.80746388 0 0 0 0 38.684368
0.34326077 -5.5427728 0.4996849 0 0 0 0 38.689316
0.18826152 -5.6188173 0.60664147 0 0 0 0 38.694263
0.042272273 -5.7058611 0.70360494 0 0 0 0 38.699211
-0.10471635 -5.7979045 0.80456901 0 0 0 0 38.704159
0.46728793 -5.4657092 0.50077075 0 0 0 0 38.709103
0.3132906 -5.5417552 0.60372758 0 0 0 0 38.71405
0.17130156 -5.6227994 0.69469118 0 0 0 0 38.718998
0.025313126 -5.7088447 0.78965402 0 0 0 0 38.723946
0.58831137 -5.3846455 0.50285453 0 0 0 0 38.728893
0.4363209 -5.4696922 0.60081428 0 0 0 0 38.733841
0.29633293 -5.5487366 0.68777817 0 0 0 0 38.738785
0.15334468 -5.6287827 0.77674073 0 0 0 0 38.743732
0.70333105 -5.2975826 0.50393414 0 0 0 0 38.74868
0.55734897 -5.3966279 0.59890026 0 0 0 0 38.753628
0.41836217 -5.4716744 0.67986333 0 0 0 0 38.758575
0.27837849 -5.5577197 0.76582873 0 0 0 0 38.763523
0.81936169 -5.2375169 0.50702161 0 0 0 0 38.768467
0.67237139 -5.3125653 0.59498072 0 0 0 0 38.773415
0.53839171 -5.39961 0.67394924 0 0 0 0 38.778362
0.39940923 -5.482657 0.7549141 0 0 0 0 38.78331
0.93238372 -5.1614509 0.50910378 0 0 0 0 38.788258
0.78740013 -5.2465 0.59406626 0 0 0 0 38.793201
0.65341705 -5.3205466 0.66703117 0 0 0 0 38.798149
0.51843983 -5.4095931 0.74399948 0 0 0 0 38.803097
1.0414065 -5.090385 0.51218563 0 0 0 0 38.808044
0.89942467 -5.1734338 0.5921489 0 0 0 0 38.812992
0.7674458 -5.2514815 0.66111565 0 0 0 0 38.81794
0.63547242 -5.3435283 0.73408616 0 0 0 0 38.822884
1.1504325 -5.027317 0.51526994 0 0 0 0 38.827831
1.008448 -5.1013684 0.59123057 0 0 0 0 38.832779
0.88047349 -5.1844149 0.65720052 0 0 0 0 38.837727
0.747495 -5.2594647 0.72316569 0 0 0 0 38.842674
1.2554514 -4.9532495 0.51834965 0 0 0 0 38.847622
1.1174772 -5.0433002 0.59131646 0 0 0 0 38.852566
0.98949748 -5.1103492 0.65128183 0 0 0 0 38.857513
0.85952121 -5.1853986 0.71324831 0 0 0 0 38.862461
1.3634793 -4.900178 0.52343702 0 0 0 0 38.867409
1.2234982 -4.9712319 0.59039736 0 0 0 0 38.872356
1.0965229 -5.0422821 0.64636415 0 0 0 0 38.877304
0.97055179 -5.124331 0.70633447 0 0 0 0 38.882248
1.4654981 -4.8301086 0.52651691 0 0 0 0 38.887196
1.3265204 -4.9031634 0.58947802 0 0 0 0 38.892143
1.2075562 -4.9942098 0.64545447 0 0 0 0 38.897091
1.0775784 -5.0562644 0.6974169 0 0 0 0 38.902039
1.5658177 -4.7609625 0.5308466 0 0 0 0 39.010906
1.4318509 -4.8460207 0.5908125 0 0 0 0 39.015854
1.3088818 -4.918076 0.64078009 0 0 0 0 39.020802
1.182909 -4.9821339 0.68874359 0 0 0 0 39.025745
1.6668372 -4.7028852 0.53593099 0 0 0 0 39.030693
1.5328674 -4.7789454 0.59189385 0 0 0 0 39.035641
1.4098994 -4.847003 0.63586009 0 0 0 0 39.040588
1.2899379 -4.9280586 0.68283194 0 0 0 0 39.045536
1.8419626 -4.8387532 0.56411749 0 0 0 0 39.050484
1.6328858 -4.7158689 0.59197623 0 0 0 0 39.055428
1.5139216 -4.7879257 0.63394576 0 0 0 0 39.060375
1.3929602 -4.8639836 0.67591536 0 0 0 0 39.065323
1.9479823 -4.7826681 0.570207 0 0 0 0 39.070271
1.7969995 -4.8267441 0.61515009 0 0 0 0 39.075218
1.6169455 -4.7328472 0.63203251 0 0 0 0 39.080166
1.4939796 -4.7979083 0.66999733 0 0 0 0 39.08511
2.0530019 -4.7285819 0.57729703 0 0 0 0 39.090057
1.9160399 -4.8056493 0.62225825 0 0 0 0 39.095005
1.7510178 -4.7667432 0.64316601 0 0 0 0 39.099953
1.5960013 -4.7368312 0.66408181 0 0 0 0 39.1049
2.1530125 -4.6604977 0.58238012 0 0 0 0 39.109848
2.0160537 -4.7395668 0.62434179 0 0 0 0 39.114792
1.8970999 -4.8176279 0.65731311 0 0 0 0 39.11974
1.7110469 -4.7197418 0.66418844 0 0 0 0 39.124687
2.2500226 -4.5944133 0.58846241 0 0 0 0 39.129635
2.1170692 -4.6774817 0.62642747 0 0 0 0 39.134583
1.9991165 -4.7535443 0.65539855 0 0 0 0 39.139526
1.8741568 -4.8166122 0.68236119 0 0 0 0 39.144474
2.3540397 -4.5413222 0.59555334 0 0 0 0 39.149422
2.2210865 -4.6203933 0.6295169 0 0 0 0 39.154369
2.1011331 -4.6914587 0.65448499 0 0 0 0 39.159317
1.9811813 -4.763525 0.67845339 0 0 0 0 39.164265
2.4440391 -4.4612389 0.6006276 0 0 0 0 39.169209
2.3140917 -4.54531 0.63059431 0 0 0 0 39.174156
2.2011466 -4.6263723 0.65356964 0 0 0 0 39.179104
2.0791938 -4.6924429 0.67253464 0 0 0 0 39.184052
2.5470536 -4.408145 0.60871857 0 0 0 0 39.188999
2.415103 -4.4832196 0.63468093 0 0 0 0 39.193947
2.302161 -4.5642843 0.6526562 0 0 0 0 39.198891
2.1802084 -4.6263566 0.66761965 0 0 0 0 39.203838
2.6460624 -4.348052 0.61680532 0 0 0 0 39.208786
2.5141149 -4.4231291 0.63776749 0 0 0 0 39.213734
2.4001718 -4.4981966 0.65173995 0 0 0 0 39.218681
2.2842288 -4.5722661 0.66471082 0 0 0 0 39.223629
2.7480748 -4.2949553 0.62489653 0 0 0 0 39.228573
2.6171293 -4.3700333 0.6428591 0 0 0 0 39.233521
2.5011849 -4.4391046 0.65282816 0 0 0 0 39.238468
2.3862448 -4.5131755 0.66179955 0 0 0 0 39.243416
2.8460793 -4.2318597 0.63298225 0 0 0 0 39.248363
2.7151382 -4.3089395 0.6469453 0 0 0 0 39.253311
2.6062016 -4.3860078 0.65392125 0 0 0 0 39.258255
2.4802485 -4.4360895 0.6568774 0 0 0 0 39.263203
2.9460857 -4.1737599 0.64207125 0 0 0 0 39.26815
2.8221517 -4.2578373 0.65304083 0 0 0 0 39.273098
2.6972027 -4.3109198 0.65299857 0 0 0 0 39.278046
2.5912733 -4.3939881 0.65597814 0 0 0 0 39.28299
3.041086 -4.1076632 0.65015477 0 0 0 0 39.287937
2.9151521 -4.1877441 0.6571216 0 0 0 0 39.292885
2.8052189 -4.2618165 0.65609556 0 0 0 0 39.297832
2.6802726 -4.3139024 0.65105247 0 0 0 0 39.30278
3.1370842 -4.041563 0.65923911 0 0 0 0 39.307728
3.0121562 -4.1246457 0.66120738 0 0 0 0 39.312672
2.9032247 -4.1977196 0.65718162 0 0 0 0 39.317619
2.787288 -4.2608004 0.65014774 0 0 0 0 39.322567
3.2420907 -3.9884546 0.66933393 0 0 0 0 39.327515
3.1151602 -4.0655408 0.66829872 0 0 0 0 39.332462
3.0022295 -4.1346207 0.65926886 0 0 0 0 39.33741
2.8933008 -4.205698 0.64924204 0 0 0 0 39.342354
3.216995 -3.7784498 0.65429157 0 0 0 0 39.347301
3.2101588 -3.9984407 0.67338252 0 0 0 0 39.352249
3.1052353 -4.0745163 0.66135997 0 0 0 0 39.357197
2.9923074 -4.1425986 0.64732945 0 0 0 0 39.362144
3.2899768 -3.6933646 0.6603545 0 0 0 0 39.367092
3.2501118 -3.8633845 0.6674071 0 0 0 0 39.372036
3.2062373 -4.0114112 0.6644491 0 0 0 0 39.376984
3.094311 -4.078495 0.64741868 0 0 0 0 39.381931
3.3879747 -3.6352575 0.670443 0 0 0 0 39.386879
3.267051 -3.7093465 0.65740949 0 0 0 0 39.391827
3.2692084 -3.9023368 0.65949744 0 0 0 0 39.39677
3.1963158 -4.0153909 0.64550865 0 0 0 0 39.401718
3.236805 -3.3203571 0.63327855 0 0 0 0 39.406666
3.3690526 -3.6542368 0.66450185 0 0 0 0 39.411613
3.2671306 -3.722316 0.64247751 0 0 0 0 39.416561
3.2863083 -3.9372942 0.64258558 0 0 0 0 39.421509
3.0996549 -3.0404477 0.59913278 0 0 0 0 39.426453
3.2889268 -3.4082794 0.63740635 0 0 0 0 39.4314
3.358124 -3.6532156 0.64455783 0 0 0 0 39.436348
3.2542031 -3.7172999 0.61753047 0 0 0 0 39.441296
3.1866512 -2.9893482 0.61021435 0 0 0 0 39.446243
3.08973 -3.0594251 0.58919293 0 0 0 0 39.451191
3.3240275 -3.4522209 0.62350744 0 0 0 0 39.456135
3.3602076 -3.6621873 0.61862582 0 0 0 0 39.461082
3.2776465 -2.9382436 0.62129879 0 0 0 0 39.46603
3.1697218 -2.9993322 0.5952667 0 0 0 0 39.470978
3.0918026 -3.0663979 0.5682559 0 0 0 0 39.475925
3.3801484 -3.5161474 0.60463059 0 0 0 0 39.480873
3.3620846 -2.8825378 0.63074529 0 0 0 0 39.222698
3.2651603 -2.9536073 0.60272557 0 0 0 0 39.227646
3.1762283 -3.0096729 0.57070518 0 0 0 0 39.23259
3.0882974 -3.0657384 0.53768533 0 0 0 0 39.237537
3.4470794 -2.824445 0.6418221 0 0 0 0 39.242485
3.3561597 -2.8995116 0.61180723 0 0 0 0 39.247433
3.262229 -2.9525831 0.57478279 0 0 0 0 39.25238
3.1773009 -3.0096486 0.53876489 0 0 0 0 39.257328
3.5410759 -2.7713442 0.65390629 0 0 0 0 39.262272
3.4341526 -2.8344252 0.61687762 0 0 0 0 39.26722
3.3542287 -2.8964875 0.5798645 0 0 0 0 39.272167
3.2703049 -2.9565542 0.54084826 0 0 0 0 39.277115
3.6270666 -2.7112474 0.6659835 0 0 0 0 39.282063
3.5331507 -2.7823207 0.62696528 0 0 0 0 39.287006
3.4452267 -2.8393912 0.58494556 0 0 0 0 39.291954
3.3593037 -2.896461 0.54192698 0 0 0 0 39.296902
3.7190576 -2.6531446 0.67806524 0 0 0 0 39.301849
3.6241441 -2.7242205 0.63604641 0 0 0 0 39.306797
3.5292187 -2.7742987 0.58901983 0 0 0 0 39.311745
3.4513025 -2.8383644 0.54400849 0 0 0 0 39.316689
3.8170478 -2.5970352 0.69215161 0 0 0 0 39.321636
3.716135 -2.6641183 0.64512765 0 0 0 0 39.326584
3.6322172 -2.7221897 0.59611046 0 0 0 0 39.331532
3.5442986 -2.778265 0.54609019 0 0 0 0 39.336479
3.9050324 -2.5329323 0.70422935 0 0 0 0 39.341427
3.8241289 -2.6120012 0.65722191 0 0 0 0 39.346371
3.7272093 -2.6620853 0.60219377 0 0 0 0 39.351318
3.639291 -2.7151623 0.54917216 0 0 0 0 39.356266
4.0020161 -2.4708204 0.71831352 0 0 0 0 39.361214
3.9101124 -2.5439003 0.66529703 0 0 0 0 39.366161
3.8211982 -2.5989799 0.60827559 0 0 0 0 39.371109
3.7402856 -2.6570535 0.55326009 0 0 0 0 39.376053
4.9502807 -2.9070072 0.88511044 0 0 0 0 39.381001
4.005096 -2.4787905 0.6753791 0 0 0 0 39.385948
3.9271867 -2.5388629 0.61736619 0 0 0 0 39.390896
3.8462782 -2.5979388 0.55735099 0 0 0 0 39.395844
5.0662494 -2.8268683 0.90320534 0 0 0 0 39.400787
4.9673758 -2.9199607 0.83019352 0 0 0 0 39.405735
4.017168 -2.4687572 0.62344337 0 0 0 0 39.410683
3.941263 -2.5288312 0.56043166 0 0 0 0 39.41563
5.201221 -2.7537115 0.92331511 0 0 0 0 39.420578
5.0863447 -2.8378196 0.84428984 0 0 0 0 39.425526
4.9824576 -2.9049203 0.76326472 0 0 0 0 39.43047
4.0372448 -2.4587209 0.56451273 0 0 0 0 39.435417
5.3101783 -2.6625738 0.94140202 0 0 0 0 39.440365
5.2023106 -2.7516797 0.85638297 0 0 0 0 39.445312
5.1154304 -2.8267686 0.77437162 0 0 0 0 39.45026
5.0105453 -2.8908737 0.68834454 0 0 0 0 39.455208
5.4621449 -2.5903976 0.96552372 0 0 0 0 39.460152
5.3202686 -2.6605349 0.87147576 0 0 0 0 39.465099
5.2383962 -2.7396226 0.78446907 0 0 0 0 39.470047
5.1435175 -2.8087223 0.69445014 0 0 0 0 39.474995
5.6051011 -2.507226 0.989636 0 0 0 0 39.479942
5.4832377 -2.5893497 0.8926053 0 0 0 0 39.48489
5.358355 -2.6454773 0.79356211 0 0 0 0 39.489834
5.2784858 -2.7235665 0.70155627 0 0 0 0 39.494781
5.7410526 -2.4190578 1.0127423 0 0 0 0 39.499729
5.6231933 -2.5011816 0.91071403 0 0 0 0 39.504677
5.524323 -2.5712895 0.81069291 0 0 0 0 39.509624
5.4244504 -2.637399 0.71066952 0 0 0 0 39.514572
5.8739986 -2.3248901 1.0348446 0 0 0 0 39.519516
5.7651458 -2.4110091 0.92882365 0 0 0 0 39.524464
5.6722798 -2.4821148 0.82480675 0 0 0 0 39.529411
5.5634084 -2.5442352 0.71877581 0 0 0 0 39.534359
6.0379429 -2.236692 1.0639697 0 0 0 0 39.539307
5.9220939 -2.3208203 0.95094341 0 0 0 0 39.54425
5.8152289 -2.3859417 0.83891493 0 0 0 0 39.549198
5.7343688 -2.4590406 0.73090655 0 0 0 0 39.554146
6.0688601 -2.0986106 1.0689883 0 0 0 0 39.559093
6.0740371 -2.2246337 0.97105801 0 0 0 0 39.564041
5.9691753 -2.2897563 0.85503072 0 0 0 0 39.568989
5.8843188 -2.360862 0.7400189 0 0 0 0 39.573933
6.0477643 -1.9425752 1.0669645 0 0 0 0 39.57888
6.0709434 -2.0695841 0.96804667 0 0 0 0 39.583828
6.1321163 -2.1905601 0.87215161 0 0 0 0 39.588776
6.0502658 -2.2636664 0.75214267 0 0 0 0 39.593723
6.2226982 -1.8503608 1.0980954 0 0 0 0 39.598671
6.1188579 -1.9324881 0.97307539 0 0 0 0 39.603615
6.0680089 -2.0115666 0.85808921 0 0 0 0 39.608562
6.1751966 -2.1455047 0.75923085 0 0 0 0 39.61351
6.3816218 -1.7471578 1.1272116 0 0 0 0 39.618458
6.2797885 -1.8312869 0.99619383 0 0 0 0 39.623405
6.1939349 -1.8954008 0.87017804 0 0 0 0 39.628353
6.1100826 -1.9605135 0.74416399 0 0 0 0 39.633297
6.5525398 -1.6409402 1.159335 0 0 0 0 39.638245
6.460711 -1.7260637 1.0233244 0 0 0 0 39.643192
6.3638625 -1.7881914 0.88930035 0 0 0 0 39.64814
6.2850156 -1.8543034 0.75729007 0 0 0 0 39.653088
6.73945 -1.5317038 1.1954684 0 0 0 0 39.658031
6.6476269 -1.6158319 1.0514573 0 0 0 0 39.662979
6.546783 -1.6769669 0.91043013 0 0 0 0 39.667927
6.4719391 -1.7420783 0.77342212 0 0 0 0 39.672874
6.9123521 -1.4134778 1.2285891 0 0 0 0 39.677822
6.8175335 -1.4956124 1.0775751 0 0 0 0 39.68277
6.7396936 -1.5597292 0.93456465 0 0 0 0 39.687714
6.6708574 -1.626839 0.79056162 0 0 0 0 39.692661
7.099865 -1.288728 1.2660649 0 0 0 0 40.17049
7.0080843 -1.3728962 1.1090528 0 0 0 0 40.175438
6.929275 -1.4350471 0.95903897 0 0 0 0 40.180382
6.8584681 -1.4981906 0.80803192 0 0 0 0 40.185329
7.3117213 -1.1634109 1.3082186 0 0 0 0 40.190277
7.2099452 -1.2435963 1.1411967 0 0 0 0 40.195225
7.1301441 -1.3067536 0.98318267 0 0 0 0 40.200172
7.0733423 -1.3708845 0.82818711 0 0 0 0 40.20512
7.5215659 -1.0290922 1.3503667 0 0 0 0 40.210064
7.4267969 -1.1102747 1.1763507 0 0 0 0 40.215012
7.3550024 -1.1734278 1.011343 0 0 0 0 40.219959
7.2842045 -1.2335798 0.84733438 0 0 0 0 40.224907
7.7364016 -0.88976413 1.3925165 0 0 0 0 40.229855
7.6596365 -0.96992987 1.2145143 0 0 0 0 40.234798
7.5738444 -1.0281041 1.0404928 0 0 0 0 40.239746
7.5090532 -1.0882546 0.86848897 0 0 0 0 40.244694
7.7142272 -0.71571839 1.3954605 0 0 0 0 40.249641
7.8124638 -0.81267709 1.240606 0 0 0 0 40.254589
7.8236756 -0.87873977 1.0736655 0 0 0 0 40.259537
7.7658887 -0.93688691 0.89466625 0 0 0 0 40.264481
7.5990601 -0.5377875 1.3803269 0 0 0 0 40.269428
7.6782885 -0.62376988 1.2214515 0 0 0 0 40.274376
7.7754908 -0.68972969 1.0665797 0 0 0 0 40.279324
7.7377038 -0.7468555 0.88759547 0 0 0 0 40.284271
7.4808979 -0.36686206 1.3651925 0 0 0 0 40.289219
7.5811167 -0.44581917 1.2093303 0 0 0 0 40.294163
7.6693115 -0.50279039 1.0524467 0 0 0 0 40.29911
7.7465167 -0.56077963 0.88555491 0 0 0 0 40.304058
7.3957357 -0.20289767 1.3560863 0 0 0 0 40.309006
7.4679461 -0.26988956 1.1951952 0 0 0 0 40.313953
7.5461373 -0.32087404 1.0353004 0 0 0 0 40.318901
7.6323314 -0.36985216 0.8704111 0 0 0 0 40.323845
7.2715774 -0.039982963 1.3409472 0 0 0 0 40.328793
7.3637795 -0.10095099 1.1820693 0 0 0 0 40.33374
7.4349604 -0.14194374 1.0221632 0 0 0 0 40.338688
7.5081515 -0.18593876 0.85426074 0 0 0 0 40.343636
7.1874199 0.11497987 1.3328427 0 0 0 0 40.348579
7.2526178 0.061977632 1.1689388 0 0 0 0 40.353527
7.3577876 0.028026382 1.0130565 0 0 0 0 40.358475
7.385973 -0.007024108 0.84011251 0 0 0 0 40.363422
7.1032624 0.26694185 1.3257382 0 0 0 0 40.36837
7.1744528 0.22194575 1.1608347 0 0 0 0 40.373318
7.2136235 0.19391216 0.99589545 0 0 0 0 40.378262
7.2937942 0.16792533 0.82898873 0 0 0 0 40.383209
6.9891143 0.41386309 1.3116102 0 0 0 0 40.388157
7.0592942 0.37786609 1.1477008 0 0 0 0 40.393105
7.1354504 0.35887843 0.98778671 0 0 0 0 40.398052
7.1776195 0.33784425 0.81684601 0 0 0 0 40.403
6.9059558 0.56182361 1.3055049 0 0 0 0 40.407944
6.9661331 0.53081286 1.1385846 0 0 0 0 40.412891
7.0232863 0.5168007 0.9756521 0 0 0 0 40.417839
7.0714478 0.50177366 0.80571282 0 0 0 0 40.422787
6.8268023 0.70378757 1.2994047 0 0 0 0 40.427734
6.8839722 0.67977226 1.131478 0 0 0 0 40.432682
6.9241223 0.67073828 0.96652848 0 0 0 0 40.437626
6.9822736 0.66472274 0.79659218 0 0 0 0 40.442574
6.7366524 0.84173638 1.2922961 0 0 0 0 40.447521
6.7888155 0.824714 1.123361 0 0 0 0 40.452469
6.8329592 0.82168376 0.95741129 0 0 0 0 40.457417
6.8831048 0.82065815 0.78746539 0 0 0 0 40.46236
6.6275082 0.9756583 1.281172 0 0 0 0 40.467308
6.6966596 0.96665788 1.1152465 0 0 0 0 40.472256
6.7347975 0.96861976 0.94928873 0 0 0 0 40.477203
6.7839365 0.97359258 0.77933836 0 0 0 0 40.482151
6.5533566 1.1096244 1.2760755 0 0 0 0 40.487099
6.6045084 1.1035995 1.1061332 0 0 0 0 40.492043
6.6396375 1.1125578 0.94116855 0 0 0 0 40.49699
6.6937656 1.1255368 0.77221757 0 0 0 0 40.501938
6.7161107 1.2869077 1.318151 0 0 0 0 40.506886
6.753263 1.2858608 1.1401942 0 0 0 0 40.511833
6.813385 1.3038474 0.97124523 0 0 0 0 40.516781
6.9064965 1.3318733 0.8003183 0 0 0 0 40.521725
7.0597696 1.5124398 1.3983506 0 0 0 0 40.526672
7.1319122 1.5244323 1.2134156 0 0 0 0 40.53162
7.2070274 1.554432 1.0344725 0 0 0 0 40.536568
6.6573763 1.45061 0.77607971 0 0 0 0 40.541515
7.4773707 1.7710793 1.4935937 0 0 0 0 40.546463
7.5505123 1.7930658 1.2956541 0 0 0 0 40.551407
7.6526194 1.836094 1.1067264 0 0 0 0 40.556355
7.0090284 1.7031336 0.82126945 0 0 0 0 40.561302
7.9239211 2.059768 1.5978448 0 0 0 0 40.56625
8.023056 2.0947807 1.3879197 0 0 0 0 40.571198
8.1911287 2.16889 1.1950297 0 0 0 0 40.576141
8.3632107 2.245995 0.98614168 0 0 0 0 40.581089
8.413414 2.3825257 1.713113 0 0 0 0 40.586037
8.5715218 2.4446089 1.4952223 0 0 0 0 40.590984
8.7485876 2.5337217 1.2863315 0 0 0 0 40.595932
7.0815363 2.0833595 0.8421852 0 0 0 0 40.60088
9.0048113 2.7604356 1.8514363 0 0 0 0 40.605824
8.1804514 2.5321555 1.4408777 0 0 0 0 40.610771
8.2125759 2.5850761 1.2188839 0 0 0 0 40.615719
6.9953365 2.2423096 0.83905458 0 0 0 0 40.620667
8.0670757 2.6642132 1.6757315 0 0 0 0 40.625614
9.99512 3.3427548 1.7789922 0 0 0 0 40.630562
9.1457644 3.1134357 1.3704098 0 0 0 0 40.635506
6.914134 2.4002657 0.83792704 0 0 0 0 40.640453
10.687384 3.7887902 2.2427115 0 0 0 0 40.397156
9.6841545 3.4793386 1.7410792 0 0 0 0 40.402103
9.7372608 3.572268 1.4750808 0 0 0 0 40.407051
6.8129916 2.5504525 0.83327919 0 0 0 0 40.411999
10.570103 4.0087481 2.2435374 0 0 0 0 40.416943
11.170922 4.3033624 2.0318735 0 0 0 0 40.42189
11.187065 4.3992195 1.7128434 0 0 0 0 40.426838
6.7697797 2.721463 0.8381834 0 0 0 0 40.431786
10.421843 4.2116637 2.2383449 0 0 0 0 40.436733
11.016632 4.5302744 2.0266631 0 0 0 0 40.441681
11.038759 4.6381383 1.7096301 0 0 0 0 40.446625
6.7125745 2.8864541 0.84007794 0 0 0 0 40.451572
10.442462 4.4868021 2.2702479 0 0 0 0 40.45652
8.730794 3.8193815 1.6262277 0 0 0 0 40.461468
8.9037781 3.9874737 1.3972831 0 0 0 0 40.466415
9.1810141 4.1812205 2.0204215 0 0 0 0 40.476307
8.9203377 4.1427231 1.6822368 0 0 0 0 40.481255
8.6416264 4.1122203 1.3750318 0 0 0 0 40.486202
8.4078808 4.1027784 1.0798514 0 0 0 0 40.49115
8.7440138 4.2117281 1.9490794 0 0 0 0 40.496098
8.3034678 4.083992 1.5867953 0 0 0 0 40.501041
8.3884783 4.2329741 1.3527874 0 0 0 0 40.505989
8.7296925 4.4398041 1.9719714 0 0 0 0 40.515884
7.7296 4.0213075 1.4983882 0 0 0 0 40.520832
7.8345804 4.1823225 1.2813891 0 0 0 0 40.52578
7.5693355 4.0613055 1.7352567 0 0 0 0 40.535671
7.6143823 4.1822338 1.4982307 0 0 0 0 40.540619
7.7213392 4.3592534 1.2842231 0 0 0 0 40.545567
10.348195 6.0095992 1.3924637 0 0 0 0 40.550514
8.2803917 4.6753745 1.9235256 0 0 0 0 40.555462
10.157792 5.8827977 2.0293996 0 0 0 0 40.560406
10.134865 6.0355968 1.7112964 0 0 0 0 40.565353
8.8870058 5.4517555 1.2175964 0 0 0 0 40.570301
8.1601543 4.8432994 1.9243574 0 0 0 0 40.575249
9.3381138 5.6897779 1.8938559 0 0 0 0 40.580196
8.9714804 5.6301212 1.5425873 0 0 0 0 40.585144
10.007538 6.4733543 1.3959665 0 0 0 0 40.590088
8.1418133 5.075367 1.9492348 0 0 0 0 40.595036
7.8651361 5.0368328 1.6220291 0 0 0 0 40.599983
7.9011087 5.2167468 1.3819571 0 0 0 0 40.604931
8.164856 5.5619607 1.1599787 0 0 0 0 40.609879
9.8956223 6.4699516 2.40592 0 0 0 0 40.614822
7.7998319 5.2448297 1.6358777 0 0 0 0 40.61977
8.390213 5.8225102 1.4940372 0 0 0 0 40.624718
9.6698666 6.9351039 1.4024606 0 0 0 0 40.629665
8.4407473 5.9578247 1.802022 0 0 0 0 40.639561
9.5505133 6.9612231 1.7333665 0 0 0 0 40.644505
9.4985285 7.1619725 1.4072033 0 0 0 0 40.649452
9.4371767 6.9823413 2.0502801 0 0 0 0 40.659348
9.3971672 7.1901159 1.7411219 0 0 0 0 40.664295
9.3581448 7.416882 1.4189521 0 0 0 0 40.669243
9.2978268 7.2102528 2.0600467 0 0 0 0 40.679134
9.242816 7.4200048 1.7488728 0 0 0 0 40.684082
9.1897917 7.6477504 1.4256885 0 0 0 0 40.68903
9.1544743 7.4371567 2.0698075 0 0 0 0 40.698925
9.0994482 7.657907 1.759625 0 0 0 0 40.703869
9.0394058 7.8976426 1.4374255 0 0 0 0 40.708817
9.0211096 7.670073 2.0815701 0 0 0 0 40.718712
8.9530687 7.8998051 1.7723691 0 0 0 0 40.72366
8.8910112 8.1505346 1.4501592 0 0 0 0 40.728603
8.8777466 7.8979735 2.0923247 0 0 0 0 40.738499
8.6399193 7.9864583 1.7520621 0 0 0 0 40.743446
8.7236319 8.3894005 1.4618819 0 0 0 0 40.748394
8.3818884 7.8003483 2.0199726 0 0 0 0 40.758286
8.1879902 7.9269018 1.701723 0 0 0 0 40.763233
8.5582418 8.632266 1.4746006 0 0 0 0 40.768181
8.1336851 7.9210854 2.0076969 0 0 0 0 40.778076
8.0536051 8.1658068 1.7174705 0 0 0 0 40.783024
7.9625134 8.4275026 1.4132223 0 0 0 0 40.787968
8.0693817 7.9032645 2.3266695 0 0 0 0 40.792915
7.9963131 8.1479845 2.0224485 0 0 0 0 40.797863
7.8972301 8.3936787 1.7322025 0 0 0 0 40.802811
7.7971225 8.6653624 1.429938 0 0 0 0 40.807758
7.9190555 8.0991421 2.3344285 0 0 0 0 40.812706
7.8339705 8.3528461 2.0331891 0 0 0 0 40.81765
7.7418528 8.6205502 1.7469332 0 0 0 0 40.822598
7.643714 8.9122353 1.4476552 0 0 0 0 40.827545
7.7787013 8.3100348 2.3471839 0 0 0 0 40.832493
7.6895962 8.5767307 2.0469303 0 0 0 0 40.83744
7.5824709 8.8484125 1.7616565 0 0 0 0 40.842388
7.8905487 9.6577063 1.5444014 0 0 0 0 40.847332
7.6363344 8.5259228 2.3619313 0 0 0 0 40.85228
7.5332294 8.7925978 2.0606632 0 0 0 0 40.857227
7.4630022 9.128336 1.7883782 0 0 0 0 40.862175
7.7101135 9.9135427 1.5640813 0 0 0 0 40.867123
7.4937973 8.7408485 2.3764179 0 0 0 0 40.603615
7.4026546 9.0415697 2.0831571 0 0 0 0 40.608562
7.2904911 9.3482704 1.8038733 0 0 0 0 40.61351
6.2919755 8.4937172 1.3225451 0 0 0 0 40.618454
7.354435 8.9657536 2.3931758 0 0 0 0 40.623402
7.2223263 9.241416 2.094893 0 0 0 0 40.628349
6.2997074 8.4749508 1.6115751 0 0 0 0 40.633297
6.4200525 9.1169901 1.4042808 0 0 0 0 40.638245
7.2060757 9.1856441 2.4099259 0 0 0 0 40.643188
7.0439949 9.4422617 2.1056273 0 0 0 0 40.648136
6.4297843 9.086236 1.7053188 0 0 0 0 40.653084
7.1827016 10.740177 1.6359364 0 0 0 0 40.658031
7.0407243 9.3975086 2.4246638 0 0 0 0 40.662979
7.0392747 9.9013662 2.176347 0 0 0 0 40.667927
7.3460836 10.913682 2.0209775 0 0 0 0 40.672871
5.4537015 8.5937872 1.2977912 0 0 0 0 40.677818
6.9991088 9.7805605 2.4833984 0 0 0 0 40.682766
5.3651958 8.9147444 1.3335197 0 0 0 0 40.697609
5.3055768 9.3097467 1.3812228 0 0 0 0 40.717396
4.8040934 8.91609 1.314039 0 0 0 0 40.737183
4.767364 9.380125 1.374712 0 0 0 0 40.756969
4.4394665 9.2727156 1.3504934 0 0 0 0 40.77676
6.1470885 12.419847 2.5049675 0 0 0 0 40.806442
5.0402846 13.974744 2.698885 0 0 0 0 40.90538
4.1441879 14.42409 2.0677431 0 0 0 0 40.915276
4.2869191 14.334553 2.4059248 0 0 0 0 40.930115
3.8466499 14.702744 2.1102588 0 0 0 0 40.935062
4.8378344 13.950771 3.0196936 0 0 0 0 40.94001
3.9566424 14.44714 2.4165235 0 0 0 0 40.949905
3.5550363 15.027407 2.1587439 0 0 0 0 40.954853
4.0983849 14.369584 2.722697 0 0 0 0 40.964745
3.6710858 14.734807 2.4590394 0 0 0 0 40.969692
3.2652881 15.434077 2.221169 0 0 0 0 40.97464
3.7810864 14.496183 2.7312944 0 0 0 0 40.984531
3.3973501 15.131501 2.521486 0 0 0 0 40.989479
2.9645164 15.84973 2.286572 0 0 0 0 40.994427
3.9309013 14.369638 3.0325103 0 0 0 0 40.999374
3.5005229 14.785851 2.7718086 0 0 0 0 41.004322
3.1125908 15.538176 2.5859103 0 0 0 0 41.00927
2.6536756 16.30337 2.3599334 0 0 0 0 41.014214
3.6384923 14.565274 3.0500791 0 0 0 0 41.019161
3.2367246 15.21656 2.8402355 0 0 0 0 41.024109
2.8078728 15.914815 2.6453309 0 0 0 0 41.029057
3.3718429 14.903967 3.0995674 0 0 0 0 41.038952
2.9638655 15.679256 2.9156253 0 0 0 0 41.043896
2.4910676 16.339439 2.7157011 0 0 0 0 41.048843
3.0911512 15.263638 3.1550226 0 0 0 0 41.058739
2.6472223 16.003868 2.967066 0 0 0 0 41.063686
1.7396072 19.217457 2.8188922 0 0 0 0 41.073578
2.8118589 15.67746 3.2193248 0 0 0 0 41.160656
2.4988854 17.616032 3.2565963 0 0 0 0 41.165604
2.5209901 16.126114 3.2916839 0 0 0 0 41.180443
1.5654111 19.177624 3.1984868 0 0 0 0 41.190338
2.3502982 17.633104 3.5813754 0 0 0 0 41.200233
1.3937682 19.209654 3.5322142 0 0 0 0 41.224968
-0.5832954 21.250429 3.2266507 0 0 0 0 41.25465
1.2530973 19.260727 3.8589554 0 0 0 0 41.259598
-1.1175328 21.862705 3.3495948 0 0 0 0 41.274437
0.82071292 19.399096 3.8743718 0 0 0 0 41.279385
0.074091569 20.490864 3.7647891 0 0 0 0 41.284332
-0.73098177 21.260498 3.6023872 0 0 0 0 41.28928
-1.7319223 23.140932 3.5789461 0 0 0 0 41.294224
0.39177948 19.848509 3.9525518 0 0 0 0 41.299171
-0.40519488 21.133226 3.8857644 0 0 0 0 41.304119
-1.2642937 21.908775 3.732296 0 0 0 0 41.309067
-2.3138149 23.532097 3.6739891 0 0 0 0 41.314014
-0.89566141 21.299498 3.921082 0 0 0 0 41.323906
-1.8736486 23.149004 3.9646678 0 0 0 0 41.328854
-2.8344688 23.199265 3.660639 0 0 0 0 41.333801
-1.4299582 21.933762 4.0459919 0 0 0 0 41.343697
-2.4504943 23.51116 4.0507307 0 0 0 0 41.34864
-3.3391407 22.87945 3.6502934 0 0 0 0 41.353588
-1.0374695 21.417532 4.2377362 0 0 0 0 41.358536
-2.0586371 23.342979 4.3132005 0 0 0 0 41.363483
-2.9631333 23.181322 4.0213847 0 0 0 0 41.368431
-3.839896 22.609642 3.6489117 0 0 0 0 41.373379
-1.5708166 22.07579 4.3626194 0 0 0 0 41.378323
-2.6150322 23.450121 4.3464732 0 0 0 0 41.38327
-3.4628198 22.882498 3.996026 0 0 0 0 41.388218
-4.3335805 22.299835 3.6455662 0 0 0 0 41.393166
-2.2135375 23.489985 4.6387944 0 0 0 0 41.398113
-3.1206579 23.124273 4.3021293 0 0 0 0 41.403061
-3.9584694 22.561674 3.9736869 0 0 0 0 41.408005
-4.8092866 22.007046 3.6412246 0 0 0 0 41.412952
-2.7475803 23.406116 4.6232338 0 0 0 0 41.4179
-3.6173534 22.840439 4.2657604 0 0 0 0 41.422848
-4.4371414 22.257868 3.9523509 0 0 0 0 41.427795
-5.2860198 21.729256 3.6448684 0 0 0 0 41.432743
-3.2441998 23.091261 4.5598888 0 0 0 0 41.437687
-4.1039906 22.525606 4.2264242 0 0 0 0 41.442635
-4.9148817 21.994066 3.9389825 0 0 0 0 41.447582
-5.7457247 21.438482 3.6455386 0 0 0 0 41.45253
-3.7338073 22.769411 4.501555 0 0 0 0 41.457478
-4.5776515 22.226793 4.1900868 0 0 0 0 41.462421
-5.3815603 21.696268 3.9236507 0 0 0 0 41.467369
-6.2024574 21.164711 3.6511967 0 0 0 0 41.472317
-4.2144628 22.476572 4.4492064 0 0 0 0 41.477264
-5.0503302 21.937977 4.1597419 0 0 0 0 41.482212
-5.8362498 21.408485 3.9083221 0 0 0 0 41.48716
-6.6521683 20.880941 3.6558688 0 0 0 0 41.492104
-4.6861148 22.183743 4.3988652 0 0 0 0 41.497051
-5.5120149 21.655169 4.1304016 0 0 0 0 41.501999
-6.2929621 21.132696 3.9009802 0 0 0 0 41.506947
-7.0948968 20.608179 3.6645379 0 0 0 0 41.511894
-5.1527505 21.883913 4.3485336 0 0 0 0 41.516842
-5.9656944 21.37137 4.1030693 0 0 0 0 41.521786
-6.7326384 20.839924 3.8896685 0 0 0 0 41.526733
-7.5366225 20.334414 3.6762073 0 0 0 0 41.531681
-5.615447 21.61809 4.3081775 0 0 0 0 41.536629
-6.4153624 21.082571 4.0767436 0 0 0 0 41.541576
-7.1783791 20.584143 3.8863194 0 0 0 0 41.546524
-7.9763861 20.083649 3.6918588 0 0 0 0 41.551468
-6.0690894 21.32427 4.2648511 0 0 0 0 41.556416
-6.8560381 20.799782 4.0534215 0 0 0 0 41.561363
-7.6160851 20.310364 3.8819916 0 0 0 0 41.566311
-8.4111433 19.830885 3.7085156 0 0 0 0 41.571259
-6.5167618 21.048456 4.2265158 0 0 0 0 41.576202
-7.300745 20.533981 4.0370803 0 0 0 0 41.58115
-8.0528212 20.054586 3.8826487 0 0 0 0 41.586098
-8.8358536 19.554129 3.7222016 0 0 0 0 41.591045
-6.9503851 20.748657 4.1842136 0 0 0 0 41.595993
-7.7354379 20.263193 4.0197515 0 0 0 0 41.600941
-8.4965887 19.815792 3.8902833 0 0 0 0 41.605885
-8.4152622 17.53451 3.4002132 0 0 0 0 41.610832
-7.3910522 20.472845 4.1498828 0 0 0 0 41.61578
-8.1651316 19.994404 4.0044255 0 0 0 0 41.620728
-8.9152746 19.53503 3.8899772 0 0 0 0 41.625675
-9.6933403 19.037596 3.7665296 0 0 0 0 41.630623
-7.8415813 20.219271 4.1204143 0 0 0 0 42.340908
-7.8415599 17.973783 3.6355515 0 0 0 0 42.345852
-8.4824877 17.479393 3.533227 0 0 0 0 42.3508
-10.121438 18.783358 3.7869527 0 0 0 0 42.355747
-8.2731533 19.940329 4.0910692 0 0 0 0 42.360695
-9.0361223 19.470684 3.9815691 0 0 0 0 42.365643
-9.7761555 19.016108 3.9010816 0 0 0 0 42.370586
-10.552138 18.540455 3.81657 0 0 0 0 42.375534
-8.7097921 19.694378 4.0676851 0 0 0 0 42.380482
-9.4697714 19.219749 3.9771919 0 0 0 0 42.385429
-10.21086 18.784184 3.9156835 0 0 0 0 42.390377
-10.960773 18.27058 3.8392394 0 0 0 0 42.395325
-9.1343555 19.413441 4.0423484 0 0 0 0 42.400269
-9.8893814 18.953833 3.9698451 0 0 0 0 42.405216
-10.619445 18.498297 3.9233682 0 0 0 0 42.410164
-9.5649843 19.16449 4.0209713 0 0 0 0 42.420059
-10.32705 18.712881 3.9724503 0 0 0 0 42.425007
-10.016222 16.555099 3.5739217 0 0 0 0 42.429951
-9.9966173 18.917532 4.0045896 0 0 0 0 42.439846
-10.73862 18.430969 3.9661262 0 0 0 0 42.444794
-11.101432 17.419077 3.8306479 0 0 0 0 42.449741
-10.876309 15.577189 3.504715 0 0 0 0 42.454689
-10.422186 18.640583 3.9882436 0 0 0 0 42.459633
-10.108289 16.462809 3.5947554 0 0 0 0 42.464581
-10.61699 15.837708 3.5507193 0 0 0 0 42.469528
-11.538932 15.74588 3.6276433 0 0 0 0 42.474476
-10.851811 18.391619 3.9758635 0 0 0 0 42.479424
-11.110159 17.179903 3.8097172 0 0 0 0 42.484367
-11.359887 16.130247 3.6874225 0 0 0 0 42.489315
-11.447159 14.889875 3.5165212 0 0 0 0 42.494263
-10.219454 16.433458 3.5925026 0 0 0 0 42.49921
-10.70701 15.74339 3.5475581 0 0 0 0 42.504158
-11.337232 15.330105 3.5791605 0 0 0 0 42.509106
-11.522993 14.299583 3.4639325 0 0 0 0 42.51405
-11.202205 17.101551 3.7835248 0 0 0 0 42.518997
-11.43683 16.005928 3.6673005 0 0 0 0 42.523945
-11.445086 14.753739 3.5185177 0 0 0 0 42.528893
-11.609906 13.747275 3.4192958 0 0 0 0 42.53384
-10.778974 15.646068 3.5054226 0 0 0 0 42.538788
-11.394093 15.183808 3.5410912 0 0 0 0 42.543732
-11.554998 14.208373 3.4628451 0 0 0 0 42.548679
-11.671815 13.199017 3.3726902 0 0 0 0 42.553627
-11.587996 15.99844 3.6349678 0 0 0 0 42.558575
-11.541042 14.65836 3.4813516 0 0 0 0 42.563522
-11.661943 13.679016 3.4131634 0 0 0 0 42.56847
-11.735777 12.677756 3.3310585 0 0 0 0 42.573414
-11.512135 15.135368 3.4888473 0 0 0 0 42.578362
-11.673984 14.13194 3.4236338 0 0 0 0 42.583309
-11.75892 13.167681 3.3654797 0 0 0 0 42.588257
-11.801777 12.176494 3.2934074 0 0 0 0 42.593204
-11.755341 14.725731 3.4458709 0 0 0 0 42.598148
-11.797962 13.625541 3.3689098 0 0 0 0 42.603096
-11.817827 12.631416 3.3118722 0 0 0 0 42.608044
-11.858804 11.691251 3.2567551 0 0 0 0 42.612991
-11.893253 14.195287 3.3781519 0 0 0 0 42.617939
-11.923982 13.140138 3.319165 0 0 0 0 42.622887
-11.925911 12.173064 3.2751269 0 0 0 0 42.627831
-11.944929 11.248958 3.2330253 0 0 0 0 42.632778
-12.068324 13.734776 3.3253176 0 0 0 0 42.637726
-12.044012 12.662747 3.2704222 0 0 0 0 42.642673
-11.966868 11.66684 3.2245188 0 0 0 0 42.647621
-12.393904 11.150996 3.3074822 0 0 0 0 42.652569
-12.191273 13.226364 3.2636011 0 0 0 0 42.657513
-12.138023 12.181409 3.2207198 0 0 0 0 42.66246
-12.3727 11.515939 3.2730825 0 0 0 0 42.667408
-12.441979 10.694773 3.2778182 0 0 0 0 42.672356
-12.33232 12.76292 3.2108181 0 0 0 0 42.677303
-12.216021 11.697102 3.1710436 0 0 0 0 42.682251
-12.593101 11.192381 3.2750602 0 0 0 0 42.687195
-12.467028 10.231593 3.2441938 0 0 0 0 42.692142
-12.442319 12.282536 3.1540952 0 0 0 0 42.69709
-12.457433 11.38349 3.1659844 0 0 0 0 42.702038
-12.621082 10.704182 3.2304566 0 0 0 0 42.706985
-12.49913 9.7934036 3.2165382 0 0 0 0 42.711933
-12.562364 11.824134 3.1043389 0 0 0 0 42.716877
-12.843166 11.198605 3.1996052 0 0 0 0 42.721825
-12.684178 10.265919 3.1977596 0 0 0 0 42.726772
-12.524237 9.3602295 3.1898897 0 0 0 0 42.73172
-12.629327 11.335835 3.0456855 0 0 0 0 42.736668
-12.956289 10.772231 3.1658292 0 0 0 0 42.741611
-12.722252 9.8227053 3.1611032 0 0 0 0 42.746559
-12.533346 8.9330873 3.1612585 0 0 0 0 42.751507
-12.963889 11.088028 3.0544367 0 0 0 0 42.756454
-13.017333 10.318958 3.1231515 0 0 0 0 42.761402
-12.777373 9.4014597 3.1314046 0 0 0 0 42.76635
-12.54849 8.5229349 3.1356051 0 0 0 0 42.771294
-13.358568 10.888099 3.0770583 0 0 0 0 42.776241
-13.07639 9.8726921 3.0844719 0 0 0 0 42.781189
-12.813491 8.982254 3.1007316 0 0 0 0 42.786137
-12.577677 8.1317587 3.1169164 0 0 0 0 42.791084
-13.44661 10.437759 3.0323427 0 0 0 0 42.796032
-13.158525 9.4603834 3.0537293 0 0 0 0 42.800976
-12.864651 8.5810223 3.077023 0 0 0 0 42.805923
-12.574836 7.7346454 3.0922787 0 0 0 0 42.810871
-13.505615 9.9768295 2.9836268 0 0 0 0 42.54903
-13.192699 9.0274849 3.0159554 0 0 0 0 42.553978
-12.869957 8.1651592 3.0452113 0 0 0 0 42.558926
-12.577305 7.3487697 3.0723855 0 0 0 0 42.563873
-13.609779 9.5614758 2.9488428 0 0 0 0 42.568821
-13.234839 8.6052628 2.9802618 0 0 0 0 42.573765
-12.899171 7.7749767 3.0205069 0 0 0 0 42.578712
-12.144915 6.7344532 2.9474957 0 0 0 0 42.58366
-13.674884 9.1241961 2.9081326 0 0 0 0 42.588608
-13.275005 8.1960468 2.9485605 0 0 0 0 42.593555
-12.914371 7.382822 2.9938247 0 0 0 0 42.598503
-12.135187 6.3773646 2.9288173 0 0 0 0 42.603447
-13.71798 8.6879606 2.866452 0 0 0 0 42.608395
-13.31418 7.7928357 2.919857 0 0 0 0 42.613342
-12.921582 6.9986839 2.9681475 0 0 0 0 42.61829
-12.240623 6.0830617 2.9379313 0 0 0 0 42.623238
-13.780116 8.2686901 2.8317332 0 0 0 0 42.628181
-13.350369 7.3996301 2.89115 0 0 0 0 42.633129
-12.460159 6.3804302 2.8393104 0 0 0 0 42.638077
-13.854291 7.8703966 2.7999802 0 0 0 0 42.647972
-13.390575 7.01442 2.8674326 0 0 0 0 42.65292
-0.45256487 0.20199548 0.11495756 0 0 0 0 42.662811
-13.900437 7.4621601 2.7672758 0 0 0 0 42.667759
-0.45255619 0.20798649 0.10896653 0 0 0 0 42.677654
-14.058741 7.1157088 2.7593665 0 0 0 0 42.687546
-0.45254415 0.21297644 0.10197649 0 0 0 0 42.692493
-0.45147559 0.17798916 0.11402404 0 0 0 0 42.702389
-0.4584724 0.18596612 0.10902192 0 0 0 0 42.717228
-0.44647688 0.20197339 0.093030922 0 0 0 0 42.727123
-0.45044908 0.18697113 0.1000464 0 0 0 0 42.732071
-0.45839456 0.15696767 0.1150774 0 0 0 0 42.741962
-0.46638918 0.16394228 0.11007495 0 0 0 0 42.756805
-0.45238894 0.17895184 0.092087619 0 0 0 0 42.766701
-0.4623678 0.16593862 0.10109327 0 0 0 0 42.771645
-0.48032674 0.13991752 0.12010723 0 0 0 0 42.78154
-0.4793109 0.14390831 0.11211956 0 0 0 0 42.796383
-0.46030021 0.15592571 0.091141939 0 0 0 0 42.806274
-0.48129284 0.14689253 0.104129 0 0 0 0 42.811222
-0.38715982 0.094090261 0.098318502 0 0 0 0 42.821117
-0.38113704 0.09509252 0.090340979 0 0 0 0 42.835957
-0.44019014 0.12595671 0.086240806 0 0 0 0 42.845852
-0.40813968 0.10402845 0.088311501 0 0 0 0 42.8508
-0.38908291 0.076080419 0.09937676 0 0 0 0 42.860691
-0.39106572 0.07906606 0.092386611 0 0 0 0 42.875534
-0.37304857 0.087084003 0.073412359 0 0 0 0 42.885426
-0.38803917 0.079060607 0.08340627 0 0 0 0 42.890373
-0.38500276 0.058081731 0.098443225 0 0 0 0 42.900269
-0.38297963 0.059075158 0.090460576 0 0 0 0 42.915108
-0.37096372 0.06708096 0.072478473 0 0 0 0 42.925003
-0.38795781 0.060053993 0.083468594 0 0 0 0 42.929951
-0.38492331 0.04007528 0.0985047 0 0 0 0 42.939846
-0.38690138 0.041060779 0.091516756 0 0 0 0 42.954685
-0.37388402 0.049067784 0.072536051 0 0 0 0 42.964581
-0.38487449 0.041053057 0.082535237 0 0 0 0 42.969524
-0.3818433 0.022075607 0.098570481 0 0 0 0 42.97942
-0.37881625 0.022070175 0.089590393 0 0 0 0 42.994263
-0.36880013 0.03007157 0.071605742 0 0 0 0 43.004154
-0.37679049 0.022063553 0.081608988 0 0 0 0 43.009102
-0.38576761 0.0050623049 0.10062602 0 0 0 0 43.018997
-0.38499805 0.005094443 0.091370553 0 0 0 0 42.779385
-0.35997239 0.011124146 0.069407508 0 0 0 0 42.789276
-0.38697037 0.0040792273 0.083384909 0 0 0 0 42.794224
-0.38094988 -0.010891414 0.10041916 0 0 0 0 42.804119
-0.3809208 -0.011903313 0.091436192 0 0 0 0 42.818958
-0.36989626 -0.0059030084 0.070454963 0 0 0 0 42.828854
-0.38288942 -0.013919652 0.082451671 0 0 0 0 42.833801
-0.38587266 -0.028906669 0.10247427 0 0 0 0 42.843693
-0.37484166 -0.028897583 0.09050481 0 0 0 0 42.858536
-0.35781479 -0.02388397 0.069532655 0 0 0 0 42.868431
-0.37980917 -0.031919558 0.082517445 0 0 0 0 42.873375
-0.395794 -0.047932066 0.10552404 0 0 0 0 42.88327
-0.39676228 -0.049946398 0.096540906 0 0 0 0 42.898109
-0.37873483 -0.043932669 0.073569097 0 0 0 0 42.908005
-0.39272782 -0.0519518 0.085564427 0 0 0 0 42.912952
-0.40271607 -0.066949971 0.10957794 0 0 0 0 42.922848
-0.40068147 -0.068959862 0.098598845 0 0 0 0 42.937687
-0.38165253 -0.062944852 0.074628517 0 0 0 0 42.947582
-0.39764455 -0.071967542 0.087622203 0 0 0 0 42.95253
-0.38863635 -0.082927302 0.10765691 0 0 0 0 42.962421
-0.38860062 -0.085940585 0.097676337 0 0 0 0 42.977264
-0.37656695 -0.081941217 0.07369893 0 0 0 0 42.987156
-0.38456342 -0.088945962 0.086701177 0 0 0 0 42.992104
-0.40855223 -0.10597141 0.11469816 0 0 0 0 43.001999
-0.40751263 -0.10998368 0.10372007 0 0 0 0 43.016838
-0.39047608 -0.10597518 0.077749506 0 0 0 0 43.026733
-0.40946832 -0.11600285 0.092740148 0 0 0 0 43.031681
-0.39747041 -0.12295411 0.11377489 0 0 0 0 43.041573
-0.39143011 -0.12595715 0.10080262 0 0 0 0 43.056416
-0.38039145 -0.12396006 0.076826259 0 0 0 0 43.066311
-0.3913869 -0.13197063 0.090825543 0 0 0 0 43.071255
-0.40338328 -0.14496998 0.1178344 0 0 0 0 43.08115
-0.40733758 -0.15199277 0.10785303 0 0 0 0 43.095993
-0.42727631 -0.16206285 0.087847672 0 0 0 0 43.105885
-0.4422698 -0.17208062 0.10384367 0 0 0 0 43.110832
-0.45027113 -0.18406865 0.13285688 0 0 0 0 43.120728
-0.44122514 -0.18806724 0.11789002 0 0 0 0 43.135567
-0.42018232 -0.18405376 0.08792536 0 0 0 0 43.145462
-0.43118036 -0.19206233 0.10392461 0 0 0 0 43.15041
-0.43918401 -0.20305026 0.13293678 0 0 0 0 43.160301
-0.47210604 -0.2271345 0.12893455 0 0 0 0 43.175144
-0.45205548 -0.22512563 0.096970931 0 0 0 0 43.185036
-0.46704918 -0.23614141 0.11496799 0 0 0 0 43.189983
-0.47805825 -0.2471319 0.14797604 0 0 0 0 43.199879
-0.48299447 -0.26016006 0.1360002 0 0 0 0 43.214718
-0.47192562 -0.26517347 0.1030322 0 0 0 0 43.224613
-0.49092102 -0.27719545 0.12402481 0 0 0 0 43.229561
-6.7471142 -6.2331386 1.9471428 0 0 0 0 43.32486
-6.8254542 -6.2410326 2.2120461 0 0 0 0 43.329807
-6.8898234 -6.2428803 2.4869626 0 0 0 0 43.334755
-6.4314928 -6.2987552 1.654681 0 0 0 0 43.339703
-6.497869 -6.2936163 1.9225866 0 0 0 0 43.34465
-6.5712256 -6.2915034 2.1814857 0 0 0 0 43.349598
-6.6575689 -6.3044038 2.4563832 0 0 0 0 43.354542
-6.2920203 -6.4734535 1.6661035 0 0 0 0 43.359489
-6.3654132 -6.4613314 1.932991 0 0 0 0 43.364437
-6.4218206 -6.4341855 2.1848848 0 0 0 0 43.369385
-6.4273229 -6.362926 2.4277999 0 0 0 0 43.374332
-6.0198474 -6.5028677 1.6425488 0 0 0 0 43.37928
-6.1660876 -6.5639019 1.9264174 0 0 0 0 43.384224
-6.2404718 -6.5477972 2.1792986 0 0 0 0 43.389172
-6.3388205 -6.5577278 2.4521759 0 0 0 0 43.394119
-5.4045024 -6.1345553 1.5230229 0 0 0 0 43.399067
-5.5626888 -6.2076383 1.7888883 0 0 0 0 43.404015
-5.732841 -6.2957492 2.0557542 0 0 0 0 43.408958
-5.907011 -6.3888459 2.3436196 0 0 0 0 43.413906
-4.9089875 -5.8534946 1.4294294 0 0 0 0 43.418854
-5.0631495 -5.9275861 1.6793017 0 0 0 0 43.423801
-5.2183094 -5.9996862 1.9241701 0 0 0 0 43.428749
-5.3545322 -6.0527267 2.1800432 0 0 0 0 43.433697
-4.4564581 -5.5845232 1.3437901 0 0 0 0 43.438641
-4.6105876 -5.6636314 1.5786681 0 0 0 0 43.443588
-4.7537456 -5.7267218 1.806543 0 0 0 0 43.448536
-4.9128909 -5.8078265 2.0554161 0 0 0 0 43.453484
-4.0628529 -5.3556743 1.2711146 0 0 0 0 43.458431
-4.2059903 -5.4217753 1.4889929 0 0 0 0 43.463379
-4.3511147 -5.4918838 1.7048732 0 0 0 0 43.468323
-4.5072379 -5.5739975 1.9397515 0 0 0 0 43.47327
-3.7022369 -5.1348958 1.2024024 0 0 0 0 43.478218
-3.8393626 -5.1989961 1.4082869 0 0 0 0 43.483166
-3.9974306 -5.2881451 1.6171707 0 0 0 0 43.488113
-4.1375651 -5.3552399 1.8340541 0 0 0 0 43.493061
-3.3875523 -4.950211 1.1456674 0 0 0 0 43.498005
-3.5186753 -5.0073133 1.3375522 0 0 0 0 43.502953
-3.6557715 -5.0754299 1.5294414 0 0 0 0 43.5079
-3.8018675 -5.1535492 1.7383291 0 0 0 0 43.512848
-3.1038377 -4.7815933 1.0939078 0 0 0 0 43.517796
-3.2339423 -4.841702 1.2777975 0 0 0 0 43.522739
-3.3640399 -4.9018168 1.4566869 0 0 0 0 43.527687
-3.5051253 -4.9779367 1.6545795 0 0 0 0 43.532635
-2.8500822 -4.635036 1.0501317 0 0 0 0 43.537582
-2.9761803 -4.6921463 1.2240235 0 0 0 0 43.54253
-3.113235 -4.7672834 1.3989205 0 0 0 0 43.547478
-3.2393484 -4.8223858 1.5798095 0 0 0 0 43.552422
-2.6093411 -4.4835072 1.0063314 0 0 0 0 43.557369
-2.7473776 -4.5636511 1.1772332 0 0 0 0 43.562317
-2.8714528 -4.6237698 1.3401312 0 0 0 0 43.567265
-2.9925611 -4.6758709 1.5120238 0 0 0 0 43.572212
-2.3965499 -4.3570361 0.96952116 0 0 0 0 43.57716
-2.5186195 -4.4171548 1.128422 0 0 0 0 43.582104
-2.6416781 -4.4792805 1.2833239 0 0 0 0 43.587051
-2.7747273 -4.5544124 1.4542264 0 0 0 0 43.591999
-2.1987472 -4.237596 0.93569809 0 0 0 0 43.596947
-2.3188016 -4.2997179 1.0876042 0 0 0 0 43.601894
-2.4398494 -4.3628459 1.2365099 0 0 0 0 43.606842
-2.5649056 -4.4289713 1.3964131 0 0 0 0 43.611786
-2.0136347 -4.1275282 0.90664637 0 0 0 0 44.119614
-2.1346714 -4.1936707 1.0525498 0 0 0 0 44.124561
-2.2527103 -4.2568107 1.194454 0 0 0 0 44.129509
-2.3717704 -4.3179407 1.3463538 0 0 0 0 44.134457
-1.8448169 -4.0261154 0.87881082 0 0 0 0 44.1394
-1.9628472 -4.091258 1.0187176 0 0 0 0 44.144348
-2.0758877 -4.1503921 1.1546243 0 0 0 0 44.149296
-2.1949315 -4.2135315 1.2995266 0 0 0 0 44.154243
-1.6830066 -3.923717 0.85296351 0 0 0 0 44.159191
-1.7980371 -3.9848607 0.98586959 0 0 0 0 44.164139
-1.9140422 -4.0540099 1.1167845 0 0 0 0 44.169083
-2.0250971 -4.1091366 1.2546887 0 0 0 0 44.17403
-1.5341787 -3.8293493 0.82910669 0 0 0 0 44.178978
-1.6461959 -3.8924913 0.95701993 0 0 0 0 44.183926
-1.7572123 -3.9536362 1.0809321 0 0 0 0 44.188873
-1.8672507 -4.0107694 1.2118404 0 0 0 0 44.193821
-1.4509789 -3.8891172 0.83834988 0 0 0 0 44.198765
-1.5123075 -3.8211617 0.93417013 0 0 0 0 44.203712
-1.6123617 -3.8622909 1.0470731 0 0 0 0 44.20866
-1.7243696 -3.9294322 1.1759913 0 0 0 0 44.213608
-1.382653 -4.0009093 0.85963964 0 0 0 0 44.218555
-1.4499891 -3.9299717 0.95444602 0 0 0 0 44.223503
-1.5092974 -3.8640237 1.0402715 0 0 0 0 44.228447
-1.5845128 -3.8391025 1.1391261 0 0 0 0 44.233395
-1.3123215 -4.1146932 0.88193667 0 0 0 0 44.238342
-1.3836695 -4.0397668 0.97673088 0 0 0 0 44.24329
-1.4489783 -3.9738352 1.0625465 0 0 0 0 44.248238
-1.5102988 -3.903893 1.1483629 0 0 0 0 44.253181
-1.2419624 -4.2394719 0.90724987 0 0 0 0 44.258129
-1.3163302 -4.1565561 1.0000281 0 0 0 0 44.263077
-1.3856483 -4.087636 1.0858331 0 0 0 0 44.268024
-1.4499807 -4.0137024 1.1716388 0 0 0 0 44.272972
-1.1675785 -4.3742337 0.93558449 0 0 0 0 44.27792
-1.2459679 -4.2833309 1.0273452 0 0 0 0 44.282864
-1.3193125 -4.2034264 1.1101285 0 0 0 0 44.287811
-1.3876592 -4.1235061 1.1939194 0 0 0 0 44.292759
-1.086202 -4.5049753 0.96292663 0 0 0 0 44.297707
-1.1735967 -4.4130964 1.055671 0 0 0 0 44.302654
-1.2499585 -4.3262033 1.1364396 0 0 0 0 44.307602
-1.3223293 -4.236299 1.2172103 0 0 0 0 44.312546
-1.0077602 -4.6617165 0.99630076 0 0 0 0 44.317493
-1.0991863 -4.5578523 1.0870219 0 0 0 0 44.322441
-1.1766056 -4.4479685 1.1627573 0 0 0 0 44.327389
-1.2559704 -4.3610826 1.2445203 0 0 0 0 44.332336
-0.91934401 -4.8074303 1.0276781 0 0 0 0 44.337284
-1.0168016 -4.6915855 1.1163727 0 0 0 0 44.342228
-1.103204 -4.5897231 1.1951039 0 0 0 0 44.347176
-1.1836112 -4.485846 1.2728416 0 0 0 0 44.352123
-0.82591355 -4.9591241 1.0620733 0 0 0 0 44.357071
