# .PCD v0.7 - Point Cloud Data file format
VERSION 0.7
FIELDS x y z normal_x normal_y normal_z intensity curvature
SIZE 4 4 4 4 4 4 4 4
TYPE F F F F F F F F
COUNT 1 1 1 1 1 1 1 1
WIDTH 973
HEIGHT 1
VIEWPOINT 0 0 0 1 0 0 0
POINTS 973
DATA ascii
-2.1304228 -6.1907783 3.0443363 0 0 0 0 74.428185
-2.4835021 -6.4824681 3.2134423 0 0 0 0 74.433136
-2.9043751 -6.8095274 3.4095862 0 0 0 0 74.43808
-1.6288301 -5.8132644 2.8181233 0 0 0 0 74.443031
-1.9233892 -6.0317931 2.9448397 0 0 0 0 74.447975
-2.2456272 -6.2944226 3.0888202 0 0 0 0 74.452919
-2.6395214 -6.6123719 3.2699907 0 0 0 0 74.45787
-1.4488014 -5.6603885 2.7335739 0 0 0 0 74.462814
-1.7282853 -5.8848362 2.854398 0 0 0 0 74.467766
-2.0295973 -6.1324091 2.9833322 0 0 0 0 74.47271
-2.3857152 -6.4112873 3.1333196 0 0 0 0 74.477654
-1.2845768 -5.5365252 2.6642072 0 0 0 0 74.482605
-1.5432256 -5.7329664 2.763876 0 0 0 0 74.487549
-1.8196763 -5.9554982 2.8716953 0 0 0 0 74.4925
-2.1547823 -6.231277 3.0117373 0 0 0 0 74.497444
-1.1273565 -5.412714 2.5958138 0 0 0 0 74.502388
-1.3691008 -5.5921254 2.6814044 0 0 0 0 74.507339
-1.628567 -5.8076091 2.7772293 0 0 0 0 74.512283
-1.9378119 -6.0583377 2.8961604 0 0 0 0 74.517235
-0.97718048 -5.2839642 2.5273514 0 0 0 0 74.522179
-1.2078393 -5.4713125 2.609051 0 0 0 0 74.52713
-1.4484146 -5.6677566 2.6897888 0 0 0 0 74.532074
-1.7337837 -5.8964267 2.7906258 0 0 0 0 74.537018
-0.83783054 -5.181191 2.4730654 0 0 0 0 74.541969
-1.0506946 -5.335568 2.5325561 0 0 0 0 74.546913
-1.280192 -5.5399323 2.611403 0 0 0 0 74.551865
-1.5465903 -5.7595458 2.6992369 0 0 0 0 74.556808
-0.70257604 -5.0654955 2.4136546 0 0 0 0 74.561752
-0.90541208 -5.2208266 2.4681916 0 0 0 0 74.566704
-1.1180462 -5.4021859 2.5299103 0 0 0 0 74.571648
-1.3655213 -5.6077347 2.6056983 0 0 0 0 74.576599
-0.57617486 -4.971776 2.3663943 0 0 0 0 74.581543
-0.76710635 -5.1101208 2.4068344 0 0 0 0 74.586494
-0.96674865 -5.287425 2.4615686 0 0 0 0 74.591438
-1.1963832 -5.466969 2.5192065 0 0 0 0 74.596382
-0.45578274 -4.8771081 2.3191028 0 0 0 0 74.601334
-0.6347726 -5.0044332 2.3494956 0 0 0 0 74.606277
-0.82055056 -5.1597424 2.3890984 0 0 0 0 74.611229
-1.039067 -5.3521972 2.4458878 0 0 0 0 74.616173
-0.33942634 -4.7784758 2.2717619 0 0 0 0 74.621117
-0.50940078 -4.9057555 2.2981894 0 0 0 0 74.626068
-0.68515062 -5.0620189 2.3328385 0 0 0 0 74.631012
-0.88688022 -5.2214952 2.3694148 0 0 0 0 74.635963
-0.22701049 -4.6888356 2.2294815 0 0 0 0 74.640907
-0.38997439 -4.8150964 2.250927 0 0 0 0 74.645851
-0.55481374 -4.9563565 2.274492 0 0 0 0 74.650803
-0.74354786 -5.1117859 2.3030844 0 0 0 0 74.655746
-0.12060381 -4.5982475 2.1871696 0 0 0 0 74.660698
-0.27458966 -4.7184968 2.200599 0 0 0 0 74.665642
-0.43045366 -4.8547211 2.2191563 0 0 0 0 74.670593
-0.61009961 -5.020071 2.2478671 0 0 0 0 74.675537
-0.018136542 -4.5176349 2.1519265 0 0 0 0 74.680481
-0.16514811 -4.6318822 2.1583321 0 0 0 0 74.685432
-0.31103408 -4.7620864 2.1688769 0 0 0 0 74.690376
-0.47981474 -4.9064503 2.1844528 0 0 0 0 74.695328
0.080302849 -4.4330735 2.114634 0 0 0 0 74.700272
-0.058652014 -4.5532589 2.120121 0 0 0 0 74.705215
-0.19758128 -4.6754613 2.123625 0 0 0 0 74.710167
-0.35449293 -4.7988396 2.1250696 0 0 0 0 74.715111
0.17485686 -4.3654704 2.0864697 0 0 0 0 74.720062
0.042848755 -4.4756713 2.0828991 0 0 0 0 74.725006
-0.087201595 -4.5788965 2.0742772 0 0 0 0 74.72995
-0.23606029 -4.7082043 2.075803 0 0 0 0 74.734901
0.26736036 -4.2909102 2.0552385 0 0 0 0 74.739845
0.1413001 -4.3921175 2.0446148 0 0 0 0 74.744797
0.017334154 -4.5052814 2.0371003 0 0 0 0 74.749741
-0.12161814 -4.6195869 2.0285378 0 0 0 0 74.754692
0.3558459 -4.2143846 2.0239747 0 0 0 0 74.759636
0.23578355 -4.3135734 2.0093575 0 0 0 0 74.76458
0.11880176 -4.422719 1.9968359 0 0 0 0 74.769531
-0.013152631 -4.534996 1.9842832 0 0 0 0 74.774475
0.44135472 -4.14186 1.9957333 0 0 0 0 74.779427
0.32832167 -4.2430124 1.9781595 0 0 0 0 74.78437
0.21624251 -4.3371906 1.9565307 0 0 0 0 74.789314
0.092322394 -4.452415 1.942034 0 0 0 0 74.794266
0.52381295 -4.062387 1.9644208 0 0 0 0 74.79921
0.41473269 -4.1555557 1.9407951 0 0 0 0 74.804161
0.31172907 -4.2586455 1.9202765 0 0 0 0 74.809105
0.19379318 -4.3698592 1.9007691 0 0 0 0 74.814056
0.60435849 -3.9958711 1.9402106 0 0 0 0 74.819
0.5002535 -4.0840387 1.9115615 0 0 0 0 74.823944
0.40325284 -4.1861014 1.8880576 0 0 0 0 74.828896
0.29125583 -4.2873225 1.8614887 0 0 0 0 74.833839
0.68294996 -3.9363382 1.9200516 0 0 0 0 74.838791
0.58482033 -4.019496 1.8863832 0 0 0 0 74.843735
0.49070832 -4.1046176 1.8527471 0 0 0 0 74.848679
0.38674566 -4.2087855 1.8242342 0 0 0 0 74.85363
0.78448051 -4.0100675 1.9641103 0 0 0 0 74.858574
0.66432273 -3.9460311 1.8571094 0 0 0 0 74.863525
0.57827765 -4.0390739 1.8245717 0 0 0 0 74.868469
0.4782185 -4.1292667 1.7889557 0 0 0 0 74.873413
0.90818506 -4.1723146 2.0515313 0 0 0 0 74.655327
0.75594026 -3.9512098 1.8650881 0 0 0 0 74.660271
0.6603334 -3.9646521 1.7938402 0 0 0 0 74.665222
0.56729442 -4.0567937 1.7562656 0 0 0 0 74.670166
1.048596 -4.3731723 2.1598086 0 0 0 0 74.675117
0.88425845 -4.1343193 1.9561679 0 0 0 0 74.680061
0.74398315 -3.9110856 1.7727515 0 0 0 0 74.685005
0.65275699 -3.9763212 1.7219571 0 0 0 0 74.689957
1.1958903 -4.5580187 2.2619801 0 0 0 0 74.694901
1.0174462 -4.2994432 2.040117 0 0 0 0 74.699852
0.87019384 -4.076323 1.8506733 0 0 0 0 74.704796
0.73733789 -3.9127886 1.6957878 0 0 0 0 74.709747
1.3716671 -4.8132977 2.4018579 0 0 0 0 74.714691
1.1719642 -4.5121737 2.1485522 0 0 0 0 74.719635
1.0054327 -4.2454619 1.9306649 0 0 0 0 74.724586
0.85617697 -4.023335 1.7442204 0 0 0 0 74.72953
1.5594325 -5.0674596 2.5427756 0 0 0 0 74.734482
1.3426355 -4.7476492 2.2702441 0 0 0 0 74.739426
1.1609423 -4.453259 2.0300632 0 0 0 0 74.74437
0.99656731 -4.2104111 1.8263839 0 0 0 0 74.749321
1.7642283 -5.3274174 2.6898112 0 0 0 0 74.754265
1.5304003 -4.9969029 2.4001217 0 0 0 0 74.759216
1.3305403 -4.6738691 2.1366265 0 0 0 0 74.76416
1.1540772 -4.4142661 1.9167576 0 0 0 0 74.769104
2.0320399 -5.7351627 2.9153428 0 0 0 0 74.774055
1.7423683 -5.275805 2.5463459 0 0 0 0 74.778999
1.5244182 -4.9341021 2.2626212 0 0 0 0 74.783951
1.3246845 -4.6319432 2.0143013 0 0 0 0 74.788895
2.1587369 -5.6969905 2.9195614 0 0 0 0 74.793846
2.0121856 -5.6766744 2.7548294 0 0 0 0 74.79879
1.7414595 -5.2189999 2.4039173 0 0 0 0 74.803734
1.521553 -4.8862414 2.1292586 0 0 0 0 74.808685
2.2661269 -5.6151667 2.9023359 0 0 0 0 74.813629
2.1643507 -5.7030482 2.7866924 0 0 0 0 74.818581
2.0081909 -5.60009 2.5892231 0 0 0 0 74.823524
1.743693 -5.179152 2.2636437 0 0 0 0 74.828468
2.3694577 -5.525403 2.8820274 0 0 0 0 74.83342
2.2777667 -5.6241708 2.769515 0 0 0 0 74.838364
2.1929238 -5.7039118 2.652868 0 0 0 0 74.843315
2.0103593 -5.5453844 2.4318256 0 0 0 0 74.848259
2.4718163 -5.4406137 2.8657568 0 0 0 0 74.85321
2.3830547 -5.527432 2.7441545 0 0 0 0 74.858154
2.3062658 -5.6140857 2.6295977 0 0 0 0 74.863098
2.2225385 -5.7068181 2.5130653 0 0 0 0 74.86805
2.5741968 -5.3588142 2.8505116 0 0 0 0 74.872993
2.4893932 -5.4386411 2.7238653 0 0 0 0 74.877945
2.4216347 -5.5282235 2.6083684 0 0 0 0 74.882889
2.3388212 -5.6089911 2.4867382 0 0 0 0 74.887833
2.667459 -5.2611461 2.8290958 0 0 0 0 74.892784
2.5967822 -5.3577976 2.7086475 0 0 0 0 74.897728
2.52689 -5.4274936 2.5819733 0 0 0 0 74.902679
2.4541159 -5.5121813 2.4594154 0 0 0 0 74.907623
2.7688444 -5.1813293 2.8168631 0 0 0 0 74.912567
2.7001119 -5.2690153 2.690346 0 0 0 0 74.917519
2.6311457 -5.327754 2.5575829 0 0 0 0 74.922462
2.5684435 -5.4213362 2.4371393 0 0 0 0 74.927414
2.8662117 -5.0995469 2.8045976 0 0 0 0 74.932358
2.7984042 -5.1752934 2.6699827 0 0 0 0 74.937309
2.7445614 -5.2508397 2.544421 0 0 0 0 74.942253
2.6797075 -5.3225346 2.4127836 0 0 0 0 74.947197
2.9595428 -5.0138001 2.7922823 0 0 0 0 74.952148
2.9017696 -5.0924749 2.6557314 0 0 0 0 74.957092
2.844821 -5.1521258 2.5210228 0 0 0 0 74.962044
2.7890034 -5.2287245 2.3914621 0 0 0 0 74.966988
3.0579462 -4.937973 2.784071 0 0 0 0 74.971931
2.9990819 -5.0037098 2.6414058 0 0 0 0 74.976883
2.9491322 -5.0623155 2.5047154 0 0 0 0 74.981827
2.8983088 -5.1368961 2.3721571 0 0 0 0 74.986778
3.1512811 -4.8532162 2.772764 0 0 0 0 74.991722
3.0954061 -4.9159603 2.626085 0 0 0 0 74.996666
3.0565152 -4.9824433 2.4925044 0 0 0 0 75.001617
3.0076282 -5.0480413 2.3558776 0 0 0 0 75.006561
3.2426255 -4.7704592 2.7634656 0 0 0 0 75.011513
3.1977909 -4.8380976 2.617871 0 0 0 0 75.016457
3.1578212 -4.8926506 2.4771852 0 0 0 0 75.021408
3.1078415 -4.9443264 2.3324356 0 0 0 0 75.026352
3.3329692 -4.6877098 2.754163 0 0 0 0 75.031296
3.2931018 -4.7503304 2.6055455 0 0 0 0 75.036247
3.2550862 -4.7979007 2.4608078 0 0 0 0 75.041191
3.2141292 -4.8524885 2.3171182 0 0 0 0 75.046143
3.4283457 -4.6108732 2.7499304 0 0 0 0 75.051086
3.3924589 -4.6694927 2.5972941 0 0 0 0 75.05603
3.3574245 -4.7140541 2.4505424 0 0 0 0 75.060982
3.3244674 -4.7685719 2.3068833 0 0 0 0 75.065926
3.5206988 -4.5310707 2.7446601 0 0 0 0 75.070877
3.4908161 -4.5896459 2.5910473 0 0 0 0 75.075821
3.4577215 -4.6252332 2.4392264 0 0 0 0 75.080772
3.4227045 -4.6708126 2.2904835 0 0 0 0 75.085716
3.6130564 -4.4522586 2.7403984 0 0 0 0 75.09066
3.5810959 -4.499896 2.5816844 0 0 0 0 75.095612
3.5610695 -4.5443416 2.4329901 0 0 0 0 75.100555
3.530015 -4.5839205 2.2802112 0 0 0 0 75.105507
3.7064195 -4.3754115 2.739157 0 0 0 0 75.110451
3.6754115 -4.4150925 2.5743787 0 0 0 0 75.115395
3.6613815 -4.4594765 2.4267075 0 0 0 0 75.120346
3.636313 -4.4970112 2.2729344 0 0 0 0 75.12529
3.7934659 -4.2908173 2.7324948 0 0 0 0 74.995201
3.7714732 -4.3333964 2.5697753 0 0 0 0 75.000145
3.7573657 -4.366828 2.4160099 0 0 0 0 75.005096
3.7393169 -4.4072866 2.2632883 0 0 0 0 75.01004
3.8838029 -4.2109985 2.7312169 0 0 0 0 75.014992
3.8677919 -4.2505412 2.5664952 0 0 0 0 75.019936
3.8546522 -4.2789907 2.4096906 0 0 0 0 75.024887
3.8415709 -4.3144317 2.2539458 0 0 0 0 75.029831
3.9741309 -4.1301785 2.7299297 0 0 0 0 75.034775
3.9590824 -4.1637478 2.561161 0 0 0 0 75.039726
3.9539297 -4.1911182 2.4053788 0 0 0 0 75.04467
4.0889239 -4.3805752 2.3295214 0 0 0 0 75.049622
4.0614405 -4.0473852 2.7286141 0 0 0 0 75.054565
4.0634432 -4.0887604 2.5649781 0 0 0 0 75.059509
4.0502019 -4.1022806 2.4000463 0 0 0 0 75.064461
4.1880794 -4.2767448 2.3200738 0 0 0 0 75.069405
4.1608152 -3.975415 2.7354374 0 0 0 0 75.074356
4.1527019 -3.9989746 2.5606103 0 0 0 0 75.0793
4.1514888 -4.017354 2.3997667 0 0 0 0 75.084251
4.3063855 -4.1946497 2.3218856 0 0 0 0 75.089195
4.2470965 -3.8896289 2.7340915 0 0 0 0 75.094139
4.2449794 -3.9131274 2.5602875 0 0 0 0 75.099091
4.2839479 -3.9590032 2.4168348 0 0 0 0 75.104034
4.4156046 -4.1016593 2.3205688 0 0 0 0 75.108986
4.3303599 -3.8018692 2.732717 0 0 0 0 75.11393
4.3412523 -3.827235 2.5609794 0 0 0 0 75.118874
4.452611 -3.9321573 2.4543133 0 0 0 0 75.123825
4.5197654 -4.0017223 2.3181729 0 0 0 0 75.128769
4.4045758 -3.7072234 2.7272477 0 0 0 0 75.13372
4.4355206 -3.7413509 2.5626633 0 0 0 0 75.138664
4.6041002 -3.8815484 2.4815223 0 0 0 0 75.143608
4.6329894 -3.9106688 2.3198876 0 0 0 0 75.14856
4.514957 -3.6400745 2.743154 0 0 0 0 75.153503
4.5327811 -3.6564052 2.5683668 0 0 0 0 75.158455
4.7304235 -3.8072655 2.4964311 0 0 0 0 75.163399
4.7522054 -3.8205268 2.3256335 0 0 0 0 75.16835
4.6132579 -3.5610924 2.7519121 0 0 0 0 75.173294
4.6340408 -3.5714228 2.5740852 0 0 0 0 75.178238
4.8366113 -3.7132552 2.5000927 0 0 0 0 75.183189
4.8623667 -3.7234817 2.3292849 0 0 0 0 75.188133
4.7055225 -3.4771805 2.7586043 0 0 0 0 75.193085
4.7343011 -3.4874313 2.5818079 0 0 0 0 75.198029
4.9367485 -3.613307 2.5026796 0 0 0 0 75.202972
4.9714861 -3.6214535 2.3318889 0 0 0 0 75.207924
4.7957678 -3.3912857 2.7652712 0 0 0 0 75.212868
4.8395486 -3.4033685 2.5925491 0 0 0 0 75.217819
5.044919 -3.519243 2.5103478 0 0 0 0 75.222763
5.0765877 -3.5174601 2.3344605 0 0 0 0 75.227707
4.8900099 -3.3063285 2.7749615 0 0 0 0 75.232658
4.9718904 -3.335942 2.6175387 0 0 0 0 75.237602
5.1440334 -3.4172933 2.5139129 0 0 0 0 75.242554
5.1917043 -3.4183164 2.3441122 0 0 0 0 75.247498
4.9952846 -3.2272289 2.7897449 0 0 0 0 75.252449
5.1363249 -3.2860813 2.6598046 0 0 0 0 75.257393
5.2621908 -3.324095 2.5266271 0 0 0 0 75.262337
5.3068066 -3.3171802 2.3527465 0 0 0 0 75.267288
5.0844703 -3.1353321 2.7973554 0 0 0 0 75.272232
5.1270623 -3.1215212 2.6134074 0 0 0 0 75.277184
5.1765828 -3.1065114 2.445477 0 0 0 0 75.282127
5.227139 -3.0954921 2.2775848 0 0 0 0 75.287071
5.1826711 -3.0473111 2.810034 0 0 0 0 75.292023
5.2412696 -3.036314 2.6311731 0 0 0 0 75.296967
5.2967367 -3.0152509 2.4632142 0 0 0 0 75.301918
5.3452282 -2.995285 2.2912371 0 0 0 0 75.306862
5.2497563 -2.9397054 2.8064225 0 0 0 0 75.311813
5.2511139 -2.8894713 2.5980005 0 0 0 0 75.316757
5.2473421 -2.8311548 2.4044898 0 0 0 0 75.321701
5.2566361 -2.783653 2.2191231 0 0 0 0 75.326653
5.0510764 -2.6896436 2.6655447 0 0 0 0 75.331596
5.0443482 -2.6324317 2.4630313 0 0 0 0 75.336548
5.0445275 -2.5729954 2.2795262 0 0 0 0 75.341492
5.0377302 -2.5166132 2.0970201 0 0 0 0 75.346436
4.8866024 -2.4720891 2.5470777 0 0 0 0 75.351387
4.9580202 -2.4497986 2.3891704 0 0 0 0 75.356331
5.0243316 -2.4194765 2.240175 0 0 0 0 75.361282
5.0836678 -2.3902519 2.0871613 0 0 0 0 75.366226
4.9898567 -2.3939536 2.5678573 0 0 0 0 75.37117
5.0602155 -2.3636987 2.4068775 0 0 0 0 75.376122
5.1214619 -2.3244569 2.2537856 0 0 0 0 75.381065
5.1957769 -2.2940719 2.1038208 0 0 0 0 75.386017
5.0910802 -2.3128269 2.5896032 0 0 0 0 75.390961
5.1533589 -2.270705 2.4214897 0 0 0 0 75.395912
5.232594 -2.2322586 2.2734754 0 0 0 0 75.400856
5.3078537 -2.1948826 2.1214545 0 0 0 0 75.4058
5.1782541 -2.2228942 2.6032176 0 0 0 0 75.410751
5.264523 -2.1834793 2.4442222 0 0 0 0 75.415695
5.3406806 -2.1350868 2.2931101 0 0 0 0 75.420647
5.4118757 -2.0887818 2.1369965 0 0 0 0 75.425591
5.2824354 -2.1377301 2.6259398 0 0 0 0 75.430534
5.3586106 -2.084475 2.4587855 0 0 0 0 75.435486
5.4507527 -2.0368869 2.3137434 0 0 0 0 75.44043
5.5288901 -1.9845113 2.1586049 0 0 0 0 75.445381
5.3775644 -2.0446894 2.6435587 0 0 0 0 75.450325
5.4657111 -1.990284 2.4814415 0 0 0 0 75.455276
5.5657897 -1.9356245 2.3363698 0 0 0 0 75.46022
5.6538877 -1.8801333 2.1842437 0 0 0 0 75.465164
5.4772925 -1.9529687 2.6656392 0 0 0 0 75.201576
5.5803943 -1.895391 2.5075543 0 0 0 0 75.20652
5.6733947 -1.8298354 2.3573623 0 0 0 0 75.211472
5.769443 -1.7692611 2.2062244 0 0 0 0 75.216415
5.5803933 -1.8588099 2.6892815 0 0 0 0 75.221367
5.6814127 -1.7902852 2.5270948 0 0 0 0 75.226311
5.7903757 -1.7235268 2.383955 0 0 0 0 75.231262
6.855443 -1.9252511 2.5918577 0 0 0 0 75.236206
5.6834655 -1.7616503 2.7128978 0 0 0 0 75.24115
6.7323484 -1.9611483 2.9637215 0 0 0 0 75.246101
6.8722262 -1.8752998 2.7985394 0 0 0 0 75.251045
7.00214 -1.7896179 2.6243191 0 0 0 0 75.255997
6.5171061 -1.8710377 3.0801489 0 0 0 0 75.260941
6.8681569 -1.8386027 2.9972517 0 0 0 0 75.265884
7.0179458 -1.7436481 2.8340304 0 0 0 0 75.270836
7.1667852 -1.6517535 2.6648314 0 0 0 0 75.27578
6.6620016 -1.7613505 3.1208241 0 0 0 0 75.280731
7.0149083 -1.7119145 3.0357895 0 0 0 0 75.285675
7.1746259 -1.6098536 2.8745463 0 0 0 0 75.290627
7.3383632 -1.5077995 2.7083185 0 0 0 0 75.29557
6.7968407 -1.6437862 3.157392 0 0 0 0 75.300514
7.1616316 -1.582225 3.074301 0 0 0 0 75.305466
7.3352432 -1.4700048 2.9170253 0 0 0 0 75.31041
7.4878879 -1.3551015 2.7446439 0 0 0 0 75.315361
6.9336438 -1.5231855 3.1959414 0 0 0 0 75.320305
7.3132882 -1.4464638 3.1157794 0 0 0 0 75.325249
7.4788079 -1.3223503 2.95437 0 0 0 0 75.3302
7.6663404 -1.1990477 2.7920532 0 0 0 0 75.335144
7.0743985 -1.398522 3.2374711 0 0 0 0 75.340096
7.4639034 -1.3067017 3.1582191 0 0 0 0 75.345039
7.6483092 -1.1723666 3.0027959 0 0 0 0 75.349983
7.7097621 -1.0205998 2.7927394 0 0 0 0 75.354935
7.2111096 -1.2679191 3.2759335 0 0 0 0 75.359879
7.6314583 -1.1637168 3.2086971 0 0 0 0 75.36483
7.624795 -0.9897514 2.976182 0 0 0 0 75.369774
7.7391601 -0.83830351 2.7903361 0 0 0 0 75.374725
7.3427701 -1.1313685 3.3133247 0 0 0 0 75.379669
7.5800309 -0.98546362 3.1690099 0 0 0 0 75.384613
7.7032566 -0.82186729 2.9910946 0 0 0 0 75.389565
7.9174666 -0.66821229 2.8416224 0 0 0 0 75.394508
7.4883699 -0.99162239 3.3587427 0 0 0 0 75.39946
7.6675386 -0.82446289 3.1880167 0 0 0 0 75.404404
7.8946023 -0.66057134 3.0525076 0 0 0 0 75.409348
8.1386528 -0.4915956 2.9090211 0 0 0 0 75.414299
7.6159377 -0.84412289 3.3940225 0 0 0 0 75.419243
7.8309512 -0.66650277 3.2393475 0 0 0 0 75.424194
8.0888653 -0.49024686 3.1138539 0 0 0 0 75.429138
8.3347807 -0.30625361 2.9702458 0 0 0 0 75.434082
7.7804127 -0.69413471 3.4474263 0 0 0 0 75.439034
8.0282784 -0.50511503 3.3047824 0 0 0 0 75.443977
8.2880344 -0.31085017 3.1781414 0 0 0 0 75.448929
8.5497942 -0.11167034 3.039465 0 0 0 0 75.453873
7.9528265 -0.54002148 3.5068252 0 0 0 0 75.458824
8.2135181 -0.33285961 3.3670762 0 0 0 0 75.463768
8.4821444 -0.12548809 3.2433567 0 0 0 0 75.468712
8.7727079 0.09202107 3.1126366 0 0 0 0 75.473663
8.0912323 -0.37933323 3.5520327 0 0 0 0 75.478607
8.4166918 -0.15736282 3.438412 0 0 0 0 75.483559
8.7081041 0.07126677 3.3205996 0 0 0 0 75.488503
9.0144854 0.3069627 3.1947851 0 0 0 0 75.493446
8.310442 -0.21063046 3.6304901 0 0 0 0 75.498398
8.6247492 0.030197624 3.5116627 0 0 0 0 75.503342
8.9359703 0.27706736 3.4007716 0 0 0 0 75.508293
9.1463308 0.52959675 3.2394323 0 0 0 0 75.513237
8.5175896 -0.035042439 3.7078402 0 0 0 0 75.518188
8.8307219 0.22674179 3.5848277 0 0 0 0 75.523132
9.0988426 0.49109456 3.4586153 0 0 0 0 75.528076
8.9737511 0.73158842 3.1790526 0 0 0 0 75.533028
8.7056799 0.15128118 3.7740216 0 0 0 0 75.537971
9.0485678 0.43445599 3.6649423 0 0 0 0 75.542923
8.9413137 0.68820471 3.3963356 0 0 0 0 75.547867
8.802206 0.92860466 3.1207175 0 0 0 0 75.552811
8.9166546 0.34492588 3.8532302 0 0 0 0 75.557762
8.955987 0.62931651 3.6219385 0 0 0 0 75.562706
8.7868204 0.88035762 3.3361089 0 0 0 0 75.567657
8.6387205 1.1167347 3.0674884 0 0 0 0 75.572601
8.958889 0.53943574 3.8607624 0 0 0 0 75.577545
8.7856255 0.81221408 3.5487273 0 0 0 0 75.582497
8.6273994 1.0634815 3.2779381 0 0 0 0 75.58744
8.490242 1.3010591 3.0213494 0 0 0 0 75.592392
8.8195381 0.7186656 3.793705 0 0 0 0 75.597336
8.6362553 0.99139434 3.4866295 0 0 0 0 75.602287
8.4909668 1.243889 3.2288795 0 0 0 0 75.607231
8.340807 1.4793906 2.9772563 0 0 0 0 75.612175
8.6642408 0.89468896 3.71961 0 0 0 0 75.617126
8.5008821 1.1677598 3.4316094 0 0 0 0 75.62207
8.3406134 1.4161516 3.177834 0 0 0 0 75.627022
8.1914082 1.6537206 2.9331956 0 0 0 0 75.631966
8.529953 1.0649955 3.6566458 0 0 0 0 75.636909
8.3525867 1.3369721 3.3725975 0 0 0 0 75.641861
8.1893044 1.5834039 3.126826 0 0 0 0 75.646805
8.0520372 1.8221916 2.8952231 0 0 0 0 75.651756
8.3996687 1.2333626 3.5967119 0 0 0 0 75.6567
8.219285 1.5033876 3.3216674 0 0 0 0 75.661644
8.0609484 1.7519403 3.0848958 0 0 0 0 75.666595
7.9176798 1.9877324 2.8602941 0 0 0 0 75.671539
8.2596064 1.3951771 3.535197 0 0 0 0 75.916161
8.0861473 1.6673442 3.2721419 0 0 0 0 75.921104
7.9218111 1.9118807 3.0423639 0 0 0 0 75.926056
7.7735057 2.1486497 2.8227165 0 0 0 0 75.931
8.1313696 1.5555844 3.4793255 0 0 0 0 75.935951
7.9578881 1.8258364 3.2262857 0 0 0 0 75.940895
7.7835536 2.0683148 3.000484 0 0 0 0 75.945839
7.7218666 2.3302205 2.8209634 0 0 0 0 75.95079
7.9962044 1.707927 3.4234941 0 0 0 0 75.955734
7.8246722 1.9802645 3.1784427 0 0 0 0 75.960686
7.6722317 2.2270892 2.9696896 0 0 0 0 75.96563
8.0714617 2.6447237 2.965657 0 0 0 0 75.970573
7.8730273 1.8594209 3.3727164 0 0 0 0 75.975525
7.703455 2.1308789 3.1396792 0 0 0 0 75.980469
7.845685 2.4734373 3.0512714 0 0 0 0 75.98542
8.4417505 2.9875245 3.1221867 0 0 0 0 75.990364
7.7488718 2.0079131 3.3229594 0 0 0 0 75.995308
7.6011715 2.2857258 3.1079531 0 0 0 0 76.000259
8.191226 2.790961 3.2019217 0 0 0 0 76.005203
8.8058195 3.3532908 3.2804906 0 0 0 0 76.010155
7.6317129 2.1545112 3.2782452 0 0 0 0 76.015099
7.9279494 2.580018 3.2517302 0 0 0 0 76.02005
8.565423 3.1398733 3.3664126 0 0 0 0 76.024994
9.2591953 3.7782183 3.4776359 0 0 0 0 76.029938
7.6320529 2.3346269 3.2847083 0 0 0 0 76.034889
8.269475 2.8975363 3.4053631 0 0 0 0 76.039833
8.9254265 3.510643 3.5286551 0 0 0 0 76.044785
9.7888508 4.268137 3.7075191 0 0 0 0 76.049728
7.9548378 2.6269042 3.430486 0 0 0 0 76.054672
8.5988398 3.2329302 3.5567908 0 0 0 0 76.059624
9.3797255 3.9396641 3.7347665 0 0 0 0 76.064568
10.395726 4.8271003 3.9751089 0 0 0 0 76.069519
8.2406454 2.9217343 3.5630918 0 0 0 0 76.074463
9.0235033 3.6275675 3.750083 0 0 0 0 76.079414
9.9480782 4.4511714 3.9906151 0 0 0 0 76.084358
11.153265 5.5050097 4.3062644 0 0 0 0 76.089302
8.621788 3.2708247 3.7396066 0 0 0 0 76.094254
9.5026131 4.069962 3.9721758 0 0 0 0 76.099197
10.553869 5.0142212 4.2681632 0 0 0 0 76.104149
11.046759 5.7741942 4.3145142 0 0 0 0 76.109093
9.0196085 3.6501694 3.9269228 0 0 0 0 76.114037
9.9953508 4.5485749 4.2040062 0 0 0 0 76.118988
11.133377 5.6090121 4.5423269 0 0 0 0 76.123932
10.891534 6.0197749 4.3047719 0 0 0 0 76.128883
9.4848099 4.0834165 4.1460385 0 0 0 0 76.133827
10.634842 5.1351252 4.5024824 0 0 0 0 76.138771
10.93154 5.8239202 4.5046649 0 0 0 0 76.143723
10.010364 4.5735025 4.3968987 0 0 0 0 76.153618
11.060289 5.6509953 4.7177138 0 0 0 0 76.158562
10.816129 6.0859432 4.5039358 0 0 0 0 76.163513
10.631976 5.1468792 4.6934161 0 0 0 0 76.173401
10.867441 5.8689408 4.6750579 0 0 0 0 76.178352
11.029613 5.6463947 4.8966761 0 0 0 0 76.193192
10.728312 6.1075883 4.6564345 0 0 0 0 76.198135
10.828954 5.8501363 4.8391094 0 0 0 0 76.212982
11.104449 6.6579714 4.866158 0 0 0 0 76.217926
10.684991 6.0736675 4.8125973 0 0 0 0 76.232765
10.914526 6.8790298 4.8334794 0 0 0 0 76.237717
10.714665 7.0939775 4.7988114 0 0 0 0 76.2575
10.49297 7.2946434 4.755178 0 0 0 0 76.27729
10.324866 7.5280371 4.7384715 0 0 0 0 76.297081
10.119052 7.7359505 4.7068334 0 0 0 0 76.316864
9.9103107 7.9358349 4.675252 0 0 0 0 76.336655
9.6906624 8.4751434 4.59164 0 0 0 0 76.341599
9.7134247 8.1478968 4.6516089 0 0 0 0 76.356445
9.4233761 8.6293888 4.5492172 0 0 0 0 76.361389
9.5244932 8.3620825 4.6339765 0 0 0 0 76.376228
9.2165031 8.8344603 4.5375905 0 0 0 0 76.38118
9.3684692 8.6070232 4.636138 0 0 0 0 76.138687
8.979229 9.0114326 4.5120487 0 0 0 0 76.143639
8.3925228 9.1801538 4.2892213 0 0 0 0 76.148582
9.6723585 8.4412317 4.7968111 0 0 0 0 76.153534
9.1715755 8.8171616 4.6205206 0 0 0 0 76.158478
8.7941027 9.2378607 4.5173349 0 0 0 0 76.163429
8.0098219 9.1799526 4.2026892 0 0 0 0 76.168373
9.4369097 8.6157475 4.7503495 0 0 0 0 76.173317
8.273037 9.0936642 4.3485031 0 0 0 0 76.183212
7.8010635 9.3671312 4.2052193 0 0 0 0 76.188164
9.2054529 8.7893324 4.7079101 0 0 0 0 76.193108
7.9684858 9.1744289 4.290576 0 0 0 0 76.203003
7.590323 9.5513077 4.209765 0 0 0 0 76.207947
8.2567158 9.0951967 4.416429 0 0 0 0 76.217842
7.7815175 9.3828421 4.2970061 0 0 0 0 76.222786
7.3854241 9.7495975 4.221209 0 0 0 0 76.227737
7.958189 9.1759634 4.3525248 0 0 0 0 76.237633
7.5629373 9.5548306 4.2886243 0 0 0 0 76.242577
7.1963325 9.9641266 4.2435722 0 0 0 0 76.247528
8.2907429 9.0640888 4.4728422 0 0 0 0 76.252472
7.7574606 9.365099 4.3420644 0 0 0 0 76.257416
7.3670249 9.7561665 4.2960749 0 0 0 0 76.262367
7.0149922 10.201806 4.2747617 0 0 0 0 76.267311
7.9764657 9.1255407 4.3900409 0 0 0 0 76.272263
7.5546913 9.5572395 4.334568 0 0 0 0 76.277206
7.1720629 9.9615355 4.3064919 0 0 0 0 76.28215
6.8178673 10.418285 4.3000703 0 0 0 0 76.287102
7.7984533 9.3439188 4.3834147 0 0 0 0 76.292046
7.3558545 9.7544603 4.3320403 0 0 0 0 76.296997
6.9937258 10.201188 4.3316731 0 0 0 0 76.301941
6.6157498 10.632735 4.3273745 0 0 0 0 76.306892
7.5858903 9.5198364 4.3610182 0 0 0 0 76.311836
7.1618819 9.9637756 4.3354244 0 0 0 0 76.31678
6.8015633 10.423668 4.3519468 0 0 0 0 76.321732
7.3910122 9.7240391 4.3524432 0 0 0 0 76.331627
6.9767199 10.189259 4.3486996 0 0 0 0 76.336571
6.6043773 10.648109 4.3731809 0 0 0 0 76.341515
7.2020378 9.9363375 4.3488183 0 0 0 0 76.35141
6.7924523 10.424775 4.3648882 0 0 0 0 76.356361
7.0129685 10.156678 4.3501205 0 0 0 0 76.371201
6.5854955 10.630001 4.3722482 0 0 0 0 76.376144
6.1273541 12.226088 4.7284098 0 0 0 0 76.38604
6.8356099 10.403231 4.3632379 0 0 0 0 76.390991
6.4727211 11.003702 4.4475083 0 0 0 0 76.395935
5.8596964 12.394804 4.7418356 0 0 0 0 76.40583
6.6257272 10.605323 4.3586106 0 0 0 0 76.410774
6.1083002 12.221065 4.737349 0 0 0 0 76.42067
6.4883828 10.942576 4.4090886 0 0 0 0 76.430565
5.8494649 12.409843 4.7486315 0 0 0 0 76.44046
6.1188636 12.267121 4.7239575 0 0 0 0 76.455299
4.981555 12.721807 4.7333684 0 0 0 0 76.465195
5.8434525 12.418559 4.7144985 0 0 0 0 76.47509
4.743062 12.964129 4.7852569 0 0 0 0 76.484978
5.6021733 12.650594 4.7364669 0 0 0 0 76.494873
4.9812589 12.751763 4.721067 0 0 0 0 76.499825
4.5139227 13.265757 4.8616595 0 0 0 0 76.504768
5.2729998 12.684176 4.6878219 0 0 0 0 76.514664
4.7357488 12.99993 4.7628727 0 0 0 0 76.519608
5.6619802 12.686756 4.6843538 0 0 0 0 76.529503
4.9925241 12.839614 4.6843009 0 0 0 0 76.534454
4.4939895 13.270227 4.815496 0 0 0 0 76.539398
5.4000144 12.892427 4.6874647 0 0 0 0 76.549294
4.7295427 13.040405 4.7024488 0 0 0 0 76.554237
3.8673491 14.558277 5.2306008 0 0 0 0 76.564133
5.1767287 13.221853 4.7346406 0 0 0 0 76.569077
4.4712067 13.274343 4.7323213 0 0 0 0 76.574028
4.8045707 13.161685 4.6476407 0 0 0 0 76.588867
4.2154388 13.548437 4.7768478 0 0 0 0 76.593811
3.8366623 14.550327 5.1484895 0 0 0 0 76.598763
4.5184484 13.34242 4.6466351 0 0 0 0 76.797325
2.9046075 14.966473 5.303689 0 0 0 0 76.812164
4.2519884 13.590224 4.6713314 0 0 0 0 76.817116
2.5461497 14.915863 5.2686448 0 0 0 0 76.831955
3.9851768 13.870141 4.7087393 0 0 0 0 76.836906
3.5114799 14.85419 5.0850916 0 0 0 0 76.84185
2.8526106 14.905856 5.1709495 0 0 0 0 76.846794
2.2346866 15.145598 5.3333068 0 0 0 0 76.851746
3.7438262 14.294729 4.7939649 0 0 0 0 76.856689
2.5120323 14.963668 5.1640158 0 0 0 0 76.866585
1.9095371 15.345122 5.3891783 0 0 0 0 76.871529
2.1984208 15.211336 5.2235069 0 0 0 0 76.886375
1.5948237 15.689233 5.4988079 0 0 0 0 76.891319
2.4622118 14.997941 5.0164404 0 0 0 0 76.901215
1.8709908 15.440837 5.2790999 0 0 0 0 76.906158
1.2608027 15.966983 5.588943 0 0 0 0 76.91111
2.8034322 14.935654 4.8513498 0 0 0 0 76.916054
2.1472275 15.284611 5.0775762 0 0 0 0 76.921005
1.5483236 15.784764 5.3766932 0 0 0 0 76.925949
0.92363596 16.444345 5.74929 0 0 0 0 76.930893
2.46032 15.050445 4.8448958 0 0 0 0 76.935844
1.8145531 15.541043 5.1309042 0 0 0 0 76.940788
1.2054628 16.052277 5.4498792 0 0 0 0 76.94574
0.59755838 17.84477 6.2324805 0 0 0 0 76.950684
2.1390111 15.373026 4.9026823 0 0 0 0 76.955627
1.4810553 15.873713 5.2115488 0 0 0 0 76.960579
0.86020267 16.543472 5.6000648 0 0 0 0 76.965523
0.19341917 17.289295 6.042716 0 0 0 0 76.970474
1.8011917 15.647353 4.9498272 0 0 0 0 76.975418
1.138737 16.282543 5.3184767 0 0 0 0 76.980362
0.51880485 17.888361 6.0396729 0 0 0 0 76.985313
-0.19778091 17.485332 6.1143279 0 0 0 0 76.990257
1.455923 15.96275 5.0125728 0 0 0 0 76.995209
0.77274543 16.660059 5.4155817 0 0 0 0 77.000153
0.10956671 17.438108 5.8799539 0 0 0 0 77.005104
-0.60572213 17.935051 6.2776122 0 0 0 0 77.010048
1.1047601 16.457584 5.1286941 0 0 0 0 77.014992
-0.29289687 17.663019 5.9492588 0 0 0 0 77.024887
-1.0203021 18.163036 6.3678374 0 0 0 0 77.029839
0.77095068 17.862185 5.5277843 0 0 0 0 77.034782
-0.71216875 18.056299 6.0759931 0 0 0 0 77.044678
-1.3982811 17.776405 6.2456789 0 0 0 0 77.049622
-1.1554606 18.5417 6.2408042 0 0 0 0 77.064468
-1.8062947 17.856031 6.2912478 0 0 0 0 77.069412
-1.5984693 18.720154 6.3023448 0 0 0 0 77.084251
-2.1975052 17.767292 6.2803831 0 0 0 0 77.089203
-0.54618323 19.205957 5.8492632 0 0 0 0 77.094147
-1.3277479 18.856388 6.0441804 0 0 0 0 77.099091
-1.9800279 18.294363 6.1675196 0 0 0 0 77.104042
-2.5509226 17.419077 6.179985 0 0 0 0 77.108986
-1.8091612 19.264057 6.1685147 0 0 0 0 77.118881
-2.4355776 18.519915 6.2535858 0 0 0 0 77.123825
-2.883033 17.041002 6.0739427 0 0 0 0 77.128777
-2.2798374 19.413097 6.2141957 0 0 0 0 77.138672
-2.8335629 18.318708 6.1996918 0 0 0 0 77.143616
-3.1988847 16.639988 5.9581728 0 0 0 0 77.148567
-1.970449 19.603308 5.9127011 0 0 0 0 77.153511
-2.6738129 18.932037 6.0638118 0 0 0 0 77.158455
-3.1926322 17.937349 6.0905647 0 0 0 0 77.163406
-3.5251925 16.372347 5.8941722 0 0 0 0 77.16835
-2.5077946 20.103571 6.0499678 0 0 0 0 77.173302
-3.0533941 18.507298 5.9339862 0 0 0 0 77.178246
-3.5386071 17.548073 5.9775639 0 0 0 0 77.183189
-3.8162971 15.993675 5.7913084 0 0 0 0 77.188141
-2.9943416 20.054817 6.026341 0 0 0 0 77.193085
-3.4286361 18.143801 5.8266335 0 0 0 0 77.198036
-3.8676093 17.16 5.8696241 0 0 0 0 77.20298
-4.1079292 15.663174 5.7080145 0 0 0 0 77.207932
-3.4204361 19.677778 5.9118943 0 0 0 0 77.212875
-3.789649 17.758387 5.7145371 0 0 0 0 77.217819
-4.1889153 16.800093 5.7724667 0 0 0 0 77.222771
-4.1621757 14.561316 5.3455901 0 0 0 0 77.227715
-3.8082299 19.177769 5.7627068 0 0 0 0 77.232666
-4.1149254 17.302153 5.5862231 0 0 0 0 77.23761
-4.4898214 16.402283 5.6657338 0 0 0 0 77.242554
-4.4761004 14.442318 5.3403206 0 0 0 0 77.247505
-4.2083988 18.80702 5.6543145 0 0 0 0 77.252449
-4.4273586 16.86108 5.4628282 0 0 0 0 77.257401
-4.5185843 15.158335 5.2686906 0 0 0 0 77.262344
-4.7228408 14.122284 5.2631249 0 0 0 0 77.267288
-4.5771518 18.379467 5.5353622 0 0 0 0 77.021782
-4.755177 16.523218 5.375155 0 0 0 0 77.026733
-4.8713198 15.082123 5.2755065 0 0 0 0 77.031677
-4.9539185 13.793432 5.1846399 0 0 0 0 77.036629
-4.9482822 18.000069 5.4341598 0 0 0 0 77.041573
-5.0718307 16.192509 5.2937493 0 0 0 0 77.046516
-5.1472106 14.773874 5.2030745 0 0 0 0 77.051468
-5.1859555 13.498655 5.1192727 0 0 0 0 77.056412
-5.2847819 17.560839 5.3166337 0 0 0 0 77.061363
-5.3661151 15.826915 5.2027483 0 0 0 0 77.066307
-5.4028697 14.443757 5.1249213 0 0 0 0 77.071251
-5.4027386 13.180937 5.0451736 0 0 0 0 77.076202
-5.6187615 17.165791 5.2167268 0 0 0 0 77.081146
-5.675118 15.528395 5.1350913 0 0 0 0 77.086098
-5.6383104 14.092782 5.0420384 0 0 0 0 77.091042
-5.6044993 12.860375 4.9731631 0 0 0 0 77.095993
-5.9427009 16.766832 5.1168981 0 0 0 0 77.100937
-5.9083748 15.066106 5.0162048 0 0 0 0 77.105881
-5.8811455 13.778852 4.971797 0 0 0 0 77.110832
-6.0676098 13.120427 5.1249099 0 0 0 0 77.115776
-6.2414556 16.349098 5.0163422 0 0 0 0 77.120728
-6.213819 14.807775 4.9662075 0 0 0 0 77.125671
-6.1027718 13.445072 4.896821 0 0 0 0 77.130615
-6.2459159 12.757945 5.0383701 0 0 0 0 77.135567
-6.5344172 15.950486 4.9236417 0 0 0 0 77.140511
-6.4529462 14.425713 4.8785868 0 0 0 0 77.145462
-6.5711808 13.642791 5.018095 0 0 0 0 77.150406
-4.2772145 8.3016653 3.3351505 0 0 0 0 77.155357
-6.8112369 15.538005 4.8291335 0 0 0 0 77.160301
-6.7046232 14.0947 4.8094616 0 0 0 0 77.165245
-6.7673402 13.265128 4.9306164 0 0 0 0 77.170197
-4.4144483 8.1240807 3.3041542 0 0 0 0 77.17514
-7.0853777 15.155643 4.7453699 0 0 0 0 77.180092
-7.2057314 14.266953 4.9138207 0 0 0 0 77.185036
-6.9791451 12.946532 4.866549 0 0 0 0 77.18998
-4.5323744 7.9185753 3.2624874 0 0 0 0 77.194931
-7.3730927 14.826331 4.6810789 0 0 0 0 77.199875
-7.4432192 13.917048 4.8429236 0 0 0 0 77.204826
-7.1962352 12.653983 4.8132291 0 0 0 0 77.20977
-7.589478 14.372335 4.5791965 0 0 0 0 77.219666
-7.6462688 13.52635 4.7595344 0 0 0 0 77.224609
-6.6047196 11.028338 4.2541442 0 0 0 0 77.229561
-7.0655665 11.13998 4.6932645 0 0 0 0 77.234505
-7.82968 13.994356 4.50354 0 0 0 0 77.239456
-7.8403153 13.135732 4.6761837 0 0 0 0 77.2444
-6.8461785 10.86298 4.2465973 0 0 0 0 77.249344
-7.2694492 10.920813 4.6683521 0 0 0 0 77.254295
-8.01513 13.545699 4.407743 0 0 0 0 77.259239
-8.0499115 12.795156 4.6133242 0 0 0 0 77.264191
-7.0408621 10.626816 4.2128768 0 0 0 0 77.269135
-5.6290798 8.0826006 3.521445 0 0 0 0 77.274078
-8.2638845 13.218814 4.3515987 0 0 0 0 77.27903
-8.2424088 12.444728 4.5496254 0 0 0 0 77.283974
-7.2193837 10.375757 4.1743569 0 0 0 0 77.288925
-7.5840464 10.376969 4.577857 0 0 0 0 77.293869
-8.5524664 12.967813 4.3236136 0 0 0 0 77.29882
-8.4146872 12.075407 4.4771814 0 0 0 0 77.303764
-7.2975111 9.9981899 4.0873837 0 0 0 0 77.308708
-6.9894857 9.139164 4.1053514 0 0 0 0 77.31366
-8.8451729 12.727825 4.3015132 0 0 0 0 77.318604
-8.5770397 11.712223 4.4097252 0 0 0 0 77.323555
-8.2341709 10.749812 4.4607668 0 0 0 0 77.328499
-6.1332793 7.6737332 3.5149736 0 0 0 0 77.333443
-9.1358252 12.481862 4.2804766 0 0 0 0 77.338394
-8.7547932 11.386018 4.3558769 0 0 0 0 77.343338
-7.9724627 9.519824 4.4258423 0 0 0 0 77.353233
-9.4011936 12.209071 4.2527852 0 0 0 0 77.358177
-8.9113169 11.037967 4.2973142 0 0 0 0 77.363129
-8.1038694 9.2581921 4.3866172 0 0 0 0 77.373024
-9.5571594 11.806903 4.1817064 0 0 0 0 77.377968
-9.062973 10.702986 4.2416563 0 0 0 0 77.382919
-8.618535 9.7895107 4.2896914 0 0 0 0 77.387863
-8.2515526 9.0205231 4.3601122 0 0 0 0 77.392807
-9.7233686 11.426726 4.1203914 0 0 0 0 77.397758
-9.231945 10.395967 4.1996784 0 0 0 0 77.402702
-8.7658072 9.512743 4.2525363 0 0 0 0 77.407654
-8.3699131 8.7550039 4.3199787 0 0 0 0 77.412598
-9.869524 11.041729 4.0582042 0 0 0 0 77.417542
-9.3979425 10.090991 4.1596966 0 0 0 0 77.422493
-6.7681146 7.0289817 3.2220399 0 0 0 0 77.427437
-8.1191511 8.1313124 4.1015849 0 0 0 0 77.432388
-9.9217396 10.571325 3.9651747 0 0 0 0 77.437332
-9.11798 9.3425074 3.9355397 0 0 0 0 77.442276
-8.6630812 8.5833626 4.007246 0 0 0 0 77.447227
-8.2651472 7.9227648 4.086832 0 0 0 0 77.452171
-9.7931213 9.9350424 3.809386 0 0 0 0 77.457123
-9.2500181 9.0428505 3.8956568 0 0 0 0 77.462067
-8.7925396 8.3248138 3.9760079 0 0 0 0 77.467018
-8.4273291 7.730144 4.0808702 0 0 0 0 77.471962
-9.907506 9.5724125 3.7551391 0 0 0 0 77.476906
-9.36693 8.7322903 3.8509362 0 0 0 0 77.481857
-8.8897247 8.04247 3.9341187 0 0 0 0 77.486801
-10.027628 9.2208462 3.7037871 0 0 0 0 78.044617
-7.4013591 6.5891266 2.9907646 0 0 0 0 78.049568
-8.9884157 7.7643757 3.8954289 0 0 0 0 78.054512
-10.149266 8.8852339 3.6613047 0 0 0 0 78.064407
-9.5853863 8.1235342 3.7696209 0 0 0 0 78.069351
-9.1028881 7.5099835 3.8682442 0 0 0 0 78.074303
-8.579134 6.8874536 3.9261222 0 0 0 0 78.079247
-10.247787 8.5388136 3.6160204 0 0 0 0 78.084198
-9.6682215 7.8102765 3.7251039 0 0 0 0 78.089142
-9.1356468 7.1950798 3.8099554 0 0 0 0 78.094086
-8.7101765 6.6850781 3.9173992 0 0 0 0 78.099037
-10.349391 8.2003899 3.5736527 0 0 0 0 78.103981
-9.7743607 7.522923 3.6942554 0 0 0 0 78.108932
-9.2794571 6.9695511 3.7983885 0 0 0 0 78.113876
-8.7918034 6.4479923 3.8892012 0 0 0 0 78.11882
-10.425901 7.8541694 3.5274637 0 0 0 0 78.123772
-9.8290911 7.2008958 3.6459408 0 0 0 0 78.128716
-9.4394684 6.7599759 3.7986095 0 0 0 0 78.133667
-8.8532743 6.1980338 3.8542068 0 0 0 0 78.138611
-10.918949 7.8142824 3.6217337 0 0 0 0 78.143562
-10.287239 7.1694016 3.7462845 0 0 0 0 78.148506
-9.4179935 6.4264889 3.7297242 0 0 0 0 78.15345
-8.9208689 5.9590626 3.8240881 0 0 0 0 78.158401
-10.987392 7.4611449 3.5766454 0 0 0 0 78.163345
-10.37125 6.8702378 3.7136412 0 0 0 0 78.168297
-9.4984045 6.1674089 3.7017341 0 0 0 0 78.173241
-8.963295 5.7062583 3.7862031 0 0 0 0 78.178185
-11.074101 7.1309419 3.5432732 0 0 0 0 78.183136
-10.436165 6.5632191 3.6771522 0 0 0 0 78.18808
-9.5617638 5.9044647 3.6708531 0 0 0 0 78.193031
-9.0723085 5.5011077 3.7796054 0 0 0 0 78.197975
-11.124627 6.7850204 3.5031993 0 0 0 0 78.202919
-10.21612 6.0940557 3.5473442 0 0 0 0 78.20787
-9.6221237 5.6415572 3.6409867 0 0 0 0 78.212814
-9.2709837 5.348444 3.8101528 0 0 0 0 78.217766
-11.180228 6.4460773 3.466043 0 0 0 0 78.22271
-10.22288 5.776494 3.5002017 0 0 0 0 78.227661
-9.672492 5.379745 3.6111538 0 0 0 0 78.232605
-9.491765 5.2026582 3.8505452 0 0 0 0 78.237549
-11.268158 6.1349602 3.4434986 0 0 0 0 78.2425
-10.305179 5.5034542 3.479337 0 0 0 0 78.247444
-9.7078066 5.1140494 3.5784218 0 0 0 0 78.252396
-9.5654869 4.972733 3.8323257 0 0 0 0 78.257339
-11.325945 5.8120775 3.4151914 0 0 0 0 78.262283
-10.344291 5.2157369 3.4487903 0 0 0 0 78.267235
-9.7884426 4.8740835 3.563266 0 0 0 0 78.272179
-9.6030178 4.728054 3.8033948 0 0 0 0 78.27713
-0.40493461 0.19748564 0.18253745 0 0 0 0 78.301865
-0.42608306 0.204474 0.20339051 0 0 0 0 78.306808
-0.4110294 0.1957005 0.21254022 0 0 0 0 78.31176
-0.41710424 0.19679724 0.22951069 0 0 0 0 78.316704
-0.40261012 0.17045829 0.17883761 0 0 0 0 78.341438
-0.40765741 0.1695465 0.19383077 0 0 0 0 78.346382
-0.40368718 0.16770326 0.20687042 0 0 0 0 78.351334
-0.37658954 0.15699077 0.21008867 0 0 0 0 78.356277
-0.41133985 0.14736117 0.17905565 0 0 0 0 78.381012
-0.35613182 0.12786473 0.17647322 0 0 0 0 78.385963
-0.36622694 0.13190436 0.19139956 0 0 0 0 78.390907
-0.36828518 0.13300312 0.2043868 0 0 0 0 78.395859
-0.33875519 0.1018367 0.15682283 0 0 0 0 78.420593
-0.36089543 0.10879699 0.17567158 0 0 0 0 78.425537
-0.35993582 0.10890647 0.18668056 0 0 0 0 78.430481
-0.37907088 0.11490507 0.20655085 0 0 0 0 78.435432
-0.33349544 0.080856562 0.15508154 0 0 0 0 78.460167
-0.36464915 0.088738918 0.1748836 0 0 0 0 78.465111
-0.35968551 0.088877961 0.18490922 0 0 0 0 78.470062
-0.36777124 0.091937125 0.19985299 0 0 0 0 78.475006
-0.33023089 0.059847899 0.15233241 0 0 0 0 78.499741
-0.34533015 0.063848481 0.16823786 0 0 0 0 78.504692
-0.3564308 0.068869241 0.18215071 0 0 0 0 78.509636
-0.35248104 0.070007898 0.1931629 0 0 0 0 78.514587
-0.32944828 0.040946435 0.15115517 0 0 0 0 78.178741
-0.33852908 0.043986425 0.16509536 0 0 0 0 78.183685
-0.35663694 0.048958074 0.18098003 0 0 0 0 78.188637
-0.35170174 0.052095979 0.19097798 0 0 0 0 78.193581
-0.32621238 0.02195592 0.15038653 0 0 0 0 78.218315
-0.33528903 0.024986779 0.16332674 0 0 0 0 78.223259
-0.35339695 0.029958405 0.17921132 0 0 0 0 78.22821
-0.35147125 0.034067493 0.18918772 0 0 0 0 78.233154
-0.32698011 0.0029361157 0.15060171 0 0 0 0 78.257889
-0.3360664 0.0069669141 0.16353267 0 0 0 0 78.26284
-0.35217035 0.011948597 0.17842543 0 0 0 0 78.267784
-0.34924048 0.016058236 0.18740602 0 0 0 0 78.272736
-0.32776672 -0.014083879 0.15079878 0 0 0 0 78.29747
-0.33884335 -0.01107223 0.16373065 0 0 0 0 78.302414
-0.35493776 -0.0070904801 0.17863256 0 0 0 0 78.307365
-0.3500177 -0.0019615563 0.18761215 0 0 0 0 78.312309
-0.33354196 -0.033133537 0.15299384 0 0 0 0 78.337044
-0.34763232 -0.029141711 0.16690399 0 0 0 0 78.341988
-0.35071605 -0.024080653 0.17685051 0 0 0 0 78.346939
-0.33778381 -0.018902024 0.18286327 0 0 0 0 78.351883
-0.34231135 -0.053202931 0.15618595 0 0 0 0 78.376617
-0.35139361 -0.049181256 0.16811681 0 0 0 0 78.381569
-0.35749108 -0.04313999 0.17904159 0 0 0 0 78.386513
-0.35558477 -0.037030686 0.18899949 0 0 0 0 78.391464
-0.34507227 -0.073232882 0.15740328 0 0 0 0 78.416199
-0.35816282 -0.069231413 0.17131743 0 0 0 0 78.421143
-0.36225626 -0.06318 0.18125048 0 0 0 0 78.426086
-0.35435691 -0.055040427 0.18821481 0 0 0 0 78.431038
-0.33584431 -0.091165453 0.15665215 0 0 0 0 78.455772
-0.34993067 -0.087182857 0.16956215 0 0 0 0 78.460716
-0.37101546 -0.084249437 0.18445233 0 0 0 0 78.465668
-0.35612741 -0.074060649 0.18942718 0 0 0 0 78.470612
-0.34859204 -0.11425498 0.16185628 0 0 0 0 78.495346
-0.36767697 -0.11130226 0.17675467 0 0 0 0 78.500298
-0.35279018 -0.10013188 0.17972037 0 0 0 0 78.505241
-0.35489893 -0.092070393 0.18864313 0 0 0 0 78.510185
-0.33436909 -0.13114829 0.16011737 0 0 0 0 78.534927
-0.35244995 -0.12819515 0.17401987 0 0 0 0 78.539871
-0.36254323 -0.12220171 0.18392792 0 0 0 0 78.544815
-0.36565623 -0.11414063 0.19384642 0 0 0 0 78.549767
-0.37004796 -0.16439533 0.17231914 0 0 0 0 78.574501
-0.35420421 -0.14920607 0.17625181 0 0 0 0 78.579445
-0.35032001 -0.13911423 0.18218097 0 0 0 0 78.584396
-0.35243434 -0.13006195 0.19009438 0 0 0 0 78.58934
-0.38772964 -0.19550529 0.18057759 0 0 0 0 78.614075
-0.39583707 -0.18848333 0.1914845 0 0 0 0 78.619026
-0.38599315 -0.17335214 0.19539216 0 0 0 0 78.62397
-0.35918698 -0.15210268 0.19431494 0 0 0 0 78.628914
-0.38679662 -0.22039674 0.18355221 0 0 0 0 78.389236
-0.38095999 -0.20528644 0.18944381 0 0 0 0 78.394188
-0.39205283 -0.19930266 0.19934812 0 0 0 0 78.399132
-0.40018433 -0.18929027 0.20922782 0 0 0 0 78.404083
-0.42834246 -0.26965377 0.20087695 0 0 0 0 78.428818
-0.43448371 -0.25862217 0.21075565 0 0 0 0 78.433762
-0.39178264 -0.22328492 0.20261587 0 0 0 0 78.438713
-0.3849571 -0.20618342 0.20649308 0 0 0 0 78.443657
-6.6234531 -3.8204634 2.1635332 0 0 0 0 78.448601
-6.5806966 -4.0069003 2.1844594 0 0 0 0 78.468391
-6.6568737 -3.8334942 2.3065517 0 0 0 0 78.473335
-0.45127544 -0.28066018 0.22594018 0 0 0 0 78.478287
-0.43750936 -0.25650999 0.22778156 0 0 0 0 78.483231
-6.6161227 -4.0179772 2.3244524 0 0 0 0 78.493126
-6.6813498 -3.8296781 2.4234509 0 0 0 0 78.498077
-6.6416097 -4.0112076 2.4373209 0 0 0 0 78.51786
-6.7209954 -3.8070359 2.5371122 0 0 0 0 78.522812
-6.6942253 -3.9916899 2.550957 0 0 0 0 78.542595
-6.3814387 -5.321023 2.6507902 0 0 0 0 78.681114
-5.1913247 -6.5575285 2.4534624 0 0 0 0 78.765213
-5.2656398 -6.5525475 2.5311537 0 0 0 0 78.789948
-5.2043338 -6.5463538 2.5779994 0 0 0 0 78.611748
-3.9204006 -7.0675607 2.4123595 0 0 0 0 78.656273
-3.7102005 -7.071754 2.3893352 0 0 0 0 78.676064
-3.9877017 -7.0429511 2.4419029 0 0 0 0 78.681007
-3.562088 -7.1871862 2.4060802 0 0 0 0 78.695847
-3.7784667 -7.0482087 2.4128842 0 0 0 0 78.700798
-3.4483187 -7.3807287 2.4474065 0 0 0 0 78.715637
-3.6244524 -7.1486859 2.4185162 0 0 0 0 78.720581
-3.8692217 -7.0749393 2.4308033 0 0 0 0 78.725533
-3.1587584 -7.1916561 2.367928 0 0 0 0 78.735428
-3.4988952 -7.3142428 2.4456334 0 0 0 0 78.740372
-3.6698833 -7.0912814 2.4028466 0 0 0 0 78.745323
-3.9583509 -7.051897 2.4222655 0 0 0 0 78.750267
-2.8586748 -6.9466286 2.2719736 0 0 0 0 78.755211
-3.2800019 -7.2814579 2.4103057 0 0 0 0 78.760162
-3.5276084 -7.2198429 2.4116914 0 0 0 0 78.765106
-3.7540367 -7.0622649 2.3862748 0 0 0 0 78.770058
-2.5873911 -6.7267866 2.1861303 0 0 0 0 78.775002
-2.9670238 -7.0204153 2.3022566 0 0 0 0 78.779945
-3.3971512 -7.3714247 2.4307017 0 0 0 0 78.784897
-3.5901029 -7.1477823 2.376812 0 0 0 0 78.789841
-2.3369968 -6.5220718 2.1083376 0 0 0 0 78.794792
-2.6897204 -6.800561 2.2114379 0 0 0 0 78.799736
-3.0840187 -7.1263804 2.3228016 0 0 0 0 78.804688
-3.4714255 -7.3224697 2.3969874 0 0 0 0 78.809631
-2.1025271 -6.3274646 2.0355706 0 0 0 0 78.814575
-2.4284356 -6.5798421 2.1225421 0 0 0 0 78.819527
-2.7977445 -6.9005032 2.2249644 0 0 0 0 78.824471
-3.2495162 -7.2857733 2.3486369 0 0 0 0 78.829422
-1.884982 -6.1429739 1.9678253 0 0 0 0 78.834366
-2.1908858 -6.3922319 2.0468531 0 0 0 0 78.83931
-2.5225544 -6.6657414 2.1259966 0 0 0 0 78.844261
-2.9336197 -7.012784 2.231487 0 0 0 0 78.849205
-1.6881287 -5.9955721 1.9123363 0 0 0 0 78.854156
-1.972255 -6.2157488 1.9771862 0 0 0 0 78.8591
-2.2819829 -6.4791298 2.0473292 0 0 0 0 78.864044
-2.657279 -6.7940011 2.1336725 0 0 0 0 78.868996
-1.5003538 -5.8402572 1.8567345 0 0 0 0 78.87394
-1.7635946 -6.0433431 1.9095142 0 0 0 0 78.878891
-2.0534356 -6.2906237 1.9695922 0 0 0 0 78.883835
-2.3979211 -6.5793362 2.0408232 0 0 0 0 78.888786
-1.3225089 -5.6940007 1.8051744 0 0 0 0 78.89373
-1.5737535 -5.8940268 1.8519768 0 0 0 0 78.898674
-1.842684 -6.1272068 1.9010127 0 0 0 0 78.903625
-2.1574719 -6.3777795 1.956015 0 0 0 0 78.908569
-1.1585691 -5.5598326 1.758667 0 0 0 0 78.913521
-1.3948423 -5.753778 1.7984767 0 0 0 0 78.918465
-1.6449348 -5.9658685 1.8373965 0 0 0 0 78.923409
-1.9387482 -6.209331 1.8824221 0 0 0 0 78.92836
-1.0006688 -5.4217224 1.7120966 0 0 0 0 78.933304
-1.2210552 -5.599607 1.7418244 0 0 0 0 78.938255
-1.4590764 -5.8176084 1.777851 0 0 0 0 78.943199
-1.7359477 -6.051971 1.8158642 0 0 0 0 78.948143
-0.85163456 -5.2996511 1.6706376 0 0 0 0 78.953094
-1.0620483 -5.4724855 1.6953609 0 0 0 0 78.958038
-1.2841729 -5.675426 1.721315 0 0 0 0 78.96299
-1.5421326 -5.8966889 1.7502869 0 0 0 0 78.967934
-0.71346492 -5.1946197 1.6362908 0 0 0 0 78.972885
-0.91096151 -5.3554029 1.6529568 0 0 0 0 78.977829
-1.1143579 -5.524292 1.6646731 0 0 0 0 78.982773
-1.3622156 -5.7554669 1.6927811 0 0 0 0 78.987724
-0.58132076 -5.0866556 1.6008905 0 0 0 0 78.992668
-0.76598912 -5.2254081 1.6074057 0 0 0 0 78.99762
-0.95742273 -5.388227 1.6141164 0 0 0 0 79.002563
-1.1864135 -5.6013112 1.6321363 0 0 0 0 79.007507
-0.45230514 -4.9647403 1.5633463 0 0 0 0 79.012459
-0.62979782 -5.1214228 1.5700595 0 0 0 0 79.017403
-0.81322277 -5.284183 1.5748043 0 0 0 0 79.022354
-1.0244855 -5.4632254 1.5785818 0 0 0 0 79.027298
-0.33296621 -4.8808155 1.5371152 0 0 0 0 79.032249
-0.50066 -5.0124965 1.5336367 0 0 0 0 79.037193
-0.67215264 -5.1652064 1.5313386 0 0 0 0 79.042137
-0.87243706 -5.3401794 1.5311254 0 0 0 0 79.047089
-0.21776129 -4.7819586 1.5077264 0 0 0 0 79.052032
-0.37738788 -4.91958 1.5023382 0 0 0 0 79.056984
-0.53997737 -5.059269 1.4929565 0 0 0 0 79.061928
-0.72635883 -5.2211723 1.4856807 0 0 0 0 79.066872
-0.10578296 -4.6891065 1.4820687 0 0 0 0 79.863411
-0.25649369 -4.8127356 1.4695966 0 0 0 0 79.868355
-0.41004485 -4.9523935 1.4572648 0 0 0 0 79.873306
-0.58650607 -5.1002998 1.4429114 0 0 0 0 79.87825
0.00057869579 -4.6102633 1.4588239 0 0 0 0 79.883194
-0.14320953 -4.7238722 1.4412866 0 0 0 0 79.888145
-0.28886929 -4.8495188 1.4218558 0 0 0 0 79.893089
-0.45626643 -5.0033445 1.4065984 0 0 0 0 79.898041
0.10282936 -4.5194802 1.4334471 0 0 0 0 79.902985
-0.034945659 -4.6330581 1.4129357 0 0 0 0 79.907936
-0.17255686 -4.7626443 1.3915776 0 0 0 0 79.91288
-0.33109248 -4.8994489 1.3691969 0 0 0 0 79.917824
0.20005973 -4.4267468 1.4080293 0 0 0 0 79.922775
0.070394143 -4.5512438 1.3876578 0 0 0 0 79.927719
-0.061334353 -4.6668196 1.3611919 0 0 0 0 79.932671
-0.20996881 -4.7905931 1.33173 0 0 0 0 79.937614
0.29452339 -4.3609633 1.3908565 0 0 0 0 79.942558
0.16962297 -4.457509 1.3602389 0 0 0 0 79.94751
0.046968479 -4.5800042 1.3328788 0 0 0 0 79.952454
-0.095631547 -4.706728 1.3024716 0 0 0 0 79.957405
0.38684478 -4.2792392 1.3695217 0 0 0 0 79.962349
0.26596764 -4.3767743 1.3359313 0 0 0 0 79.9673
0.14926666 -4.4932389 1.3055397 0 0 0 0 79.972244
0.014604466 -4.6119223 1.2710906 0 0 0 0 79.977188
0.47418699 -4.2005448 1.350194 0 0 0 0 79.98214
0.36036402 -4.3030195 1.3156815 0 0 0 0 79.987083
0.24859546 -4.4104834 1.2802256 0 0 0 0 79.992035
0.12091102 -4.5251355 1.2417687 0 0 0 0 79.996979
0.55961525 -4.1318407 1.3339529 0 0 0 0 80.001923
0.45177004 -4.2302942 1.2954283 0 0 0 0 80.006874
0.34492379 -4.3277569 1.2548984 0 0 0 0 80.011818
0.22421271 -4.4383693 1.2134335 0 0 0 0 80.016769
0.64298642 -4.0561852 1.3146361 0 0 0 0 80.021713
0.53915578 -4.1556087 1.2751384 0 0 0 0 80.026657
0.43732405 -4.2540312 1.23364 0 0 0 0 80.031609
0.32255077 -4.3566232 1.1881244 0 0 0 0 80.036552
0.72337401 -3.98353 1.2983348 0 0 0 0 80.041504
0.62457216 -4.0849228 1.256878 0 0 0 0 80.046448
0.52761722 -4.168355 1.2092575 0 0 0 0 80.051399
0.41782296 -4.2679162 1.1617349 0 0 0 0 80.056343
0.80184776 -3.9208646 1.2851204 0 0 0 0 80.061287
0.70695829 -4.0112667 1.2385756 0 0 0 0 80.066238
0.61510885 -4.105639 1.1920823 0 0 0 0 80.071182
0.5112524 -4.1971798 1.140509 0 0 0 0 80.076134
0.88980514 -3.9139407 1.2894812 0 0 0 0 80.081078
0.78634399 -3.9376404 1.22026 0 0 0 0 80.086021
0.70051903 -4.0339618 1.1728119 0 0 0 0 80.090973
0.60168701 -4.1274624 1.1202796 0 0 0 0 80.095917
1.0212871 -4.0830512 1.3507203 0 0 0 0 80.100868
0.8699891 -3.8938844 1.2112492 0 0 0 0 80.105812
0.78188884 -3.9583254 1.1534857 0 0 0 0 80.110756
0.6880402 -4.0488052 1.0979462 0 0 0 0 80.115707
1.164903 -4.2679811 1.4181664 0 0 0 0 80.120651
0.99319273 -4.0282311 1.2561194 0 0 0 0 80.125603
0.86439043 -3.8976381 1.1383073 0 0 0 0 80.130547
0.77244973 -3.977138 1.0786712 0 0 0 0 80.135498
1.321592 -4.4617395 1.4897568 0 0 0 0 80.140442
1.1316881 -4.1963177 1.3123821 0 0 0 0 80.145386
0.97506773 -3.9703124 1.1615319 0 0 0 0 80.150337
0.85588437 -3.9084704 1.0604204 0 0 0 0 80.155281
1.494462 -4.6772466 1.5706294 0 0 0 0 80.160233
1.2925565 -4.4070525 1.3821543 0 0 0 0 80.165176
1.1166557 -4.1454148 1.2128761 0 0 0 0 80.17012
0.95190352 -3.9055123 1.0598552 0 0 0 0 80.175072
1.6957576 -4.9423027 1.6691052 0 0 0 0 80.180016
1.462366 -4.6116958 1.45191 0 0 0 0 80.184967
1.2723836 -4.3373065 1.2714459 0 0 0 0 80.189911
1.0955498 -4.0846324 1.1072477 0 0 0 0 80.194862
