# .PCD v0.7 - Point Cloud Data file format
VERSION 0.7
FIELDS x y z normal_x normal_y normal_z intensity curvature
SIZE 4 4 4 4 4 4 4 4
TYPE F F F F F F F F
COUNT 1 1 1 1 1 1 1 1
WIDTH 961
HEIGHT 1
VIEWPOINT 0 0 0 1 0 0 0
POINTS 961
DATA ascii
-0.72279036 -14.829894 0.20040879 0 0 0 0 57.293335
-1.0522435 -14.621116 0.42343193 0 0 0 0 57.298279
-1.3835393 -14.481262 0.6424914 0 0 0 0 57.30323
0.00079796987 -15.325961 -0.049948886 0 0 0 0 57.308174
-0.38508442 -15.096244 0.21439251 0 0 0 0 57.313118
-0.72797072 -14.865986 0.42972234 0 0 0 0 57.318069
-1.0603144 -14.652956 0.64080793 0 0 0 0 57.323013
0.38686243 -16.738201 -0.032052677 0 0 0 0 57.327965
-0.038500592 -15.366847 0.22830713 0 0 0 0 57.332909
-0.39379182 -15.114164 0.43795741 0 0 0 0 57.337852
-0.73987895 -14.928701 0.64366251 0 0 0 0 57.342804
0.34084392 -16.730091 0.2598739 0 0 0 0 57.352699
-0.045860469 -15.408781 0.44853011 0 0 0 0 57.357643
-0.40582702 -15.143754 0.64335746 0 0 0 0 57.362587
0.33209261 -16.748108 0.48841411 0 0 0 0 57.377434
-0.058700282 -15.393224 0.64555931 0 0 0 0 57.382378
0.3170585 -16.738605 0.69234061 0 0 0 0 57.402168
3.5448878 -18.925018 0.15568815 0 0 0 0 57.466476
3.4708309 -18.914585 0.39962235 0 0 0 0 57.491211
3.4464312 -18.878454 0.5708946 0 0 0 0 57.515945
4.9547386 -19.093733 0.24816711 0 0 0 0 57.525841
3.4248893 -18.884048 0.71557432 0 0 0 0 57.54068
5.5591173 -19.55595 0.28720075 0 0 0 0 57.545631
4.8852582 -19.097961 0.4558866 0 0 0 0 57.550575
6.3042669 -20.398279 0.33379284 0 0 0 0 57.565414
5.48492 -19.54895 0.48707339 0 0 0 0 57.570366
4.8652205 -19.084534 0.59383106 0 0 0 0 57.57531
6.9216757 -20.709866 0.37493011 0 0 0 0 57.585205
6.2269378 -20.395149 0.52859926 0 0 0 0 57.590149
5.4675412 -19.547474 0.61484021 0 0 0 0 57.5951
4.8465772 -19.092726 0.70146602 0 0 0 0 57.600044
7.288837 -20.250164 0.40308526 0 0 0 0 57.604996
6.8516002 -20.733801 0.55834454 0 0 0 0 57.60994
6.2041841 -20.369415 0.647699 0 0 0 0 57.614891
5.4476914 -19.562498 0.71137077 0 0 0 0 57.619835
7.6575556 -19.844566 0.43248284 0 0 0 0 57.624779
7.2152834 -20.254759 0.56878 0 0 0 0 57.62973
6.8363171 -20.727152 0.6671651 0 0 0 0 57.634674
6.1876049 -20.373421 0.73537201 0 0 0 0 57.639626
8.0574331 -19.544897 0.46337414 0 0 0 0 57.644569
7.5888414 -19.855045 0.58009619 0 0 0 0 57.649513
7.2025447 -20.264936 0.65936565 0 0 0 0 57.654465
6.8225594 -20.737055 0.74074656 0 0 0 0 57.659409
8.3771296 -19.066942 0.49083507 0 0 0 0 57.66436
7.9991493 -19.576452 0.59468669 0 0 0 0 57.669304
7.5813236 -19.857178 0.65679854 0 0 0 0 57.674255
7.1910105 -20.266693 0.71806729 0 0 0 0 57.679199
7.6406808 -16.368385 0.45527053 0 0 0 0 57.684143
8.3142872 -19.082106 0.60338706 0 0 0 0 57.689095
7.9889603 -19.566292 0.65556735 0 0 0 0 57.694038
7.5700121 -19.850708 0.69862121 0 0 0 0 57.69899
8.249197 -16.677874 0.49846578 0 0 0 0 57.703934
7.6059952 -16.416933 0.5413729 0 0 0 0 57.708878
8.3279018 -19.116444 0.6516313 0 0 0 0 57.713829
7.9919124 -19.587042 0.68400002 0 0 0 0 57.718773
7.6548457 -14.63431 0.46724382 0 0 0 0 58.0121
8.1896725 -16.683538 0.5694744 0 0 0 0 58.017052
7.6064682 -16.425367 0.56636298 0 0 0 0 58.021996
8.3259592 -19.141897 0.66088396 0 0 0 0 58.026939
7.9006863 -14.306437 0.48972434 0 0 0 0 58.031891
7.632175 -14.682744 0.52235621 0 0 0 0 58.036835
8.2113829 -16.71566 0.58677256 0 0 0 0 58.041786
7.5920382 -16.389154 0.56366223 0 0 0 0 58.04673
8.0381546 -13.809399 0.50469351 0 0 0 0 58.051674
7.8849058 -14.358882 0.53177917 0 0 0 0 58.056625
7.6370435 -14.674141 0.52427554 0 0 0 0 58.061569
8.2198009 -16.720932 0.57145905 0 0 0 0 58.066521
8.2611456 -13.4769 0.5262661 0 0 0 0 58.071465
8.0656004 -13.926927 0.53679734 0 0 0 0 58.076416
7.8861389 -14.337024 0.52289498 0 0 0 0 58.08136
7.6313205 -14.649854 0.49942282 0 0 0 0 58.086304
8.0998049 -12.571155 0.52227312 0 0 0 0 58.091255
8.2352915 -13.495677 0.54181945 0 0 0 0 58.096199
8.0097075 -13.800222 0.51245558 0 0 0 0 58.101151
7.8665042 -14.273159 0.48562378 0 0 0 0 58.106094
8.2722158 -12.224193 0.53909492 0 0 0 0 58.111038
8.0800238 -12.587919 0.52586496 0 0 0 0 58.11599
7.9227247 -12.95529 0.49056518 0 0 0 0 58.120934
7.7198734 -13.269285 0.44905213 0 0 0 0 58.125885
8.4866629 -11.949509 0.5608629 0 0 0 0 58.130829
8.2679634 -12.258266 0.53343403 0 0 0 0 58.13578
8.0740461 -12.53841 0.48640701 0 0 0 0 58.140724
7.9004574 -12.879086 0.43549326 0 0 0 0 58.145668
8.6457758 -11.614183 0.57653576 0 0 0 0 58.15062
8.4709167 -11.965061 0.54147696 0 0 0 0 58.155563
8.289958 -12.246429 0.48542404 0 0 0 0 58.160515
8.093112 -12.523268 0.42344046 0 0 0 0 58.165459
8.8490314 -11.347195 0.59720951 0 0 0 0 58.170403
7.3660583 -9.911622 0.46953484 0 0 0 0 58.175354
7.2059813 -10.12551 0.41245624 0 0 0 0 58.180298
7.0222688 -10.325651 0.34958386 0 0 0 0 58.185249
7.5399861 -9.226922 0.51633596 0 0 0 0 58.190193
7.4312329 -9.5384474 0.47082219 0 0 0 0 58.195137
7.31111 -9.7903767 0.40817451 0 0 0 0 58.200089
7.1943984 -10.063348 0.34121802 0 0 0 0 58.205032
7.5808616 -8.8651829 0.52447784 0 0 0 0 58.209984
7.4989238 -9.183363 0.47285438 0 0 0 0 58.214928
7.4178367 -9.4703102 0.40468097 0 0 0 0 58.219879
7.3392434 -9.775259 0.33124277 0 0 0 0 58.224823
7.5853763 -8.4803858 0.52997631 0 0 0 0 58.229767
7.5321708 -8.8082924 0.47319779 0 0 0 0 58.234718
7.4933391 -9.1223602 0.40061179 0 0 0 0 58.239662
7.4567509 -9.4634085 0.32162988 0 0 0 0 58.244614
7.6127329 -8.1382799 0.53785425 0 0 0 0 58.249557
7.5299754 -8.413188 0.47085404 0 0 0 0 58.254501
7.5333428 -8.7563906 0.39482564 0 0 0 0 58.259453
7.5642481 -9.1522856 0.31201723 0 0 0 0 58.264397
7.4413209 -7.6053324 0.5305903 0 0 0 0 58.269348
7.5467057 -8.0576639 0.47093618 0 0 0 0 58.274292
7.606071 -8.4373894 0.39135188 0 0 0 0 58.279243
7.6191144 -8.7916613 0.30115214 0 0 0 0 58.284187
7.3430395 -7.1775579 0.52977979 0 0 0 0 58.289131
7.3442378 -7.4907489 0.45818678 0 0 0 0 58.294083
7.5015283 -7.9462495 0.37945929 0 0 0 0 58.299026
7.258853 -6.783195 0.52948666 0 0 0 0 58.308922
7.277122 -7.0937862 0.45292234 0 0 0 0 58.313866
7.3788481 -7.4606152 0.36850432 0 0 0 0 58.318817
5.5243673 -5.7947583 0.20345767 0 0 0 0 58.323761
7.1955323 -6.4304357 0.52958757 0 0 0 0 58.328712
7.1939454 -6.6993732 0.44763565 0 0 0 0 58.333656
7.2592392 -7.0090694 0.35706151 0 0 0 0 58.3386
5.419589 -5.4226332 0.19286992 0 0 0 0 58.343552
7.1131792 -6.0791278 0.52868235 0 0 0 0 58.348495
7.1023436 -6.3207254 0.44213063 0 0 0 0 58.353447
7.2384605 -6.6734242 0.35189974 0 0 0 0 58.358391
7.2853894 -6.9593973 0.24767324 0 0 0 0 58.363342
6.9991603 -5.7158995 0.52597076 0 0 0 0 58.368286
6.9916811 -5.9445271 0.43560544 0 0 0 0 58.37323
7.172328 -6.3144612 0.34410301 0 0 0 0 58.378181
7.2061505 -6.5680003 0.23635317 0 0 0 0 58.383125
6.8648744 -5.5738592 0.42801368 0 0 0 0 58.393021
7.0569844 -5.9270816 0.33474836 0 0 0 0 58.397964
7.1263981 -6.1956043 0.22576416 0 0 0 0 58.402916
6.7375245 -5.2231908 0.42113781 0 0 0 0 58.412811
6.8960118 -5.5264025 0.32461399 0 0 0 0 58.417755
6.9875798 -5.7895279 0.21469876 0 0 0 0 58.422699
9.2388182 -6.5762501 0.71338516 0 0 0 0 58.42765
6.608799 -4.8864808 0.41406587 0 0 0 0 58.432594
6.7237525 -5.1363883 0.31333646 0 0 0 0 58.437546
6.8490806 -5.4084759 0.20427568 0 0 0 0 58.44249
9.1400108 -6.2065134 0.71277475 0 0 0 0 58.447441
6.501184 -4.5823946 0.40851554 0 0 0 0 58.452385
6.5547814 -4.7724938 0.30368367 0 0 0 0 58.457329
6.715951 -5.0505881 0.19451952 0 0 0 0 58.46228
9.0398006 -5.851737 0.7119537 0 0 0 0 58.467224
6.3764768 -4.2818108 0.4019269 0 0 0 0 58.472176
6.4275484 -4.4548187 0.2963455 0 0 0 0 58.477119
6.6009612 -4.7242408 0.18630187 0 0 0 0 58.482063
8.9375648 -5.5051789 0.71174431 0 0 0 0 58.236938
6.2580676 -3.9994845 0.39557868 0 0 0 0 58.241882
5.2662687 -3.4694896 0.24262613 0 0 0 0 58.246826
5.1492352 -3.5018401 0.14317898 0 0 0 0 58.251778
8.78722 -5.1519585 0.70588303 0 0 0 0 58.256721
6.0823488 -3.6964645 0.38601369 0 0 0 0 58.261673
6.0732112 -3.8057215 0.27740535 0 0 0 0 58.266617
5.2433681 -3.3885057 0.14176111 0 0 0 0 58.271561
8.5971842 -4.7875943 0.69820642 0 0 0 0 58.276512
5.8618546 -3.3851454 0.37359264 0 0 0 0 58.281456
5.65624 -3.3647525 0.25694427 0 0 0 0 58.286407
4.8989081 -3.0026779 0.12947673 0 0 0 0 58.291351
8.3760633 -4.4262996 0.68650442 0 0 0 0 58.296295
8.5074539 -4.6610188 0.54200715 0 0 0 0 58.301247
5.2561684 -2.9642892 0.23889664 0 0 0 0 58.30619
5.0596957 -2.9392695 0.13131486 0 0 0 0 58.311142
8.2758818 -4.1415586 0.68565077 0 0 0 0 58.316086
8.3573999 -4.3347907 0.53577459 0 0 0 0 58.321037
5.5246649 -2.9490528 0.24999429 0 0 0 0 58.325981
5.3043942 -2.9162471 0.13453437 0 0 0 0 58.330925
8.1813202 -3.8709736 0.68459487 0 0 0 0 58.335876
5.7451286 -2.8984501 0.2596263 0 0 0 0 58.345772
5.6391106 -2.9297855 0.13918747 0 0 0 0 58.350716
8.0597811 -3.5995874 0.68056643 0 0 0 0 58.355659
5.9098501 -2.7338843 0.38396454 0 0 0 0 58.360611
5.1769662 -2.4641442 0.23415321 0 0 0 0 58.365555
5.1857934 -2.5388944 0.12703992 0 0 0 0 58.370506
7.7876472 -3.2757869 0.66436458 0 0 0 0 58.37545
5.9933009 -2.6104105 0.39171582 0 0 0 0 58.380394
5.9693842 -2.6750138 0.26876014 0 0 0 0 58.385345
4.995285 -2.3024697 0.11954547 0 0 0 0 58.390289
7.6169543 -3.0099554 0.65628541 0 0 0 0 58.395241
7.8224988 -3.2037377 0.51235086 0 0 0 0 58.400185
6.0727186 -2.5560551 0.27344018 0 0 0 0 58.405136
4.8083944 -2.0801702 0.11384845 0 0 0 0 58.41008
7.4875307 -2.7713215 0.65079921 0 0 0 0 58.415024
7.6668096 -2.9383347 0.5052647 0 0 0 0 58.419975
7.7395782 -3.0501492 0.34657559 0 0 0 0 58.424919
4.6597433 -1.8859546 0.10873103 0 0 0 0 58.429871
7.3529525 -2.5385535 0.64623451 0 0 0 0 58.434814
7.5087967 -2.6848626 0.49801058 0 0 0 0 58.439758
7.5571055 -2.7769711 0.33861873 0 0 0 0 58.44471
7.2081914 -2.3124816 0.64058053 0 0 0 0 58.454605
7.3316059 -2.4378331 0.4896746 0 0 0 0 58.459549
7.4059892 -2.5277138 0.3333059 0 0 0 0 58.4645
7.0661025 -2.0984662 0.6337536 0 0 0 0 58.474388
7.1293793 -2.1920793 0.48033467 0 0 0 0 58.47934
7.2267537 -2.2826326 0.32594752 0 0 0 0 58.484283
6.9515643 -1.9012657 0.62967479 0 0 0 0 58.494179
6.9416246 -1.9657273 0.47070986 0 0 0 0 58.499123
7.0243979 -2.0418959 0.31853935 0 0 0 0 58.504074
6.7684822 -1.7538106 0.46287283 0 0 0 0 58.518913
6.8624473 -1.8233198 0.31279612 0 0 0 0 58.523857
5.7967238 -1.5795803 0.12774819 0 0 0 0 58.528809
6.6099496 -1.5563151 0.45582312 0 0 0 0 58.538704
6.7349873 -1.6237404 0.30876583 0 0 0 0 58.543648
5.7898746 -1.4314382 0.1269201 0 0 0 0 58.548599
6.476079 -1.3715386 0.45058182 0 0 0 0 58.558487
6.5933447 -1.4307433 0.30364823 0 0 0 0 58.563438
5.8018832 -1.2888423 0.12700689 0 0 0 0 58.568382
6.328052 -1.1923298 0.44326761 0 0 0 0 58.578278
6.4525414 -1.2437651 0.29844597 0 0 0 0 58.583221
5.7313251 -1.1298883 0.12536821 0 0 0 0 58.588173
6.2057152 -1.0248998 0.43977475 0 0 0 0 58.598068
6.2646794 -1.0584404 0.29224071 0 0 0 0 58.603012
6.2041945 -1.0704619 0.13506673 0 0 0 0 58.607956
6.0492849 -0.86044502 0.43225387 0 0 0 0 58.617851
6.0994787 -0.8857643 0.28684476 0 0 0 0 58.622803
6.0340819 -0.8946718 0.1317191 0 0 0 0 58.627747
5.9404774 -0.71038955 0.42850694 0 0 0 0 58.637642
5.9140396 -0.72149724 0.28033572 0 0 0 0 58.642586
5.8736906 -0.72915119 0.12822014 0 0 0 0 58.647537
5.8165684 -0.56388897 0.42371634 0 0 0 0 58.657433
5.755343 -0.56699437 0.27467638 0 0 0 0 58.662376
5.7569513 -0.57688934 0.12651306 0 0 0 0 58.66732
8.4999018 -0.60203737 0.84421676 0 0 0 0 58.672272
5.5943999 -0.42143801 0.26988909 0 0 0 0 58.682167
5.6640396 -0.43131235 0.12570192 0 0 0 0 58.687111
8.3832436 -0.4118 0.8410756 0 0 0 0 58.692062
5.4552288 -0.28450724 0.26596946 0 0 0 0 58.70195
5.5899849 -0.29126602 0.12480526 0 0 0 0 58.706902
8.8385038 -0.24293934 0.89745569 0 0 0 0 58.927147
5.300036 -0.15648289 0.26097387 0 0 0 0 58.937035
5.3600216 -0.15413471 0.12097245 0 0 0 0 58.941986
9.1632023 -0.049962841 0.94023138 0 0 0 0 58.94693
5.1865277 -0.033256173 0.25786331 0 0 0 0 58.956825
5.2106147 -0.026880236 0.11793566 0 0 0 0 58.961769
8.2549934 0.13210893 0.85728556 0 0 0 0 58.966721
5.0678554 0.084106669 0.25566974 0 0 0 0 58.976616
5.0460482 0.094782844 0.11682382 0 0 0 0 58.98156
8.2571697 0.31179672 0.86698532 0 0 0 0 58.986511
4.9540439 0.19634943 0.25240028 0 0 0 0 58.996399
4.9072766 0.208728 0.11458954 0 0 0 0 59.00135
4.8701959 0.30670896 0.25109437 0 0 0 0 59.01619
4.7893577 0.31706572 0.11326624 0 0 0 0 59.021133
4.6763568 0.42225188 0.11289644 0 0 0 0 59.040924
9.321599 0.96683222 1.0134767 0 0 0 0 59.045868
4.5942898 0.52455521 0.11247441 0 0 0 0 59.060715
6.4188137 0.85783839 0.34185135 0 0 0 0 59.075554
4.6236706 0.64062268 0.11522123 0 0 0 0 59.080498
6.370954 1.001089 0.34504026 0 0 0 0 59.095345
4.3404584 0.70575756 0.11031798 0 0 0 0 59.100288
6.3754253 1.154811 0.35037118 0 0 0 0 59.115128
4.246007 0.79442602 0.10970195 0 0 0 0 59.120079
6.3496852 1.3014297 0.35360947 0 0 0 0 59.134918
4.1927447 0.8888855 0.11116039 0 0 0 0 59.139862
6.3441448 1.45444 0.35894033 0 0 0 0 59.154709
8.5362215 2.0318799 0.99993175 0 0 0 0 59.164597
6.3790283 1.6212451 0.36746845 0 0 0 0 59.174492
9.6500711 2.5246444 1.1450083 0 0 0 0 59.184387
6.3675618 1.7764267 0.37284148 0 0 0 0 59.194283
5.4835181 1.5850958 0.15325707 0 0 0 0 59.199226
8.5620966 2.4374833 1.0301123 0 0 0 0 59.204178
6.4449334 1.9589785 0.38359976 0 0 0 0 59.214073
5.4877601 1.7298586 0.15746853 0 0 0 0 59.219017
9.2505665 2.8541594 1.1272049 0 0 0 0 59.223961
6.4023504 2.1100566 0.38892961 0 0 0 0 59.233856
5.4758992 1.8711002 0.16063584 0 0 0 0 59.238808
9.0561228 3.0117526 1.1196986 0 0 0 0 59.243752
6.4284687 2.284128 0.39658603 0 0 0 0 59.253647
5.4691291 2.0151813 0.16484764 0 0 0 0 59.258591
8.8574543 3.1615045 1.1100787 0 0 0 0 59.263542
6.4122648 2.4474342 0.40309876 0 0 0 0 59.27343
5.5019279 2.1781089 0.17033392 0 0 0 0 59.278381
8.5209627 3.2504764 1.0835897 0 0 0 0 59.283325
6.4183779 2.621068 0.41176385 0 0 0 0 59.293221
5.4670091 2.317003 0.17448425 0 0 0 0 59.298172
8.4393044 3.4326453 1.0894263 0 0 0 0 59.303116
8.3849144 3.530457 0.80990911 0 0 0 0 59.30806
6.5138545 2.8400364 0.42708871 0 0 0 0 59.313011
5.5233927 2.4992218 0.18226206 0 0 0 0 59.317955
8.2826986 3.5831161 1.0858126 0 0 0 0 59.322906
7.9273105 3.5480087 0.77838635 0 0 0 0 59.32785
6.559896 3.0444896 0.43821588 0 0 0 0 59.332794
5.4825478 2.6402893 0.18645446 0 0 0 0 59.337746
8.1127262 3.7210083 1.0800159 0 0 0 0 59.34269
7.8120432 3.7092123 0.78092462 0 0 0 0 59.347641
6.4842834 3.1935434 0.44254988 0 0 0 0 59.352585
5.5026999 2.814569 0.19313271 0 0 0 0 59.357536
7.9365296 3.8511014 1.0731059 0 0 0 0 59.36248
7.6602459 3.8525214 0.78020763 0 0 0 0 59.367424
5.4924946 2.9767411 0.19864184 0 0 0 0 59.377319
7.7744203 3.983779 1.0672333 0 0 0 0 59.382271
7.6383505 4.058917 0.79140735 0 0 0 0 59.387215
6.560853 3.6178548 0.4680669 0 0 0 0 59.392159
7.5997152 4.1100349 1.0606289 0 0 0 0 59.164642
7.5267301 4.2221637 0.79433042 0 0 0 0 59.169594
6.4262843 3.7444682 0.46950188 0 0 0 0 59.174538
7.4363236 4.2337174 1.0546086 0 0 0 0 59.184433
6.2448106 3.6874909 0.67276818 0 0 0 0 59.189377
6.277565 3.856653 0.47029978 0 0 0 0 59.194328
7.275908 4.3563061 1.0495737 0 0 0 0 59.204216
6.3566098 3.951864 0.69877344 0 0 0 0 59.209167
6.3203835 4.0881734 0.48483515 0 0 0 0 59.214111
5.5039086 3.7083714 0.22837736 0 0 0 0 59.219063
7.1154404 4.4768877 1.0455114 0 0 0 0 59.224007
6.2851405 4.1057606 0.70517915 0 0 0 0 59.228958
6.0348706 4.1054239 0.47525278 0 0 0 0 59.233902
6.9649739 4.597188 1.0414438 0 0 0 0 59.243797
6.8630457 4.71101 0.7861892 0 0 0 0 59.248741
6.6255755 4.7386494 0.53468084 0 0 0 0 59.253693
6.8052268 4.7077756 1.0362353 0 0 0 0 59.26358
4.1690698 2.9903238 0.48914403 0 0 0 0 59.268532
4.1911678 3.1348519 0.34931922 0 0 0 0 59.273476
4.2597485 3.3302181 0.19924726 0 0 0 0 59.278427
4.1728868 3.0117362 0.64851588 0 0 0 0 59.283371
4.3320599 3.2601788 0.52021837 0 0 0 0 59.288322
4.1128974 3.2270286 0.35178775 0 0 0 0 59.293266
4.2289414 3.4719763 0.20645311 0 0 0 0 59.29821
6.5069427 4.9353151 1.0289152 0 0 0 0 59.303162
6.3973484 5.0602446 0.78283757 0 0 0 0 59.308105
4.0551739 3.3375738 0.35752988 0 0 0 0 59.313057
4.1510296 3.5761344 0.21010861 0 0 0 0 59.318001
6.3522091 5.0457335 1.0267103 0 0 0 0 59.322945
6.2519059 5.1803575 0.78377855 0 0 0 0 59.327896
3.9995706 3.4520617 0.36333361 0 0 0 0 59.33284
5.0895543 4.6105089 0.26752508 0 0 0 0 59.337791
6.2105331 5.1577964 1.0235281 0 0 0 0 59.342735
5.9226632 5.1380758 0.76132017 0 0 0 0 59.347679
5.9850688 5.4314766 0.55774784 0 0 0 0 59.352631
5.8086448 5.5282478 0.31827253 0 0 0 0 59.357574
5.6458678 4.8989968 0.95085877 0 0 0 0 59.362526
4.905252 4.4478278 0.64725226 0 0 0 0 59.36747
4.6510963 4.4161882 0.44785565 0 0 0 0 59.372421
5.683938 5.6727014 0.3255856 0 0 0 0 59.377365
4.8242931 4.3732553 0.83121192 0 0 0 0 59.382309
5.3314652 5.06253 0.72151363 0 0 0 0 59.38726
4.5482826 4.5230503 0.45257688 0 0 0 0 59.392204
5.123723 5.3589625 0.30708542 0 0 0 0 59.397156
5.3469591 5.0696545 0.9406901 0 0 0 0 59.4021
5.2427964 5.2079616 0.72782546 0 0 0 0 59.407043
4.2524981 4.4277234 0.43729019 0 0 0 0 59.411995
4.9778347 5.4630556 0.31279278 0 0 0 0 59.416939
5.2416582 5.1936078 0.9436819 0 0 0 0 59.42189
4.0923839 4.2469649 0.58465475 0 0 0 0 59.426834
3.7886913 4.1284637 0.40395299 0 0 0 0 59.431778
4.8400936 5.5719047 0.31957215 0 0 0 0 59.436729
5.1292205 5.3127718 0.9466061 0 0 0 0 59.441673
3.5496793 3.8503928 0.5228548 0 0 0 0 59.446625
4.81463 5.5123277 0.52975005 0 0 0 0 59.451569
3.3352904 4.0181079 0.23248315 0 0 0 0 59.45652
4.9424253 5.3522806 0.93534344 0 0 0 0 59.461464
3.5666718 4.0516429 0.54097211 0 0 0 0 59.466408
3.4082947 4.0785456 0.3904365 0 0 0 0 59.471359
3.150254 3.9814243 0.23104325 0 0 0 0 59.476303
3.5454473 4.0029221 0.68829286 0 0 0 0 59.481255
3.5695331 4.2483172 0.55802929 0 0 0 0 59.486198
3.1339364 3.9296448 0.37331396 0 0 0 0 59.491142
3.9552691 5.2674432 0.30445451 0 0 0 0 59.496094
3.4795637 4.1067247 0.69395602 0 0 0 0 59.501038
3.561233 4.4393158 0.57500833 0 0 0 0 59.505989
2.978642 3.9181566 0.36924627 0 0 0 0 59.510933
3.7507637 5.248312 0.30430382 0 0 0 0 59.515884
3.5592701 4.3989263 0.72945249 0 0 0 0 59.520828
3.667748 4.7927527 0.61143625 0 0 0 0 59.525772
2.8804574 3.9779527 0.37124851 0 0 0 0 59.530724
3.571007 5.2544594 0.30553049 0 0 0 0 59.535667
4.4332771 5.7459068 0.93382478 0 0 0 0 59.540619
3.5655801 4.8866448 0.61497253 0 0 0 0 59.545563
2.8626664 4.152287 0.38497737 0 0 0 0 59.550507
3.5305712 5.4744563 0.31998205 0 0 0 0 59.555458
4.3489695 5.9021864 0.94432259 0 0 0 0 59.560402
3.301425 4.7445879 0.58995312 0 0 0 0 59.565353
3.1449902 4.8034563 0.44091007 0 0 0 0 59.570297
3.5115118 5.7408128 0.33714145 0 0 0 0 59.575241
3.2811232 4.6588421 0.73570919 0 0 0 0 59.580193
4.0421615 6.1171417 0.74879974 0 0 0 0 59.585136
2.9587309 4.7589083 0.43435615 0 0 0 0 59.590088
2.8816309 4.9644012 0.29453424 0 0 0 0 59.595032
3.2495692 4.8405237 0.75256908 0 0 0 0 59.599983
3.6331041 5.775589 0.6997813 0 0 0 0 59.604927
2.9415526 4.9871788 0.45292786 0 0 0 0 59.609871
3.86064 7.0588918 0.41839406 0 0 0 0 59.614822
2.9938397 4.679389 0.71724755 0 0 0 0 59.619766
3.4942775 5.8465886 0.70099503 0 0 0 0 59.624718
3.8980744 6.9944687 0.62848145 0 0 0 0 59.629662
3.7008219 7.1634102 0.4271462 0 0 0 0 59.634605
3.7847531 7.1749344 0.64396292 0 0 0 0 60.001328
3.5560369 7.292954 0.43988234 0 0 0 0 60.006279
3.6642594 7.3553128 0.65790826 0 0 0 0 60.021118
3.3932714 7.3976212 0.44966456 0 0 0 0 60.026062
3.5110285 7.4777308 0.66596526 0 0 0 0 60.040901
3.2351055 7.5221334 0.46175736 0 0 0 0 60.045853
3.0922208 7.6891956 0.4755117 0 0 0 0 60.065643
3.3871367 7.5002847 0.85854787 0 0 0 0 60.075531
2.9715137 7.9285469 0.49539152 0 0 0 0 60.085426
3.4885306 7.5350232 1.0631477 0 0 0 0 60.090378
2.8232763 8.1167402 0.51248705 0 0 0 0 60.105217
2.0002036 8.5813503 0.763686 0 0 0 0 60.218994
1.9014306 8.6065435 0.93532324 0 0 0 0 60.253624
2.0077016 8.5706615 1.1028196 0 0 0 0 60.268463
0.66721916 8.8342867 0.63969743 0 0 0 0 60.322884
0.79174668 8.8399391 0.80384207 0 0 0 0 60.337723
0.45623872 8.7974777 0.6473034 0 0 0 0 60.342674
0.58300376 8.8111591 0.80557299 0 0 0 0 60.357513
0.25114617 8.8894167 0.66493922 0 0 0 0 60.362457
0.70006877 8.8354139 0.94601107 0 0 0 0 60.372353
0.37683234 8.8012857 0.80960107 0 0 0 0 60.377304
0.043552466 8.8985071 0.67526907 0 0 0 0 60.382248
0.49181169 8.7567692 0.93695217 0 0 0 0 60.392143
0.17567375 8.9571342 0.82824731 0 0 0 0 60.397087
-0.16010988 8.6406374 0.66637641 0 0 0 0 60.402039
0.62268323 8.8405876 1.080327 0 0 0 0 60.406982
0.29075062 8.8167725 0.94208235 0 0 0 0 60.411926
-0.031457651 8.8493862 0.82372868 0 0 0 0 60.416878
-0.35151702 8.3913927 0.65860987 0 0 0 0 60.421822
0.41445124 8.7630453 1.0652833 0 0 0 0 60.426773
0.088568076 8.9716921 0.95871741 0 0 0 0 60.431717
-0.23013659 8.5915155 0.80582732 0 0 0 0 60.436668
-0.5322445 8.1648407 0.65119284 0 0 0 0 60.441612
0.21645032 8.8250284 1.0664445 0 0 0 0 60.446556
-0.11420596 8.7770128 0.93881696 0 0 0 0 60.451508
-0.41634831 8.3492651 0.78916293 0 0 0 0 60.456451
-0.70483398 7.943037 0.64484298 0 0 0 0 60.461403
0.0092964871 8.9673367 1.0765942 0 0 0 0 60.233307
-0.31209695 8.5283089 0.91182333 0 0 0 0 60.238258
-0.59766185 8.1158257 0.77245682 0 0 0 0 60.243202
-0.87018484 7.737905 0.63762689 0 0 0 0 60.248154
-0.19021267 8.7137146 1.0417868 0 0 0 0 60.253098
-0.4953807 8.2820539 0.8871212 0 0 0 0 60.258041
-0.76511842 7.8969569 0.75817525 0 0 0 0 60.262993
-1.029449 7.5586386 0.63496149 0 0 0 0 60.267937
-0.37849733 8.4677505 1.00809 0 0 0 0 60.272888
-0.66810822 8.0544662 0.86470336 0 0 0 0 60.277832
-0.92498654 7.6978583 0.74519706 0 0 0 0 60.282776
-1.1771779 7.3640585 0.63004643 0 0 0 0 60.287727
-0.55861551 8.2275209 0.976475 0 0 0 0 60.292671
-0.83397597 7.8556571 0.84473127 0 0 0 0 60.297623
-1.0814431 7.5126376 0.7344318 0 0 0 0 60.302567
-1.1040447 6.0337296 0.52714789 0 0 0 0 60.307518
-0.7273581 7.9999619 0.94504994 0 0 0 0 60.312462
-0.9921872 7.6456218 0.82457477 0 0 0 0 60.317406
-1.2253053 7.3140559 0.72244704 0 0 0 0 60.322357
-1.2878004 6.2049851 0.55199313 0 0 0 0 60.327301
-0.89038891 7.7961674 0.91899276 0 0 0 0 60.332253
-1.1418986 7.452312 0.80667436 0 0 0 0 60.337196
-1.1542412 6.0500612 0.60456598 0 0 0 0 60.34214
-1.4963355 6.4499235 0.58401442 0 0 0 0 60.347092
-1.0472205 7.599196 0.89303625 0 0 0 0 60.352036
-1.2862891 7.2698364 0.78993857 0 0 0 0 60.356987
-1.3451418 6.249516 0.63186282 0 0 0 0 60.361931
-1.7314584 6.7415929 0.6227895 0 0 0 0 60.366882
-1.194095 7.4009156 0.86805099 0 0 0 0 60.371826
-1.2181953 6.0750942 0.66412503 0 0 0 0 60.37677
-1.555907 6.4865432 0.66276532 0 0 0 0 60.381721
-3.3461602 11.79766 1.1043822 0 0 0 0 60.386665
-1.112318 6.0312047 0.70745534 0 0 0 0 60.391617
-1.4181477 6.305841 0.69192398 0 0 0 0 60.396561
-1.7978338 6.7844453 0.70064753 0 0 0 0 60.401505
-3.5581465 11.52703 1.1003243 0 0 0 0 60.406456
-1.2837592 6.1462736 0.71941465 0 0 0 0 60.4114
-1.6374454 6.5581393 0.72307652 0 0 0 0 60.416351
-3.4187365 11.72712 1.2185563 0 0 0 0 60.421295
-3.7650859 11.258226 1.0982876 0 0 0 0 60.426239
-1.492214 6.3933063 0.74647975 0 0 0 0 60.43119
-1.872574 6.8159275 0.7543276 0 0 0 0 60.436134
-3.6278603 11.452554 1.2054278 0 0 0 0 60.441086
-2.1698098 6.0528073 0.60738188 0 0 0 0 60.44603
-1.7291298 6.6911144 0.78136587 0 0 0 0 60.450981
-3.5099003 11.638818 1.2894479 0 0 0 0 60.455925
-3.8373301 11.199983 1.1946416 0 0 0 0 60.460869
-2.2843239 5.9332228 0.60860592 0 0 0 0 60.46582
-3.3692479 11.81442 1.3712937 0 0 0 0 60.470764
-3.7263696 11.386585 1.2706687 0 0 0 0 60.475716
-2.2075937 6.0172467 0.65497112 0 0 0 0 60.480659
-2.3900597 5.8063898 0.60870892 0 0 0 0 60.485603
-3.589992 11.553487 1.3413765 0 0 0 0 60.490555
-3.9208007 11.102748 1.2473737 0 0 0 0 60.495499
-2.3238714 5.9057856 0.6523214 0 0 0 0 60.50045
-2.4946499 5.6845284 0.60888749 0 0 0 0 60.505394
-3.7942412 11.276092 1.3091859 0 0 0 0 60.510345
-2.2631674 5.9895453 0.6826877 0 0 0 0 60.515289
-2.430584 5.780066 0.64743888 0 0 0 0 60.520233
-2.5953686 5.558537 0.60999638 0 0 0 0 60.525185
-2.1831083 6.0517874 0.70770609 0 0 0 0 60.530128
-2.3682466 5.8518515 0.67261374 0 0 0 0 60.53508
-2.5343635 5.652246 0.64351928 0 0 0 0 60.540024
-2.6891265 5.4313545 0.61008072 0 0 0 0 60.544968
-2.3033323 5.9425945 0.69608986 0 0 0 0 60.549919
-2.4729977 5.7251406 0.66371119 0 0 0 0 60.554863
-2.6311824 5.5232348 0.63857508 0 0 0 0 60.559814
-2.7865844 5.3142748 0.61132437 0 0 0 0 60.564758
-2.4074504 5.8039565 0.6809966 0 0 0 0 60.569702
-2.5729389 5.5922866 0.65470624 0 0 0 0 60.574654
-2.7297628 5.4022517 0.63575649 0 0 0 0 60.579597
-2.8848338 5.2042108 0.61367726 0 0 0 0 60.584549
-2.5113919 5.6712871 0.66799533 0 0 0 0 60.589493
-2.682121 5.4846945 0.64810395 0 0 0 0 60.594444
-2.8252892 5.2831974 0.63196456 0 0 0 0 60.599388
-2.975275 5.0879426 0.61392576 0 0 0 0 60.604332
-2.6160038 5.5496311 0.65616673 0 0 0 0 60.609283
-2.7721391 5.3495469 0.63905299 0 0 0 0 60.614227
-2.9197602 5.1660991 0.62920088 0 0 0 0 60.619179
-3.0808294 5.0010686 0.61964607 0 0 0 0 60.624123
-2.7156842 5.4258289 0.64429927 0 0 0 0 60.629066
-2.8686719 5.2305746 0.63225937 0 0 0 0 60.634018
-3.0101774 5.0508823 0.62646294 0 0 0 0 60.638962
-3.3804517 5.2096972 0.66215187 0 0 0 0 60.643913
-2.8075874 5.2948079 0.63131094 0 0 0 0 60.648857
-2.9640276 5.1175737 0.62555784 0 0 0 0 60.653801
-3.1779008 5.0578427 0.63970184 0 0 0 0 60.658752
-3.7180696 5.451427 0.7102052 0 0 0 0 60.663696
-2.9060047 5.1799631 0.62058038 0 0 0 0 60.668648
-3.0573585 5.0054989 0.61986786 0 0 0 0 60.673592
-3.5016794 5.2942457 0.68166465 0 0 0 0 60.678543
-4.1218729 5.7530656 0.76824635 0 0 0 0 60.683487
-2.9976439 5.0579138 0.60972959 0 0 0 0 60.688431
-3.3274224 5.1664481 0.64760548 0 0 0 0 60.693382
-3.8761389 5.5741115 0.73134685 0 0 0 0 60.698326
-4.5815959 6.0902953 0.83588487 0 0 0 0 60.703278
-3.1652129 5.0665269 0.61454099 0 0 0 0 60.875687
-3.6744046 5.423192 0.68948972 0 0 0 0 60.88063
-4.3041773 5.8922343 0.78929549 0 0 0 0 60.885582
-5.0670314 6.4251361 0.90618241 0 0 0 0 60.890526
-3.5005927 5.3144937 0.64872307 0 0 0 0 60.89547
-4.0791698 5.7241125 0.7375561 0 0 0 0 60.900421
-4.7970986 6.2536268 0.8553763 0 0 0 0 60.905365
-5.1952643 6.2839842 0.91303855 0 0 0 0 60.910316
-3.8637333 5.5703149 0.68404776 0 0 0 0 60.91526
-4.5321884 6.0494618 0.79104137 0 0 0 0 60.920204
-5.1244783 6.3702989 0.89045882 0 0 0 0 60.925156
-5.3117256 6.1355052 0.91776878 0 0 0 0 60.930099
-4.3210111 5.9198875 0.7329253 0 0 0 0 60.935051
-5.0517426 6.4227824 0.85233259 0 0 0 0 60.939995
-5.24125 6.2119236 0.88902855 0 0 0 0 60.944946
-5.4262252 5.98597 0.92247784 0 0 0 0 60.94989
-4.8660722 6.3420625 0.79201514 0 0 0 0 60.954834
-5.1831403 6.2769103 0.84810829 0 0 0 0 60.959785
-5.3568444 6.0595021 0.88869035 0 0 0 0 60.964729
-5.5474811 5.8446183 0.92931825 0 0 0 0 60.969681
-5.1109767 6.3435922 0.79921019 0 0 0 0 60.974625
-5.3008294 6.1216507 0.84172368 0 0 0 0 60.979568
-5.482131 5.917356 0.89051843 0 0 0 0 60.98452
-5.6619 5.6980753 0.93506896 0 0 0 0 60.989464
-5.2337894 6.1845703 0.78776556 0 0 0 0 60.994415
-5.4232755 5.9745131 0.8374688 0 0 0 0 60.999359
-5.5947099 5.7658682 0.88918722 0 0 0 0 61.004303
-5.7733583 5.5504293 0.94179749 0 0 0 0 61.009254
-5.3554239 6.0315046 0.77741319 0 0 0 0 61.014198
-5.539947 5.8202162 0.83209252 0 0 0 0 61.01915
-5.7091999 5.617413 0.88990253 0 0 0 0 61.024094
-5.8896351 5.4089384 0.94862401 0 0 0 0 61.029045
-5.477972 5.8814564 0.76810658 0 0 0 0 61.033989
-5.6497216 5.6627102 0.82665819 0 0 0 0 61.038933
-5.8295393 5.474113 0.8927002 0 0 0 0 61.043884
-6.0058255 5.2704506 0.95549577 0 0 0 0 61.048828
-5.5918713 5.7201586 0.7576111 0 0 0 0 61.05378
-5.7798119 5.5277967 0.82459384 0 0 0 0 61.058723
-5.9439497 5.3286495 0.89445728 0 0 0 0 61.063667
-6.1133661 5.1206803 0.96317858 0 0 0 0 61.068619
-5.7153087 5.5741339 0.74936306 0 0 0 0 61.073563
-5.8925047 5.3733597 0.82120365 0 0 0 0 61.078514
-6.0563984 5.1821303 0.89619321 0 0 0 0 61.083458
-6.2256637 4.9790807 0.96999204 0 0 0 0 61.088409
-5.8358774 5.4240246 0.7410444 0 0 0 0 61.093353
-6.0041118 5.2218957 0.81785762 0 0 0 0 61.098297
-6.1747265 5.039783 0.89899564 0 0 0 0 61.103249
-6.3389354 4.8384838 0.97881901 0 0 0 0 61.108192
-5.9447064 5.2655702 0.73158252 0 0 0 0 61.113144
-6.1274409 5.0797853 0.81566435 0 0 0 0 61.118088
-6.2842517 4.8911824 0.90069002 0 0 0 0 61.123032
-6.448401 4.691771 0.98754221 0 0 0 0 61.127983
-6.0730357 5.123682 0.72539335 0 0 0 0 61.132927
-6.2409983 4.9303761 0.81334573 0 0 0 0 61.137878
-6.39675 4.7436461 0.90439957 0 0 0 0 61.142822
-6.5665588 4.5553203 0.99743193 0 0 0 0 61.147766
-6.1848149 4.967298 0.71795934 0 0 0 0 61.152718
-6.3437843 4.7736344 0.81090057 0 0 0 0 61.157661
-6.5160651 4.6023116 0.90920925 0 0 0 0 61.162613
-6.6780047 4.4096622 1.0071665 0 0 0 0 61.167557
-6.3004432 4.8160391 0.71060646 0 0 0 0 61.172508
-6.469131 4.6315703 0.81069893 0 0 0 0 61.177452
-6.6275463 4.45577 0.91192776 0 0 0 0 61.182396
-6.7923317 4.2680998 1.0169654 0 0 0 0 61.187347
-6.4200139 4.666893 0.70428598 0 0 0 0 61.192291
-6.5817394 4.4811287 0.80935305 0 0 0 0 61.197243
-6.7391262 4.3062024 0.91659397 0 0 0 0 61.202187
-6.9086633 4.1265883 1.0277627 0 0 0 0 61.20713
-6.5308132 4.5104766 0.69784051 0 0 0 0 61.212082
-6.6982899 4.3327994 0.80903953 0 0 0 0 61.217026
-6.8516502 4.1586695 0.92129028 0 0 0 0 61.221977
-6.6553321 4.3634791 0.69255006 0 0 0 0 61.231865
-6.8159084 4.1825075 0.80869108 0 0 0 0 61.236816
-0.40068766 0.21948874 0.070687726 0 0 0 0 61.246712
-6.771142 4.2071958 0.68810177 0 0 0 0 61.251656
-0.38383543 0.21410997 0.061599221 0 0 0 0 61.261551
-0.38082013 0.21413112 0.054604065 0 0 0 0 61.27639
-0.39448103 0.19230528 0.069259286 0 0 0 0 61.286285
-0.38761291 0.22046018 0.047715474 0 0 0 0 61.291229
-0.40130493 0.19761886 0.063354105 0 0 0 0 61.301125
-0.39532289 0.19656368 0.055340003 0 0 0 0 61.315971
-0.40401861 0.1735829 0.069973916 0 0 0 0 61.325859
-0.39624384 0.19872503 0.047380988 0 0 0 0 61.330811
-0.40790683 0.17682099 0.063033551 0 0 0 0 61.340706
-0.40027288 0.17470795 0.053896762 0 0 0 0 61.105629
-0.4376376 0.16252156 0.074719764 0 0 0 0 61.115524
-0.41506362 0.18128315 0.047014154 0 0 0 0 61.120476
-0.43756041 0.16466755 0.065759473 0 0 0 0 61.130363
-0.43064156 0.16159976 0.05671205 0 0 0 0 61.14521
-0.42343369 0.13510859 0.07228528 0 0 0 0 61.155098
-0.41872597 0.15840931 0.04566047 0 0 0 0 61.160049
-0.42735457 0.13736242 0.064328164 0 0 0 0 61.169945
-0.42143625 0.13434167 0.054281428 0 0 0 0 61.184784
-0.35363463 0.094076678 0.062606633 0 0 0 0 61.194679
-0.4105204 0.13116561 0.044230267 0 0 0 0 61.199623
-0.35958582 0.095376283 0.055634554 0 0 0 0 61.209518
-0.3526684 0.092307098 0.046586357 0 0 0 0 61.224358
-0.32338244 0.068192914 0.058188047 0 0 0 0 61.234253
-0.35762048 0.093592331 0.03861355 0 0 0 0 61.239204
-0.32136941 0.068260476 0.050192628 0 0 0 0 61.249092
-0.32338521 0.067436948 0.043184295 0 0 0 0 61.263939
-0.32683387 0.052278403 0.05894395 0 0 0 0 61.273827
-0.33633339 0.068954989 0.03621817 0 0 0 0 61.278778
-0.32981867 0.052501902 0.050952781 0 0 0 0 61.288673
-0.31693634 0.048245642 0.041882485 0 0 0 0 61.303513
-0.32728851 0.036286939 0.058696631 0 0 0 0 61.313408
-0.32391891 0.048577793 0.034894656 0 0 0 0 61.318352
-0.32830575 0.03544898 0.05068725 0 0 0 0 61.328247
-0.32138941 0.032362685 0.042638168 0 0 0 0 61.343086
-0.33074275 0.020372866 0.059451077 0 0 0 0 61.352982
-0.32743558 0.030681739 0.034616791 0 0 0 0 61.357925
-0.32479534 0.018333446 0.050419178 0 0 0 0 61.367821
-0.32387647 0.015434556 0.042375147 0 0 0 0 61.38266
-0.32820168 0.004287798 0.05919965 0 0 0 0 61.392555
-0.32492578 0.013614088 0.033349324 0 0 0 0 61.397507
-0.33124986 0.002513516 0.051175348 0 0 0 0 61.407402
-0.32033664 -0.00068180822 0.042122439 0 0 0 0 61.422241
-0.33362603 -0.01058036 0.060970645 0 0 0 0 61.432137
-0.32641521 -0.0033448315 0.033084463 0 0 0 0 61.43708
-0.32971007 -0.013540146 0.05092388 0 0 0 0 61.446976
-0.32379481 -0.01657901 0.041875165 0 0 0 0 61.461815
-0.33308637 -0.026619241 0.061719391 0 0 0 0 61.47171
-0.32990515 -0.020240868 0.032820586 0 0 0 0 61.476654
-0.32917085 -0.02957898 0.051672421 0 0 0 0 61.486549
-0.32028925 -0.033695027 0.041604552 0 0 0 0 61.501389
-0.33657762 -0.043531947 0.062454514 0 0 0 0 61.511284
-0.32743096 -0.038324423 0.032534201 0 0 0 0 61.516235
-0.33266246 -0.046491574 0.052407324 0 0 0 0 61.526123
-0.32980984 -0.051418461 0.042328086 0 0 0 0 61.54097
-0.3350417 -0.059585784 0.062201023 0 0 0 0 61.550865
-0.33295402 -0.056173008 0.033253934 0 0 0 0 61.555809
-0.33618706 -0.064403266 0.053125001 0 0 0 0 61.565704
-0.32995111 -0.068432808 0.043157782 0 0 0 0 61.938133
-0.33418676 -0.076650977 0.064027734 0 0 0 0 61.948029
-0.33113104 -0.074230298 0.033064064 0 0 0 0 61.952972
-0.33333638 -0.081496269 0.052948941 0 0 0 0 61.962868
-0.3284559 -0.085486472 0.042883012 0 0 0 0 61.977707
-0.33668968 -0.093593933 0.064756148 0 0 0 0 61.987602
-0.33066782 -0.092251115 0.032773212 0 0 0 0 61.992546
-0.33384082 -0.098502874 0.05367529 0 0 0 0 62.002441
-0.3391152 -0.10718684 0.044534408 0 0 0 0 62.017281
-0.36143729 -0.11789487 0.069369286 0 0 0 0 62.027176
-0.36354011 -0.12025946 0.035326906 0 0 0 0 62.032127
-0.36165154 -0.12470602 0.058257356 0 0 0 0 62.042015
-0.35380641 -0.12975763 0.046171699 0 0 0 0 62.056862
-0.34885582 -0.13228534 0.068132959 0 0 0 0 62.066757
-0.34093201 -0.1339701 0.034098174 0 0 0 0 62.071701
-0.34404114 -0.13825729 0.057032969 0 0 0 0 62.081596
-0.35344353 -0.15079258 0.046828054 0 0 0 0 62.096436
-0.38891888 -0.16616343 0.076589443 0 0 0 0 62.106331
-0.37803116 -0.16884235 0.036535874 0 0 0 0 62.111275
-0.37401533 -0.16939037 0.061530873 0 0 0 0 62.12117
-0.37435961 -0.18019797 0.050350968 0 0 0 0 62.136009
-0.38149849 -0.18540688 0.076271757 0 0 0 0 62.145905
-0.42544881 -0.21341729 0.040812846 0 0 0 0 62.150856
-0.43155506 -0.21772575 0.070748739 0 0 0 0 62.160744
-0.41468611 -0.22199917 0.054671131 0 0 0 0 62.175591
-0.42685342 -0.22813065 0.085578591 0 0 0 0 62.185478
-0.42631656 -0.24141225 0.04134934 0 0 0 0 62.19043
-0.42014018 -0.23709629 0.070425645 0 0 0 0 62.200325
-0.41855308 -0.24991518 0.056209609 0 0 0 0 62.215164
-0.43987623 -0.2608043 0.090040348 0 0 0 0 62.22506
-0.4068431 -0.25904173 0.041051757 0 0 0 0 62.230003
-11.961497 -6.7724209 1.3116204 0 0 0 0 62.234955
-12.001634 -6.7344446 2.1103542 0 0 0 0 62.244843
-11.810542 -6.9784703 2.106092 0 0 0 0 62.264633
-11.48963 -7.1362395 2.0782304 0 0 0 0 62.284424
-10.784153 -7.737206 2.0425646 0 0 0 0 62.343788
-9.8059702 -9.1617241 1.3047265 0 0 0 0 62.194626
-9.4000349 -9.4029055 0.89437997 0 0 0 0 62.209473
-9.161047 -9.6186361 0.89855283 0 0 0 0 62.229256
-8.5341272 -9.4069614 0.86478531 0 0 0 0 62.249046
-8.1873674 -9.4759226 0.85839045 0 0 0 0 62.268837
-8.3379707 -9.4083433 1.2356154 0 0 0 0 62.273781
-8.5388422 -9.4099483 1.5986886 0 0 0 0 62.278725
-8.7728529 -9.4468699 1.9831805 0 0 0 0 62.283676
-7.9558096 -9.6734829 0.86486512 0 0 0 0 62.28862
-8.1225328 -9.6093521 1.2400377 0 0 0 0 62.293571
-8.2867813 -9.5609369 1.592941 0 0 0 0 62.298515
-8.4595385 -9.5284891 1.9595798 0 0 0 0 62.303459
-7.6480069 -9.7713099 0.86299247 0 0 0 0 62.308411
-7.8280792 -9.7176867 1.2339923 0 0 0 0 62.313354
-7.9430327 -9.5985184 1.569072 0 0 0 0 62.318306
-8.1374569 -9.5863295 1.9323758 0 0 0 0 62.32325
-7.4173665 -9.9658785 0.87051022 0 0 0 0 62.328201
-7.5729017 -9.8648968 1.2343017 0 0 0 0 62.333145
-7.7647848 -9.8354807 1.579893 0 0 0 0 62.338089
-7.9347386 -9.7778635 1.9319549 0 0 0 0 62.34304
-7.1699018 -10.134959 0.87644887 0 0 0 0 62.347984
-7.3605504 -10.06789 1.2416797 0 0 0 0 62.352936
-7.5416317 -10.013714 1.5816854 0 0 0 0 62.35788
-7.7039437 -9.9362364 1.9280804 0 0 0 0 62.362823
-6.9717484 -10.374634 0.89020658 0 0 0 0 62.367775
-7.1725202 -10.31124 1.255379 0 0 0 0 62.372719
-7.3100705 -10.179207 1.5826867 0 0 0 0 62.37767
-7.4805403 -10.106435 1.9270049 0 0 0 0 62.382614
-6.7074995 -10.519254 0.89554507 0 0 0 0 62.387558
-6.924716 -10.469316 1.2594955 0 0 0 0 62.392509
-7.1301751 -10.426322 1.5973204 0 0 0 0 62.397453
-7.2475991 -10.259879 1.9222059 0 0 0 0 62.402405
-6.5838609 -10.89684 0.92198205 0 0 0 0 62.407349
-6.7001057 -10.663751 1.2680006 0 0 0 0 62.4123
-6.8788629 -10.568416 1.5957026 0 0 0 0 62.417244
-7.0799646 -10.514627 1.9377104 0 0 0 0 62.422188
-6.3718758 -11.141045 0.93864125 0 0 0 0 62.427139
-6.8320866 -11.458248 1.3484524 0 0 0 0 62.432083
-6.7289157 -10.874771 1.6193326 0 0 0 0 62.437035
-6.8682585 -10.705586 1.9422748 0 0 0 0 62.441978
-6.1295547 -11.344176 0.95298105 0 0 0 0 62.446922
-6.5929675 -11.667224 1.3596896 0 0 0 0 62.451874
-5.8873072 -11.549318 0.96728212 0 0 0 0 62.466713
-6.3372812 -11.858742 1.3712127 0 0 0 0 62.471664
-5.646296 -11.761451 0.9824602 0 0 0 0 62.486504
-6.1178584 -12.119256 1.3895718 0 0 0 0 62.491447
-6.293139 -11.916862 1.7110943 0 0 0 0 62.496399
-5.411005 -11.995484 1.0012631 0 0 0 0 62.506287
-5.632679 -11.836041 1.3480771 0 0 0 0 62.511238
-5.1776657 -12.258563 1.0245672 0 0 0 0 62.526077
-5.386199 -12.033353 1.3624969 0 0 0 0 62.531021
-4.9968352 -12.659217 1.0585408 0 0 0 0 62.545868
-5.1249866 -12.208096 1.3742911 0 0 0 0 62.550812
-5.5509858 -12.516688 1.7432053 0 0 0 0 62.555763
-4.7565351 -12.953641 1.0862947 0 0 0 0 62.565651
-4.8617172 -12.38095 1.3881131 0 0 0 0 62.570602
-5.2783723 -12.678738 1.7512034 0 0 0 0 62.575546
-4.4858522 -13.17492 1.1082783 0 0 0 0 62.585442
-4.6055593 -12.587683 1.406356 0 0 0 0 62.590385
-5.0330005 -12.909108 1.7680424 0 0 0 0 62.595337
-4.2068572 -13.386461 1.12942 0 0 0 0 62.605232
-4.3373737 -12.762741 1.4211303 0 0 0 0 62.610176
-4.769474 -13.103983 1.7804755 0 0 0 0 62.61512
-5.0302033 -12.975714 2.0937731 0 0 0 0 62.620071
-3.9185498 -13.588334 1.1517191 0 0 0 0 62.625015
-4.0775943 -12.980655 1.4411718 0 0 0 0 62.629967
-4.5069013 -13.327971 1.7994075 0 0 0 0 62.634911
-3.632247 -13.838906 1.1811006 0 0 0 0 62.396103
-3.8049858 -13.185639 1.4632486 0 0 0 0 62.401047
-4.2310805 -13.529034 1.8165936 0 0 0 0 62.405998
-3.3351972 -14.050076 1.2072583 0 0 0 0 62.415886
-3.5356867 -13.419918 1.4890312 0 0 0 0 62.420837
-3.979629 -13.819819 1.8454193 0 0 0 0 62.425781
-3.2647562 -13.665267 1.5146197 0 0 0 0 62.440628
-2.9771948 -13.891179 1.5415272 0 0 0 0 62.460411
-2.3127663 -14.150895 1.2457081 0 0 0 0 62.47525
-2.6963608 -14.170025 1.5745323 0 0 0 0 62.480202
-2.9989591 -13.942482 1.8365135 0 0 0 0 62.485146
-1.9795287 -14.202017 1.2615616 0 0 0 0 62.495041
-2.3546619 -14.145082 1.5736747 0 0 0 0 62.499992
-2.7087357 -14.147378 1.8567678 0 0 0 0 62.504936
-3.1138687 -14.397957 2.1856589 0 0 0 0 62.50988
-1.65848 -14.382078 1.2912246 0 0 0 0 62.514832
-2.0337865 -14.237813 1.5878233 0 0 0 0 62.519775
-2.377723 -14.174137 1.856034 0 0 0 0 62.524727
-2.8248327 -14.638838 2.2052925 0 0 0 0 62.529671
-1.338675 -14.600197 1.3242359 0 0 0 0 62.534615
-1.7177749 -14.418654 1.6134713 0 0 0 0 62.539566
-2.0583317 -14.250671 1.8614565 0 0 0 0 62.54451
-2.4029751 -14.177863 2.1238234 0 0 0 0 62.549461
-1.0122176 -14.859666 1.3625354 0 0 0 0 62.554405
-1.4001955 -14.612584 1.6398915 0 0 0 0 62.559349
-1.751429 -14.46526 1.8875296 0 0 0 0 62.564301
-2.093657 -14.287076 2.1276906 0 0 0 0 62.569244
-0.6711266 -15.099637 1.4021564 0 0 0 0 62.574196
-1.0807424 -14.871802 1.6761937 0 0 0 0 62.57914
-1.4373345 -14.642962 1.9072238 0 0 0 0 62.584091
-1.7922485 -14.516449 2.1505094 0 0 0 0 62.589035
-0.32483074 -15.363873 1.4453562 0 0 0 0 62.593979
-0.74821955 -15.159576 1.7179983 0 0 0 0 62.59893
-1.1192048 -14.881038 1.9378828 0 0 0 0 62.603874
-1.4766631 -14.647989 2.1589868 0 0 0 0 62.608826
0.033952914 -16.811258 1.6013447 0 0 0 0 62.61377
-0.40741959 -15.438633 1.7599423 0 0 0 0 62.618713
-0.79472011 -15.169476 1.9746741 0 0 0 0 62.623665
-1.1634741 -14.883813 2.183682 0 0 0 0 62.628609
-0.060159512 -16.747622 1.919281 0 0 0 0 62.638504
-0.45579809 -15.444397 2.0116849 0 0 0 0 62.643448
-0.84656161 -15.220102 2.2236538 0 0 0 0 62.648399
-0.11065537 -16.172874 2.1089323 0 0 0 0 62.663239
-0.50733089 -15.423742 2.245878 0 0 0 0 62.66819
0.26271763 -16.556324 2.1630564 0 0 0 0 62.683029
-0.16904636 -16.085814 2.3342543 0 0 0 0 62.687973
0.67088836 -17.314053 2.2677512 0 0 0 0 62.702812
0.19640958 -16.343555 2.3665283 0 0 0 0 62.707764
1.0833081 -17.603558 2.3104482 0 0 0 0 62.722603
0.57881558 -16.664066 2.4077146 0 0 0 0 62.727554
1.5111512 -17.9107 2.3588312 0 0 0 0 62.742393
0.97333288 -16.981007 2.4499509 0 0 0 0 62.747337
3.1576326 -19.005672 2.0192778 0 0 0 0 62.752289
1.9549403 -18.219418 2.4091747 0 0 0 0 62.762177
1.385843 -17.328655 2.4966462 0 0 0 0 62.767128
3.731461 -19.620831 2.1233025 0 0 0 0 62.772072
3.0024586 -18.940571 2.3042309 0 0 0 0 62.777023
2.4259307 -18.583246 2.4685552 0 0 0 0 62.781967
1.8168695 -17.691006 2.5470748 0 0 0 0 62.786911
4.0878549 -19.083971 2.1041789 0 0 0 0 62.791862
2.9136999 -18.953701 2.5308075 0 0 0 0 62.801758
2.2765856 -18.093491 2.6057954 0 0 0 0 62.806702
4.5741215 -19.195055 2.1558843 0 0 0 0 62.811653
2.8245382 -18.978428 2.7341812 0 0 0 0 62.826492
5.1608815 -19.628403 2.2490091 0 0 0 0 62.831436
4.4067254 -19.166142 2.4132144 0 0 0 0 62.836388
3.3282361 -19.350327 2.7893879 0 0 0 0 62.846275
5.8916707 -20.489717 2.3947067 0 0 0 0 62.851227
4.976501 -19.567762 2.4968848 0 0 0 0 62.856171
4.2950006 -19.115845 2.600883 0 0 0 0 62.861122
3.8606081 -19.7323 2.8504026 0 0 0 0 62.866066
6.4788074 -20.747282 2.4720275 0 0 0 0 63.025352
5.6782598 -20.389387 2.6344903 0 0 0 0 63.030296
4.844378 -19.493813 2.6702676 0 0 0 0 63.035248
4.1835279 -19.085258 2.7615521 0 0 0 0 63.040192
6.8474059 -20.269302 2.4689474 0 0 0 0 63.045143
6.3048258 -20.795145 2.7230098 0 0 0 0 63.050087
5.5149379 -20.203756 2.7895088 0 0 0 0 63.055031
4.7309809 -19.462873 2.8225973 0 0 0 0 63.059982
7.2096038 -19.834194 2.468137 0 0 0 0 63.064926
6.6916647 -20.370607 2.7079999 0 0 0 0 63.069878
6.1919417 -20.808699 2.8985524 0 0 0 0 63.074821
5.3323417 -19.934687 2.9019818 0 0 0 0 63.079765
7.5530968 -19.390461 2.4664931 0 0 0 0 63.084717
7.0539985 -19.931183 2.688267 0 0 0 0 63.089661
6.6010885 -20.465858 2.8771205 0 0 0 0 63.094612
6.0620437 -20.760935 3.0331597 0 0 0 0 63.099556
7.8986464 -18.975925 2.4703524 0 0 0 0 63.104507
7.3958936 -19.475088 2.6688411 0 0 0 0 63.109451
6.9677234 -20.017321 2.8425474 0 0 0 0 63.114395
6.5082278 -20.538467 3.0146282 0 0 0 0 63.119347
8.2113609 -18.526199 2.4688442 0 0 0 0 63.12429
7.7366824 -19.05307 2.6538343 0 0 0 0 63.129242
7.3227868 -19.586473 2.8106813 0 0 0 0 63.134186
6.8752332 -20.078651 2.963254 0 0 0 0 63.13913
8.5286322 -18.120756 2.4725749 0 0 0 0 63.144081
8.0759258 -18.648108 2.6435418 0 0 0 0 63.149025
7.6712432 -19.174498 2.7824998 0 0 0 0 63.153976
7.2387323 -19.664875 2.9180913 0 0 0 0 63.15892
8.8426237 -17.724274 2.479161 0 0 0 0 63.163864
8.413126 -18.275177 2.6367023 0 0 0 0 63.168816
7.9987264 -18.731791 2.7528706 0 0 0 0 63.173759
7.5810599 -19.22636 2.8713763 0 0 0 0 63.178711
9.148139 -17.342546 2.4865024 0 0 0 0 63.183655
8.7317505 -17.889601 2.6280982 0 0 0 0 63.188606
8.3379936 -18.356655 2.7300704 0 0 0 0 63.19355
7.9245086 -18.815016 2.8301988 0 0 0 0 63.198494
9.4455423 -16.964582 2.4947898 0 0 0 0 63.203445
9.0379 -17.488615 2.6197762 0 0 0 0 63.208389
8.6551228 -17.955753 2.7057364 0 0 0 0 63.213341
8.2566824 -18.412344 2.7908833 0 0 0 0 63.218285
9.7350016 -16.585381 2.5041108 0 0 0 0 63.223228
9.336503 -17.104399 2.6111736 0 0 0 0 63.22818
8.9690399 -17.561829 2.6852913 0 0 0 0 63.233124
8.5750151 -18.005224 2.7516601 0 0 0 0 63.238075
10.046565 -16.264111 2.5214226 0 0 0 0 63.243019
9.6355257 -16.738302 2.607264 0 0 0 0 63.247963
9.274477 -17.18264 2.6646013 0 0 0 0 63.252914
8.8879032 -17.611994 2.7152064 0 0 0 0 63.257858
10.323497 -15.901578 2.5334742 0 0 0 0 63.26281
9.9188728 -16.362675 2.6025352 0 0 0 0 63.267754
9.5718708 -16.805246 2.6468923 0 0 0 0 63.272705
9.2203312 -17.263636 2.6889718 0 0 0 0 63.277649
10.57619 -15.516132 2.5399427 0 0 0 0 63.282593
10.208734 -16.002369 2.6025453 0 0 0 0 63.287544
9.8668823 -16.439827 2.6309834 0 0 0 0 63.292488
9.5170965 -16.874964 2.656462 0 0 0 0 63.29744
10.865947 -15.190223 2.5603673 0 0 0 0 63.302383
10.491179 -15.654835 2.6023433 0 0 0 0 63.307327
10.157912 -16.074322 2.6170864 0 0 0 0 63.312279
9.8123789 -16.501328 2.6276996 0 0 0 0 63.317223
11.114041 -14.823741 2.5715237 0 0 0 0 63.322174
10.757352 -15.285741 2.6015322 0 0 0 0 63.327118
10.441628 -15.718605 2.6040292 0 0 0 0 63.332069
10.108442 -16.134769 2.6008217 0 0 0 0 63.337013
11.3906 -14.504417 2.5918531 0 0 0 0 63.341957
11.027737 -14.94088 2.6043046 0 0 0 0 63.346909
10.710736 -15.351406 2.591187 0 0 0 0 63.351852
10.405855 -15.788364 2.5785992 0 0 0 0 63.356804
11.656514 -14.174728 2.611376 0 0 0 0 63.361748
11.29587 -14.603975 2.6079464 0 0 0 0 63.366692
10.996949 -15.011925 2.5848618 0 0 0 0 63.371643
10.677167 -15.414997 2.5518665 0 0 0 0 63.376587
11.914413 -13.845798 2.6318958 0 0 0 0 63.381538
11.561919 -14.270047 2.6135445 0 0 0 0 63.386482
11.269217 -14.670937 2.5755756 0 0 0 0 63.391426
10.95289 -15.059867 2.5288212 0 0 0 0 63.396378
12.1634 -13.514564 2.6514668 0 0 0 0 63.401321
11.834679 -13.945432 2.6229851 0 0 0 0 63.406273
11.53554 -14.328812 2.56932 0 0 0 0 63.411217
11.244885 -14.727443 2.513381 0 0 0 0 63.416168
12.423992 -13.195805 2.6748228 0 0 0 0 63.421112
12.085835 -13.609026 2.6286478 0 0 0 0 63.426056
11.801875 -13.986732 2.5650716 0 0 0 0 63.431007
11.512478 -14.377134 2.4942708 0 0 0 0 63.435951
12.667809 -12.870474 2.6973076 0 0 0 0 63.440903
12.3417 -13.281864 2.6381545 0 0 0 0 63.445847
12.064894 -13.654557 2.5606582 0 0 0 0 63.45079
11.784883 -14.033072 2.4790578 0 0 0 0 63.455742
12.919269 -12.556468 2.7225986 0 0 0 0 63.460686
12.605341 -12.962049 2.6515374 0 0 0 0 63.465637
12.331656 -13.330593 2.5601072 0 0 0 0 63.470581
12.059798 -13.704145 2.4655857 0 0 0 0 63.475525
13.159219 -12.228081 2.7481539 0 0 0 0 63.480476
12.855173 -12.636742 2.6630292 0 0 0 0 63.48542
12.592673 -12.999461 2.5606921 0 0 0 0 63.490372
12.327867 -13.371016 2.453198 0 0 0 0 63.495316
13.401905 -11.930653 2.7710741 0 0 0 0 64.1241
13.096008 -12.325737 2.6710386 0 0 0 0 64.129051
12.846307 -12.6865 2.5585949 0 0 0 0 64.133995
12.574884 -13.038311 2.4353166 0 0 0 0 64.138939
13.633911 -11.608184 2.7966602 0 0 0 0 64.14389
13.348958 -12.004821 2.6875842 0 0 0 0 64.148834
13.095555 -12.35616 2.5593057 0 0 0 0 64.153786
12.848938 -12.713696 2.4289107 0 0 0 0 64.15873
13.889267 -11.305664 2.8288875 0 0 0 0 64.163681
13.602646 -11.691946 2.7039919 0 0 0 0 64.168625
13.355641 -12.031296 2.5649221 0 0 0 0 64.173569
13.103395 -12.377339 2.4187303 0 0 0 0 64.17852
14.109653 -10.972849 2.8566792 0 0 0 0 64.183464
13.848593 -11.371829 2.7215407 0 0 0 0 64.188416
13.613538 -11.712388 2.5714395 0 0 0 0 64.193359
13.371377 -12.055555 2.413291 0 0 0 0 64.198303
14.350286 -10.662822 2.8880613 0 0 0 0 64.203255
14.098518 -11.052897 2.7410741 0 0 0 0 64.208199
13.853939 -11.378847 2.5762343 0 0 0 0 64.21315
13.635653 -11.725689 2.4100063 0 0 0 0 64.218094
14.603684 -10.36034 2.9243107 0 0 0 0 64.223045
14.344392 -10.735856 2.7615824 0 0 0 0 64.227989
14.112003 -11.056001 2.5848382 0 0 0 0 64.232933
13.891017 -11.393489 2.4047744 0 0 0 0 64.237885
14.852342 -10.050702 2.9606979 0 0 0 0 64.242828
14.586419 -10.414691 2.7821739 0 0 0 0 64.24778
14.369909 -10.738216 2.5963585 0 0 0 0 64.252724
13.992376 -10.94247 2.3757465 0 0 0 0 64.257668
15.09019 -9.7356825 2.9961932 0 0 0 0 64.262619
14.847141 -10.103275 2.8075907 0 0 0 0 64.267563
14.626899 -10.418392 2.6069231 0 0 0 0 64.272514
12.430097 -9.256197 2.0735934 0 0 0 0 64.277458
15.326124 -9.4186258 3.0327332 0 0 0 0 64.282402
15.094127 -9.7843761 2.8321548 0 0 0 0 64.287354
14.161517 -9.6010542 2.4947259 0 0 0 0 64.292297
12.345215 -8.7523146 2.0246201 0 0 0 0 64.297249
15.568138 -9.0998611 3.0733101 0 0 0 0 64.302193
15.335302 -9.4603033 2.8578222 0 0 0 0 64.307144
13.933274 -8.9888353 2.4267602 0 0 0 0 64.312088
12.599089 -8.4953337 2.0320804 0 0 0 0 64.317032
15.789455 -8.772316 3.11006 0 0 0 0 64.321983
