# .PCD v0.7 - Point Cloud Data file format
VERSION 0.7
FIELDS x y z normal_x normal_y normal_z intensity curvature
SIZE 4 4 4 4 4 4 4 4
TYPE F F F F F F F F
COUNT 1 1 1 1 1 1 1 1
WIDTH 953
HEIGHT 1
VIEWPOINT 0 0 0 1 0 0 0
POINTS 953
DATA ascii
17.865042 2.526758 2.2929382 0 0 0 0 38.583553
16.595978 2.6601474 1.7610586 0 0 0 0 38.588497
14.792166 2.645225 1.2308879 0 0 0 0 38.593449
17.811716 2.5816956 2.7050326 0 0 0 0 38.598392
17.923233 2.9471502 2.2937217 0 0 0 0 38.603336
18.059931 3.32547 1.9163313 0 0 0 0 38.608288
18.194576 3.7078037 1.5179482 0 0 0 0 38.613232
17.929916 2.9987848 2.7096193 0 0 0 0 38.618183
18.009535 3.3823979 2.2994156 0 0 0 0 38.623127
18.103275 3.7679312 1.9241663 0 0 0 0 38.628071
17.868517 4.087131 1.4989743 0 0 0 0 38.633022
17.962044 3.4073079 2.701484 0 0 0 0 38.637966
18.090847 3.8166673 2.3061249 0 0 0 0 38.642918
17.682957 4.109746 1.8814951 0 0 0 0 38.647861
16.218323 4.1181951 1.3702627 0 0 0 0 38.652813
18.05732 3.8345072 2.7041457 0 0 0 0 38.657757
16.803024 3.9449136 2.138252 0 0 0 0 38.662701
16.068577 4.1286616 1.7136753 0 0 0 0 38.667652
16.25061 4.539742 1.3841445 0 0 0 0 38.672596
16.724237 3.93801 2.4944239 0 0 0 0 38.677547
15.860513 4.102438 2.0162725 0 0 0 0 38.682491
15.467656 4.3614507 1.6535977 0 0 0 0 38.687435
15.735942 4.8030853 1.3507901 0 0 0 0 38.692387
15.882755 4.1070352 2.3621209 0 0 0 0 38.69733
15.378663 4.3486309 1.9548112 0 0 0 0 38.702282
15.646116 4.8052611 1.6780086 0 0 0 0 38.707226
14.935616 4.9529128 1.2933612 0 0 0 0 38.71217
15.348716 4.3325071 2.2738299 0 0 0 0 38.717121
16.106174 4.9516134 2.045444 0 0 0 0 38.722065
14.885736 4.9548998 1.6034533 0 0 0 0 38.727016
14.198234 5.0864439 1.2427338 0 0 0 0 38.73196
15.437464 4.7270985 2.2817762 0 0 0 0 38.500042
15.211022 5.0622253 1.9335538 0 0 0 0 38.504986
10.325665 3.706423 1.1209147 0 0 0 0 38.50993
9.7300787 3.7533748 0.86282498 0 0 0 0 38.514881
16.260153 5.3707371 2.3981738 0 0 0 0 38.519825
10.357378 3.7070837 1.3197678 0 0 0 0 38.524776
9.5503674 3.6820936 1.0423467 0 0 0 0 38.52972
12.919037 5.3403487 1.1568544 0 0 0 0 38.534664
14.492262 5.1412706 2.133714 0 0 0 0 38.539616
9.5489092 3.6619329 1.2203069 0 0 0 0 38.544559
12.965014 5.3468885 1.4206464 0 0 0 0 38.549511
8.977128 3.9617829 0.81619686 0 0 0 0 38.554455
10.478548 4.6071062 1.1574467 0 0 0 0 38.569294
6.9290972 3.2578754 0.63962322 0 0 0 0 38.574245
6.8964071 3.2239168 0.76969808 0 0 0 0 38.589085
6.7507167 3.3716471 0.63219774 0 0 0 0 38.594028
12.739496 5.492342 1.8672086 0 0 0 0 38.59898
10.44151 4.8409247 1.3425145 0 0 0 0 38.603924
6.7380457 3.3435917 0.75821018 0 0 0 0 38.608875
6.6806459 3.5388789 0.63543475 0 0 0 0 38.613819
6.7433305 3.3144486 0.87216383 0 0 0 0 38.623714
6.6458645 3.4929373 0.75451583 0 0 0 0 38.628658
6.8854465 3.8597226 0.66481096 0 0 0 0 38.63361
6.7756305 3.2821667 0.99502838 0 0 0 0 38.638554
6.6160121 3.4419746 0.85957992 0 0 0 0 38.643505
6.8516412 3.8067734 0.78588623 0 0 0 0 38.648449
6.1913638 3.6671228 0.60900837 0 0 0 0 38.653393
6.6292038 3.3937926 0.97350389 0 0 0 0 38.658344
6.8859401 3.7794816 0.89874434 0 0 0 0 38.663288
6.2216926 3.6468601 0.72088534 0 0 0 0 38.66824
6.1051927 3.8124504 0.61130005 0 0 0 0 38.673183
6.8800488 3.7153928 1.0107256 0 0 0 0 38.678127
6.3272018 3.6632152 0.83052325 0 0 0 0 38.683079
6.1114144 3.7753124 0.71625268 0 0 0 0 38.688023
5.699863 3.7514126 0.58159584 0 0 0 0 38.692974
6.7838254 3.8587646 0.99804491 0 0 0 0 38.697918
6.110527 3.7252133 0.80822557 0 0 0 0 38.702862
7.3090281 4.7550588 0.8665067 0 0 0 0 38.707813
5.5724907 3.8589633 0.58002037 0 0 0 0 38.712757
6.1657519 3.6918252 0.90801704 0 0 0 0 38.717709
7.2920432 4.676023 0.96951854 0 0 0 0 38.722652
7.956965 5.4425921 0.9544903 0 0 0 0 38.727604
5.5907178 4.0717683 0.59398997 0 0 0 0 38.732548
6.0634298 3.815244 0.89535969 0 0 0 0 38.737492
8.3656206 5.6393485 1.1191525 0 0 0 0 38.742443
7.8872595 5.6678095 0.95973456 0 0 0 0 38.747387
5.8178988 4.4524932 0.63130558 0 0 0 0 38.752338
8.4799795 5.6046162 1.2527323 0 0 0 0 38.757282
8.094099 5.7266068 1.0920318 0 0 0 0 38.762226
7.6659336 5.7838149 0.94645846 0 0 0 0 38.767178
6.5545387 5.2665691 0.72702461 0 0 0 0 38.772121
8.2254934 5.7027888 1.2185583 0 0 0 0 38.777073
7.713069 5.7254438 1.0492598 0 0 0 0 38.782017
6.5474997 5.1814952 0.82200718 0 0 0 0 38.786961
6.4445443 5.4360228 0.73140353 0 0 0 0 38.791912
7.8956413 5.7363639 1.1746249 0 0 0 0 38.796856
7.5408907 5.8682046 1.0368308 0 0 0 0 38.801807
6.4062905 5.315114 0.81748265 0 0 0 0 38.806751
6.2561593 5.5338893 0.7290296 0 0 0 0 38.811703
7.5988779 5.7837777 1.1355897 0 0 0 0 38.816647
7.4159193 6.0457244 1.0302548 0 0 0 0 38.82159
7.4678397 5.9533315 1.1210326 0 0 0 0 38.836437
7.3066478 6.0950489 1.1025727 0 0 0 0 38.85622
6.6675596 6.7993793 0.84186733 0 0 0 0 38.871067
6.6555524 6.8261108 0.98784316 0 0 0 0 38.920536
6.5832372 6.8792777 1.0320522 0 0 0 0 38.955166
4.9357977 7.0520444 0.7908501 0 0 0 0 38.751125
4.8998218 7.1720667 0.83497429 0 0 0 0 38.785755
4.9533343 7.0497184 0.84575629 0 0 0 0 38.800594
4.8253417 7.2162991 0.84421039 0 0 0 0 38.820385
4.9159007 7.1077576 0.84787101 0 0 0 0 38.835224
3.1228235 7.3898826 0.7769624 0 0 0 0 38.929218
3.0815468 7.4800067 0.77012759 0 0 0 0 38.963848
3.0422001 7.5721288 0.73828781 0 0 0 0 38.998478
3.1414456 7.443562 0.68591768 0 0 0 0 39.013317
2.0331504 6.976491 0.72561854 0 0 0 0 39.028156
1.8439215 6.9124799 0.71926641 0 0 0 0 39.047947
1.9620912 6.9448204 0.68587512 0 0 0 0 39.062786
1.6802192 6.9393358 0.7228511 0 0 0 0 39.06773
1.7799885 6.9057784 0.6775077 0 0 0 0 39.082577
1.5124311 6.9522204 0.72344941 0 0 0 0 39.087521
1.894025 6.9251423 0.62612623 0 0 0 0 39.097416
1.6224455 6.9636083 0.67808151 0 0 0 0 39.10236
1.366232 7.064992 0.73599982 0 0 0 0 39.107311
2.0391953 6.9733348 0.56764191 0 0 0 0 39.112255
1.7200755 6.9150634 0.61674064 0 0 0 0 39.117207
1.4525288 6.9555116 0.67468518 0 0 0 0 39.12215
1.1942732 7.0469108 0.73561084 0 0 0 0 39.127094
1.8489234 6.9103465 0.54930031 0 0 0 0 39.132046
1.5594361 6.9589171 0.61132479 0 0 0 0 39.13699
1.3125077 7.1012554 0.68522477 0 0 0 0 39.141941
1.0284673 7.0548015 0.73820955 0 0 0 0 39.146885
1.6862279 6.9472122 0.53888983 0 0 0 0 39.151829
1.4008381 7.0087652 0.60790598 0 0 0 0 39.15678
1.1301955 7.0262389 0.67386109 0 0 0 0 39.161724
0.8647902 7.0846863 0.742809 0 0 0 0 39.166676
1.5162945 6.9421244 0.5264973 0 0 0 0 39.171619
1.2402201 7.0546298 0.60449606 0 0 0 0 39.176571
0.96857923 7.0691137 0.6754567 0 0 0 0 39.181515
0.70311219 7.1135659 0.74840403 0 0 0 0 39.186459
1.3743733 7.0828571 0.52406412 0 0 0 0 39.214535
1.0724945 7.0525165 0.59812456 0 0 0 0 39.219486
0.80706787 7.0999756 0.67707676 0 0 0 0 39.22443
0.53857565 7.1374545 0.75303841 0 0 0 0 39.229382
1.1951516 7.0278354 0.50869954 0 0 0 0 39.234325
0.90983695 7.0914078 0.59372735 0 0 0 0 39.239277
0.64335686 7.1258769 0.67768276 0 0 0 0 39.244221
0.37604341 7.1893535 0.76264936 0 0 0 0 39.249165
1.0324398 7.0597281 0.50030077 0 0 0 0 39.254116
0.74509084 7.1143165 0.58933645 0 0 0 0 39.25906
0.47868046 7.1577897 0.67829651 0 0 0 0 39.264011
0.21258074 7.2532635 0.77226931 0 0 0 0 39.268955
0.86770874 7.0886378 0.49091128 0 0 0 0 39.273899
0.58138078 7.1422248 0.58694595 0 0 0 0 39.278851
0.31737357 7.2506886 0.68591601 0 0 0 0 39.283794
0.045787103 7.261198 0.77689022 0 0 0 0 39.288746
0.7051245 7.141541 0.48452285 0 0 0 0 39.29369
0.41574496 7.1831498 0.58456826 0 0 0 0 39.298634
0.14952196 7.2516308 0.68553913 0 0 0 0 39.303585
-0.12085625 7.2931376 0.7855193 0 0 0 0 39.308529
0.53733903 7.16048 0.47514746 0 0 0 0 39.31348
0.25139686 7.2720737 0.58620065 0 0 0 0 39.318424
-0.018340962 7.2505789 0.68516469 0 0 0 0 39.323376
-0.29392698 7.4201188 0.80319756 0 0 0 0 39.32832
0.37391603 7.2393994 0.47177404 0 0 0 0 39.333263
0.081455208 7.2610354 0.57983136 0 0 0 0 39.338215
-0.18769196 7.3345413 0.6928193 0 0 0 0 39.343159
0.20520827 7.2703547 0.46441063 0 0 0 0 39.353054
-0.086275324 7.2839899 0.5784654 0 0 0 0 39.357998
0.034273632 7.263329 0.45404881 0 0 0 0 39.372845
-0.26039073 7.409987 0.58415055 0 0 0 0 39.377789
-0.13731678 7.3133135 0.44870627 0 0 0 0 39.392628
-1.2829913 8.2458277 0.92512822 0 0 0 0 39.427258
-1.1819828 8.3092918 0.79080719 0 0 0 0 39.442097
-1.2617385 8.2288256 0.63114393 0 0 0 0 39.476727
-1.1428549 8.2911882 0.46475509 0 0 0 0 39.491573
-4.2399015 8.2960405 1.094602 0 0 0 0 40.273754
-4.1556387 8.2995977 0.87131411 0 0 0 0 40.288593
-4.4411993 8.2214298 1.1014503 0 0 0 0 40.293545
-4.0922222 8.32829 0.64611489 0 0 0 0 40.30344
-4.3717761 8.2510862 0.87622899 0 0 0 0 40.308384
-4.6326122 8.1307621 1.1062583 0 0 0 0 40.313328
-4.3044739 8.2657566 0.64601135 0 0 0 0 40.323223
-4.5534 8.1323557 0.87499124 0 0 0 0 40.328175
-4.921874 8.2017431 1.1345035 0 0 0 0 40.333118
-4.2221265 8.3003302 0.39473757 0 0 0 0 40.338062
-4.4812136 8.1329956 0.6397509 0 0 0 0 40.343014
-4.8308697 8.1792641 0.89118379 0 0 0 0 40.347958
-5.0065737 7.930387 1.1158437 0 0 0 0 40.352909
-4.3861003 8.1344862 0.3854177 0 0 0 0 40.357853
-4.7320838 8.1267319 0.64382392 0 0 0 0 40.362797
-4.9502201 7.958137 0.87867612 0 0 0 0 40.367748
-5.0595031 7.6288252 1.0920496 0 0 0 0 40.372692
-4.6271567 8.1051607 0.38144603 0 0 0 0 40.377644
-4.9206924 8.0130634 0.64062285 0 0 0 0 40.382587
-5.0052133 7.6465874 0.85688758 0 0 0 0 40.387539
-5.1172791 7.350297 1.0712819 0 0 0 0 40.392483
-4.8662643 8.0678301 0.37846854 0 0 0 0 40.397427
-4.9757824 7.6865144 0.62083083 0 0 0 0 40.402378
-5.0689926 7.3670988 0.83814365 0 0 0 0 40.407322
-5.1710076 7.0797439 1.0515007 0 0 0 0 40.412273
-4.9243703 7.7372999 0.36268762 0 0 0 0 40.417217
-5.0297208 7.3839598 0.60204124 0 0 0 0 40.422161
-5.1277318 7.0945783 0.82038206 0 0 0 0 40.427113
-5.2137198 6.8131189 1.0316767 0 0 0 0 40.432056
-4.981389 7.4217644 0.34690696 0 0 0 0 40.437008
-5.0884976 7.1054392 0.58627832 0 0 0 0 40.441952
-5.1774416 6.8279996 0.80258626 0 0 0 0 40.446896
-5.2593336 6.5615149 1.0138689 0 0 0 0 40.451847
-5.0392256 7.1332364 0.33413747 0 0 0 0 40.456791
-5.1382918 6.82586 0.57047939 0 0 0 0 40.461742
-5.2201366 6.5643754 0.78576356 0 0 0 0 40.466686
-5.3078723 6.3219323 0.99707687 0 0 0 0 40.471638
-5.0900469 6.8486633 0.32134137 0 0 0 0 40.476582
-5.1869602 6.5652757 0.55668157 0 0 0 0 40.481525
-5.2697034 6.3207989 0.76997453 0 0 0 0 40.486477
-5.3513551 6.0913172 0.98126727 0 0 0 0 40.491421
-5.1378202 6.572072 0.30953562 0 0 0 0 40.496372
-5.2385402 6.3187122 0.54390001 0 0 0 0 40.501316
-5.3162098 6.0862041 0.75617611 0 0 0 0 40.50626
-5.3927956 5.8676891 0.96645176 0 0 0 0 40.511211
-5.1953969 6.3255482 0.29877838 0 0 0 0 40.516155
-5.2851129 6.0751171 0.53009957 0 0 0 0 40.521107
-5.3576856 5.8575759 0.7423594 0 0 0 0 40.526051
-5.4391584 5.6560965 0.95266014 0 0 0 0 40.531002
-5.2429786 6.078959 0.28898117 0 0 0 0 40.535946
-5.3345737 5.8475428 0.51931572 0 0 0 0 40.54089
-5.4050832 5.6409903 0.72957063 0 0 0 0 40.545841
-5.4745297 5.4444313 0.93882406 0 0 0 0 40.550785
-5.2954841 5.8444047 0.2802079 0 0 0 0 40.555737
-4.8013086 5.0210142 0.4549849 0 0 0 0 40.56068
-5.4444714 5.4263511 0.71775025 0 0 0 0 40.565624
-5.512857 5.2397866 0.92600256 0 0 0 0 40.570576
-4.8038807 5.0521455 0.24505351 0 0 0 0 40.57552
-5.2486525 5.2341413 0.48294881 0 0 0 0 40.580471
-5.4818163 5.2186995 0.70692378 0 0 0 0 40.585415
-5.5521083 5.0461497 0.91518825 0 0 0 0 40.590359
-5.2354298 5.2451744 0.25594994 0 0 0 0 40.59531
-5.4935694 5.225903 0.49202839 0 0 0 0 40.600254
-5.5250998 5.02109 0.69612503 0 0 0 0 40.605206
-5.587358 4.8544869 0.90335852 0 0 0 0 40.610149
-9.1688232 8.7451963 0.42617136 0 0 0 0 40.615101
-5.5011091 4.9920492 0.48007286 0 0 0 0 40.620045
-5.56038 4.8244271 0.68629408 0 0 0 0 40.624989
-5.6295443 4.6718726 0.89356041 0 0 0 0 40.62994
-9.2490416 8.403904 0.41452047 0 0 0 0 40.634884
-5.538425 4.7903996 0.47124898 0 0 0 0 40.639835
-5.5876718 4.6277108 0.67543048 0 0 0 0 40.644779
-5.6597486 4.4881778 0.88271284 0 0 0 0 40.649723
-9.3123035 8.057498 0.40379921 0 0 0 0 40.654675
-5.5717092 4.5937243 0.4634102 0 0 0 0 40.659618
-5.63482 4.4511313 0.66765499 0 0 0 0 40.66457
-5.6949029 4.3115182 0.87388825 0 0 0 0 40.669514
-5.5477395 4.5696855 0.23735894 0 0 0 0 40.674458
-5.5960078 4.395987 0.45553434 0 0 0 0 40.679409
-5.6670103 4.2694507 0.65981668 0 0 0 0 40.684353
-5.720089 4.1317906 0.86402184 0 0 0 0 40.689304
-5.5700765 4.3659344 0.23147322 0 0 0 0 40.694248
-5.6341987 4.2143474 0.44872081 0 0 0 0 40.6992
-5.7031646 4.0937986 0.65199685 0 0 0 0 40.704144
-5.7581763 3.9661534 0.85621321 0 0 0 0 40.709087
-5.60533 4.1752739 0.22564507 0 0 0 0 40.714039
-5.6683822 4.0346813 0.44189164 0 0 0 0 40.718983
-5.7303443 3.916086 0.6431396 0 0 0 0 40.723934
-5.7912626 3.8014827 0.84838462 0 0 0 0 40.728878
-5.6485324 3.9954689 0.22094208 0 0 0 0 40.496082
-5.7055478 3.8598244 0.43615982 0 0 0 0 40.501026
-5.76547 3.7472041 0.63639557 0 0 0 0 40.505978
-5.8253603 3.637583 0.83963221 0 0 0 0 40.510921
-5.6846662 3.8178096 0.21611896 0 0 0 0 40.515865
-5.7406535 3.6871595 0.43033436 0 0 0 0 40.520817
-5.7935543 3.5784934 0.62954301 0 0 0 0 40.525761
-5.8464336 3.471827 0.83075225 0 0 0 0 40.530712
-5.7187963 3.6411378 0.21228848 0 0 0 0 40.535656
-5.7757282 3.5194957 0.42551059 0 0 0 0 40.5406
-5.8295975 3.4168377 0.62272519 0 0 0 0 40.545551
-5.8774438 3.3151383 0.8239156 0 0 0 0 40.550495
-0.37155008 0.21394596 0.022572583 0 0 0 0 40.57523
-0.41438353 0.22823523 0.038759943 0 0 0 0 40.580181
-0.42334867 0.22429439 0.052803386 0 0 0 0 40.585125
-0.42931649 0.21933295 0.067834288 0 0 0 0 40.590076
-0.37567112 0.19198425 0.021643009 0 0 0 0 40.614811
-0.40954521 0.20021367 0.037792534 0 0 0 0 40.619755
-0.43743303 0.20640238 0.053916942 0 0 0 0 40.624699
-0.43443274 0.19737993 0.067909844 0 0 0 0 40.62965
-0.39374107 0.17711861 0.021773202 0 0 0 0 40.654385
-0.43160763 0.1863768 0.037940171 0 0 0 0 40.659328
-0.43757558 0.18141578 0.052971274 0 0 0 0 40.66428
-0.45051569 0.18050291 0.068032391 0 0 0 0 40.669224
-0.41879389 0.16430229 0.022933599 0 0 0 0 40.693958
-0.44869474 0.16850676 0.039066799 0 0 0 0 40.69891
-0.45764869 0.16556673 0.054110993 0 0 0 0 40.703854
-0.47158447 0.16466105 0.070176542 0 0 0 0 40.708805
-0.42391488 0.14234941 0.023009172 0 0 0 0 40.73354
-0.42289424 0.13634041 0.037010942 0 0 0 0 40.738483
-0.4358384 0.13542859 0.051072448 0 0 0 0 40.743427
-0.40389529 0.12120555 0.059942674 0 0 0 0 40.748379
-0.36915949 0.10397917 0.020829394 0 0 0 0 40.773113
-0.38510075 0.1040887 0.033903815 0 0 0 0 40.778057
-0.37609309 0.098024391 0.044871915 0 0 0 0 40.783009
-0.35411525 0.088869713 0.053784646 0 0 0 0 40.787952
-0.33731776 0.07776577 0.019747432 0 0 0 0 40.812687
-0.35626301 0.077897035 0.031834722 0 0 0 0 40.817638
-0.35223851 0.074867569 0.041824393 0 0 0 0 40.822582
-0.34922096 0.07084512 0.051818032 0 0 0 0 40.827526
-0.31144959 0.055592287 0.018690683 0 0 0 0 40.852261
-0.34437308 0.058822781 0.030838199 0 0 0 0 40.857212
-0.35332981 0.057884548 0.041883282 0 0 0 0 40.862156
-0.35429806 0.055890188 0.0518943 0 0 0 0 40.867107
-0.314531 0.039621718 0.019757612 0 0 0 0 40.891842
-0.34846559 0.041860778 0.030909708 0 0 0 0 40.896786
-0.35842216 0.040929977 0.041959219 0 0 0 0 40.901737
-0.35339057 0.038893081 0.051944729 0 0 0 0 40.906681
-0.31461793 0.023630282 0.019811839 0 0 0 0 40.931416
-0.34555954 0.024849202 0.030951492 0 0 0 0 40.936367
-0.35352036 0.023904745 0.040992625 0 0 0 0 40.941311
-0.34848163 0.022867618 0.050978277 0 0 0 0 40.946255
-0.31687367 0.0085975723 0.019483272 0 0 0 0 40.703999
-0.34583059 0.0077963816 0.030611062 0 0 0 0 40.708942
-0.35578531 0.0078641381 0.040659998 0 0 0 0 40.713894
-0.35075161 0.006828344 0.049646158 0 0 0 0 40.718838
-0.31895196 -0.0063799261 0.019546144 0 0 0 0 40.743572
-0.34690881 -0.0071870312 0.030670246 0 0 0 0 40.748516
-0.35587043 -0.0081258537 0.040714934 0 0 0 0 40.753468
-0.35482955 -0.0081339991 0.049717996 0 0 0 0 40.758411
-0.31903836 -0.022371223 0.019600438 0 0 0 0 40.783146
-0.34700209 -0.024177307 0.030724796 0 0 0 0 40.788097
-0.35296097 -0.02413656 0.039757255 0 0 0 0 40.793041
-0.34992006 -0.024158757 0.048751894 0 0 0 0 40.797993
-0.32612848 -0.039313596 0.020684011 0 0 0 0 40.822727
-0.34809658 -0.04116055 0.030783543 0 0 0 0 40.827671
-0.35905799 -0.042084675 0.040836968 0 0 0 0 40.832615
-0.35400727 -0.04012081 0.048823602 0 0 0 0 40.837566
-0.32521722 -0.055311687 0.020734174 0 0 0 0 40.862301
-0.3481923 -0.058150772 0.03083808 0 0 0 0 40.867245
-0.35615095 -0.058095466 0.039879236 0 0 0 0 40.872196
-0.35510281 -0.057103761 0.048882481 0 0 0 0 40.87714
-0.32932112 -0.073274322 0.020805079 0 0 0 0 40.901875
-0.34929633 -0.07613387 0.030896636 0 0 0 0 40.906826
-0.35725489 -0.076078281 0.039937917 0 0 0 0 40.91177
-0.35519245 -0.073093764 0.048937362 0 0 0 0 40.916714
-0.33742905 -0.092208385 0.021892952 0 0 0 0 40.941456
-0.35540438 -0.095081456 0.031976312 0 0 0 0 40.9464
-0.36336282 -0.095025562 0.041017741 0 0 0 0 40.951344
-0.35429043 -0.090090871 0.048987735 0 0 0 0 40.956295
-0.34053847 -0.1111777 0.022959646 0 0 0 0 40.98103
-0.36152801 -0.11602855 0.033055708 0 0 0 0 40.985973
-0.36947927 -0.11497237 0.042097535 0 0 0 0 40.990925
-0.37442338 -0.11293769 0.051126748 0 0 0 0 40.995869
-0.3677204 -0.13997371 0.024127327 0 0 0 0 41.020603
-0.39471996 -0.14678068 0.035249159 0 0 0 0 41.025555
-0.39364985 -0.14278904 0.044253133 0 0 0 0 41.030499
-0.34948725 -0.12310669 0.048075646 0 0 0 0 41.035442
-0.43805632 -0.19145681 0.028476175 0 0 0 0 41.060177
-0.3878372 -0.16581985 0.035273701 0 0 0 0 41.065128
-0.38777113 -0.16182077 0.043281972 0 0 0 0 41.070072
-0.38769343 -0.15682197 0.052290484 0 0 0 0 41.075024
-0.41614729 -0.20660384 0.028437238 0 0 0 0 41.099758
-0.43513009 -0.2104667 0.038526092 0 0 0 0 41.104702
-0.44608396 -0.21038774 0.048581254 0 0 0 0 41.109653
-0.4429844 -0.20241064 0.057577569 0 0 0 0 41.114597
-0.3972466 -0.22273047 0.028410355 0 0 0 0 41.139332
-0.42526126 -0.23152706 0.039537493 0 0 0 0 41.144276
-0.42718756 -0.22651322 0.04755481 0 0 0 0 41.149227
-0.44013393 -0.22541925 0.057619121 0 0 0 0 41.154171
-0.44451568 -0.27037078 0.041690134 0 0 0 0 41.1964
-0.44843423 -0.26434204 0.04971654 0 0 0 0 41.201351
-0.44130155 -0.25139454 0.05769641 0 0 0 0 41.206295
-8.7862101 -5.7150974 0.44080445 0 0 0 0 41.211246
-9.0071535 -5.6874757 0.64180779 0 0 0 0 41.21619
-9.2171001 -5.6489286 0.82376665 0 0 0 0 41.221134
-8.4407978 -5.7824969 0.43736893 0 0 0 0 41.23103
-8.6387243 -5.7450399 0.6252749 0 0 0 0 41.235981
-8.8788576 -5.7272658 0.79936177 0 0 0 0 41.240925
-9.1248302 -5.6944489 0.98447961 0 0 0 0 41.245869
-8.106369 -5.8468275 0.43297666 0 0 0 0 41.25082
-8.3123636 -5.8133063 0.61191791 0 0 0 0 41.255764
-8.5354853 -5.7876525 0.77493334 0 0 0 0 41.260715
-8.7735014 -5.7538886 0.94801754 0 0 0 0 41.265659
-7.7909169 -5.9080286 0.42966315 0 0 0 0 41.270611
-7.9859152 -5.8695846 0.59855831 0 0 0 0 41.275555
-8.1980209 -5.8360076 0.75152826 0 0 0 0 41.280499
-8.4441538 -5.8121786 0.91464692 0 0 0 0 41.28545
-7.6835785 -6.1246991 0.43822128 0 0 0 0 41.290394
-7.68048 -5.9277186 0.58628535 0 0 0 0 41.295345
-7.9047227 -5.9080472 0.73130631 0 0 0 0 41.300289
-8.1207333 -5.8614364 0.88329929 0 0 0 0 41.305233
-7.751287 -6.4860735 0.45751292 0 0 0 0 41.310184
-7.7360168 -6.2641816 0.60153002 0 0 0 0 41.315128
-7.6967773 -6.0314627 0.71944356 0 0 0 0 41.32008
-7.8183384 -5.9145489 0.85303825 0 0 0 0 41.325024
-7.8372602 -6.8823104 0.47887698 0 0 0 0 41.329967
-7.8098054 -6.6345081 0.61984712 0 0 0 0 41.334919
-7.767416 -6.3798113 0.73375255 0 0 0 0 41.339863
-7.7340732 -6.1310477 0.84669632 0 0 0 0 41.344814
-7.9264226 -7.3025212 0.50124991 0 0 0 0 41.349758
-7.8847275 -7.020824 0.63816601 0 0 0 0 41.35471
-7.8502526 -6.7540674 0.75010973 0 0 0 0 41.359653
-7.8027105 -6.4764085 0.85799813 0 0 0 0 41.364597
-8.0097532 -7.7437735 0.5245924 0 0 0 0 41.369549
-7.9769492 -7.4470096 0.6595521 0 0 0 0 41.374493
-7.9242077 -7.1423883 0.76642472 0 0 0 0 41.379444
-7.8755183 -6.8427362 0.86931378 0 0 0 0 41.384388
-8.1244593 -8.2357893 0.5530622 0 0 0 0 41.389332
-8.0582504 -7.8822742 0.68188834 0 0 0 0 41.394283
-8.0134354 -7.5655923 0.78379935 0 0 0 0 41.399227
-7.9625435 -7.237956 0.88368607 0 0 0 0 41.404179
-8.2323875 -8.7548532 0.58149594 0 0 0 0 41.409122
-8.1659374 -8.3683386 0.70732975 0 0 0 0 41.414074
-8.1018209 -8.0088005 0.80316603 0 0 0 0 41.419018
-8.0326385 -7.6393003 0.89598215 0 0 0 0 41.423962
-8.3012304 -9.2602091 0.60975999 0 0 0 0 41.428913
-8.2688484 -8.8824377 0.73374361 0 0 0 0 41.433857
-8.2054949 -8.489892 0.8255921 0 0 0 0 41.438808
-8.1331301 -8.0934143 0.91240102 0 0 0 0 41.443752
-8.4388819 -9.8740454 0.64530373 0 0 0 0 41.448696
-8.3578577 -9.4076385 0.7610935 0 0 0 0 41.453648
-8.2922707 -8.9821081 0.84794068 0 0 0 0 41.458591
-8.2267466 -8.5625772 0.92978632 0 0 0 0 41.463543
-8.5678091 -10.522944 0.68380082 0 0 0 0 41.468487
-8.4763765 -9.9996138 0.79255897 0 0 0 0 41.473431
-8.4246988 -9.5599775 0.87447238 0 0 0 0 41.478382
-8.3397436 -9.0805922 0.9492467 0 0 0 0 41.483326
-8.5042381 -10.965299 0.70848954 0 0 0 0 41.488277
-8.630558 -10.679318 0.8301627 0 0 0 0 41.493221
-8.5120277 -10.121186 0.89880729 0 0 0 0 41.498173
-8.4308529 -9.6097698 0.96660703 0 0 0 0 41.503117
-8.1681747 -11.06772 0.71104097 0 0 0 0 41.50806
-8.4579744 -10.978498 0.83839834 0 0 0 0 41.513012
-8.6682205 -10.79787 0.93242252 0 0 0 0 41.517956
-8.5393419 -10.187813 0.98703355 0 0 0 0 41.522907
-8.1370287 -11.090812 0.83201128 0 0 0 0 41.532795
-8.414897 -10.989664 0.92332065 0 0 0 0 41.537746
-8.6743956 -10.839652 1.0125616 0 0 0 0 41.54269
-8.1141348 -11.120829 0.90901601 0 0 0 0 41.557537
-8.3968353 -10.992635 0.99035764 0 0 0 0 41.562481
-8.1142054 -11.135665 0.96812856 0 0 0 0 41.582272
-5.5219474 -12.231522 0.78033161 0 0 0 0 42.228535
-5.2045517 -12.285067 0.78585267 0 0 0 0 42.248325
-5.5199656 -12.223426 0.8144123 0 0 0 0 42.253269
-4.9249225 -12.433313 0.79652393 0 0 0 0 42.268108
-5.199482 -12.260002 0.80891967 0 0 0 0 42.27306
-5.5182939 -12.229321 0.80848998 0 0 0 0 42.278004
-4.9330864 -12.431143 0.81164539 0 0 0 0 42.292843
-5.2121415 -12.300782 0.7950533 0 0 0 0 42.297794
-5.5223832 -12.192159 0.77760762 0 0 0 0 42.302738
-4.9589677 -12.493818 0.79083407 0 0 0 0 42.317577
-5.2559581 -12.348296 0.76133657 0 0 0 0 42.322529
-3.7628694 -11.866774 0.76822644 0 0 0 0 42.327473
-3.4693408 -11.904178 0.7728399 0 0 0 0 42.347263
-3.7791812 -11.867553 0.75537449 0 0 0 0 42.352207
-3.178704 -11.928568 0.77746618 0 0 0 0 42.367054
-3.4886422 -11.898936 0.75200117 0 0 0 0 42.371998
-3.7794852 -11.846457 0.70645052 0 0 0 0 42.376942
-4.1148791 -11.858603 0.66010028 0 0 0 0 42.381893
-2.8952603 -11.976909 0.78411567 0 0 0 0 42.386837
-3.1979911 -11.91633 0.7476263 0 0 0 0 42.391788
-3.4992087 -11.904759 0.69611645 0 0 0 0 42.396732
-3.8050177 -11.840144 0.63664562 0 0 0 0 42.401676
-2.61691 -12.037217 0.79278195 0 0 0 0 42.406628
-2.9135842 -11.963683 0.7452684 0 0 0 0 42.411572
-3.2065217 -11.913175 0.68373102 0 0 0 0 42.416523
-3.5309258 -11.915399 0.61833405 0 0 0 0 42.421467
-2.3449578 -12.145484 0.80346084 0 0 0 0 42.426411
-2.6363299 -12.029986 0.74493527 0 0 0 0 42.431362
-2.9211946 -11.96454 0.67236435 0 0 0 0 42.436306
-3.2311282 -11.904876 0.59591621 0 0 0 0 42.441257
-2.0510175 -12.132942 0.80706185 0 0 0 0 42.446201
-2.3642428 -12.116258 0.74561709 0 0 0 0 42.451153
-2.6459222 -12.02383 0.66404009 0 0 0 0 42.456097
-2.954905 -11.964169 0.57758915 0 0 0 0 42.46104
-1.7927927 -12.330116 0.82477307 0 0 0 0 42.465992
-2.0766003 -12.134666 0.74223709 0 0 0 0 42.470936
-2.376945 -12.118078 0.65673184 0 0 0 0 42.475887
-2.6745861 -12.012505 0.56024027 0 0 0 0 42.480831
-1.8194247 -12.331836 0.75095075 0 0 0 0 42.490726
-2.0893774 -12.140491 0.64534795 0 0 0 0 42.49567
-2.408762 -12.11973 0.54494113 0 0 0 0 42.500622
-1.8269283 -12.298707 0.64304405 0 0 0 0 42.515461
-2.124227 -12.141121 0.52556962 0 0 0 0 42.520405
-0.98986906 -13.131951 0.89567876 0 0 0 0 42.525356
-1.8482094 -12.224452 0.5092175 0 0 0 0 42.540195
-1.0186238 -13.12666 0.78886026 0 0 0 0 42.550091
-1.5937096 -12.488617 0.50091487 0 0 0 0 42.559986
-1.0349041 -13.16547 0.65296721 0 0 0 0 42.574825
2.479861 -13.882663 1.0412788 0 0 0 0 42.502193
2.4718847 -13.956604 0.82729554 0 0 0 0 42.526928
3.3889904 -13.56661 1.0508583 0 0 0 0 42.561558
3.6712713 -13.393099 1.0494975 0 0 0 0 42.581348
4.0039735 -13.412044 1.0628247 0 0 0 0 42.601131
4.3290033 -13.391931 1.074196 0 0 0 0 42.620922
3.9983728 -13.416024 0.80383343 0 0 0 0 42.625866
3.6839466 -13.415253 0.53139865 0 0 0 0 42.630817
4.6844468 -13.443098 1.0913886 0 0 0 0 42.640713
4.3263555 -13.395943 0.80618632 0 0 0 0 42.645657
4.0225868 -13.429258 0.52469003 0 0 0 0 42.650608
3.6889141 -13.444309 0.23135002 0 0 0 0 42.655552
5.0576129 -13.528434 1.1124765 0 0 0 0 42.660496
4.6818314 -13.436114 0.81137812 0 0 0 0 42.665447
4.3467383 -13.383147 0.5160659 0 0 0 0 42.670391
3.5971198 -11.991515 0.19222717 0 0 0 0 42.675343
5.4368544 -13.604836 1.1335299 0 0 0 0 42.680286
5.061872 -13.528516 0.82042521 0 0 0 0 42.68523
4.705204 -13.418352 0.51124001 0 0 0 0 42.690182
3.8590684 -11.851857 0.1759436 0 0 0 0 42.695126
5.836966 -13.696434 1.1554676 0 0 0 0 42.700077
5.4401693 -13.589914 0.82748359 0 0 0 0 42.705021
5.091167 -13.512811 0.50925225 0 0 0 0 42.709965
4.4030557 -12.517702 0.16999912 0 0 0 0 42.714916
5.8412642 -13.675527 0.83641344 0 0 0 0 42.724812
5.4734883 -13.56425 0.50428879 0 0 0 0 42.729755
4.53438 -11.987907 0.14847755 0 0 0 0 42.734707
6.2759638 -13.80845 0.84915298 0 0 0 0 42.744595
5.8824306 -13.659938 0.50117135 0 0 0 0 42.749546
4.4656181 -11.010346 0.12309661 0 0 0 0 42.75449
7.0449915 -14.61336 0.90399724 0 0 0 0 42.764385
6.3269787 -13.801955 0.50085306 0 0 0 0 42.769329
4.7546453 -10.980964 0.1106276 0 0 0 0 42.774281
5.891324 -12.105157 0.43552828 0 0 0 0 42.78912
5.2567477 -11.400486 0.10094126 0 0 0 0 42.794064
8.5505953 -15.113984 1.3681545 0 0 0 0 42.799015
7.5925097 -14.730388 0.52209318 0 0 0 0 42.80891
5.8419433 -11.920763 0.089794427 0 0 0 0 42.813854
8.6228819 -15.149716 0.95570719 0 0 0 0 42.82375
8.0145292 -14.698254 0.51391441 0 0 0 0 42.828693
7.5723481 -14.57727 0.088181585 0 0 0 0 42.833645
8.493763 -14.758644 0.51140976 0 0 0 0 42.848484
8.0613031 -14.659738 0.069623455 0 0 0 0 42.853428
9.0225801 -14.866494 0.50962991 0 0 0 0 42.868275
8.5750694 -14.764445 0.052923724 0 0 0 0 42.873219
9.5644455 -14.968479 0.50777602 0 0 0 0 42.888058
9.1128397 -14.866385 0.033093221 0 0 0 0 42.893009
10.135253 -15.076741 0.50576288 0 0 0 0 42.907848
9.7080526 -15.031857 0.01494054 0 0 0 0 42.912792
11.237349 -15.371204 1.0139477 0 0 0 0 42.667027
10.73723 -15.196774 0.50648206 0 0 0 0 42.671978
10.290142 -15.132805 -0.0032798739 0 0 0 0 42.676922
11.793235 -14.8483 1.5112613 0 0 0 0 42.681866
11.530947 -15.03895 1.0024964 0 0 0 0 42.686817
11.367887 -15.325469 0.50620586 0 0 0 0 42.691761
12.424325 -14.952032 1.5509791 0 0 0 0 42.701656
11.923425 -14.842577 1.0005029 0 0 0 0 42.7066
12.030541 -15.453465 0.50475788 0 0 0 0 42.711552
13.17264 -15.150817 1.6010679 0 0 0 0 42.721447
12.601171 -14.974729 1.0219692 0 0 0 0 42.726391
12.446117 -15.239307 0.49264467 0 0 0 0 42.731335
7.7219305 -9.7776785 -0.036950625 0 0 0 0 42.736286
14.108626 -15.513282 1.6711488 0 0 0 0 42.74123
13.541686 -15.373222 1.0620191 0 0 0 0 42.746181
12.883474 -15.053358 0.48440617 0 0 0 0 42.751125
8.1848555 -9.8768797 -0.050361246 0 0 0 0 42.756077
14.459058 -15.210602 1.672368 0 0 0 0 42.761021
14.322218 -15.530332 1.0859326 0 0 0 0 42.765965
13.882553 -15.482386 0.49313787 0 0 0 0 42.770916
6.5106487 -7.4842267 -0.046230044 0 0 0 0 42.77586
14.563534 -14.659755 1.6468995 0 0 0 0 42.780811
14.554824 -15.083617 1.0697855 0 0 0 0 42.785755
9.4836483 -10.090672 0.32291827 0 0 0 0 42.790699
6.8522525 -7.5113516 -0.057001308 0 0 0 0 42.79565
14.799883 -14.248083 1.6357199 0 0 0 0 42.800594
14.650487 -14.513697 1.0463655 0 0 0 0 42.805546
10.029647 -10.189665 0.32406017 0 0 0 0 42.81049
7.3000631 -7.6274285 -0.070344009 0 0 0 0 42.815434
14.934899 -13.756519 1.6150746 0 0 0 0 42.820385
14.93157 -14.132425 1.0339464 0 0 0 0 42.825329
10.690917 -10.372699 0.32758176 0 0 0 0 42.83028
7.7807665 -7.7558131 -0.08286538 0 0 0 0 42.835224
13.043461 -11.487912 1.3822613 0 0 0 0 42.840176
15.029983 -13.595541 1.0114985 0 0 0 0 42.845119
8.4924688 -7.8613086 0.24945156 0 0 0 0 42.850063
8.2567911 -7.8461719 -0.097359985 0 0 0 0 42.855015
13.150827 -11.079081 1.3657464 0 0 0 0 42.859959
13.168585 -11.376183 0.86253887 0 0 0 0 42.86491
8.9340725 -7.8943825 0.24914052 0 0 0 0 42.869854
6.1528382 -5.5735626 -0.074995846 0 0 0 0 42.874798
13.83735 -11.141428 1.4071342 0 0 0 0 42.879749
13.745795 -11.343553 0.87651098 0 0 0 0 42.884693
9.6151371 -8.1046085 0.25354585 0 0 0 0 42.889645
6.5251651 -5.6359863 -0.084945641 0 0 0 0 42.894588
15.16109 -11.668506 1.5111144 0 0 0 0 42.89954
12.197386 -9.6069164 0.75785208 0 0 0 0 42.904484
9.7384014 -7.8318682 0.24493758 0 0 0 0 42.909428
7.0446019 -5.7967372 -0.098684348 0 0 0 0 42.914379
15.256888 -11.211612 1.4916524 0 0 0 0 42.919323
12.409695 -9.3290186 0.75176579 0 0 0 0 42.924274
9.8169699 -7.5247312 0.23456666 0 0 0 0 42.929218
7.3994632 -5.7980318 -0.1095405 0 0 0 0 42.934162
12.913534 -9.0598021 1.2422053 0 0 0 0 42.939114
11.998831 -8.5985308 0.70800894 0 0 0 0 42.944057
9.9113617 -7.2397404 0.22610679 0 0 0 0 42.949009
7.5220108 -5.6112537 -0.11715324 0 0 0 0 42.953953
12.951797 -8.6693573 1.2230378 0 0 0 0 42.958897
11.892819 -8.124774 0.68561596 0 0 0 0 42.963848
9.9481001 -6.9152331 0.21495377 0 0 0 0 42.968792
7.5382533 -5.3485246 -0.12219826 0 0 0 0 42.973743
13.001965 -8.2920227 1.2058048 0 0 0 0 42.978687
11.898096 -7.7360163 0.66862667 0 0 0 0 42.983639
7.4404716 -4.9198022 0.15640733 0 0 0 0 42.988583
7.4918284 -5.050231 -0.12590975 0 0 0 0 42.993526
13.063994 -7.932797 1.1905046 0 0 0 0 42.998478
11.920168 -7.3734121 0.65454316 0 0 0 0 43.003422
9.9875402 -6.275918 0.1958192 0 0 0 0 43.008373
7.4204292 -4.7507119 -0.12849094 0 0 0 0 43.013317
13.12002 -7.5755191 1.175234 0 0 0 0 43.018261
11.958094 -7.0289526 0.64137208 0 0 0 0 43.023212
7.3311725 -4.3720603 0.14005832 0 0 0 0 43.028156
7.3420057 -4.4551268 -0.13103558 0 0 0 0 43.033108
13.198874 -7.2404513 1.162838 0 0 0 0 43.038052
11.977073 -6.6793227 0.6273002 0 0 0 0 43.043003
7.3042598 -4.1299391 0.13323237 0 0 0 0 43.047947
7.3161831 -4.2050157 -0.13386478 0 0 0 0 43.052891
13.230927 -6.8819613 1.1466902 0 0 0 0 43.057842
11.995978 -6.3396926 0.61422563 0 0 0 0 43.062786
7.1996708 -3.8521118 0.12582058 0 0 0 0 43.067738
7.1708927 -3.89782 -0.13405637 0 0 0 0 43.072681
13.255932 -6.5304084 1.1305767 0 0 0 0 43.077625
12.003901 -5.9989638 0.60020828 0 0 0 0 43.082577
7.0740747 -3.5760901 0.11851937 0 0 0 0 43.087521
7.0195322 -3.5995648 -0.13421644 0 0 0 0 43.092472
13.27193 -6.1807747 1.1145092 0 0 0 0 43.097416
9.8234758 -4.6342926 0.48287946 0 0 0 0 43.10236
9.876071 -4.7077341 0.15156445 0 0 0 0 43.107311
6.8690333 -3.3183126 -0.13338329 0 0 0 0 43.112255
13.284908 -5.8341136 1.0974565 0 0 0 0 43.117207
9.7510796 -4.3327956 0.46928796 0 0 0 0 43.12215
9.7470055 -4.3717213 0.14227843 0 0 0 0 43.127102
6.6736288 -3.0276456 -0.13231042 0 0 0 0 43.132046
13.299657 -5.497005 1.0821934 0 0 0 0 43.181042
9.5658712 -3.9956498 0.45117116 0 0 0 0 43.185986
9.6286793 -4.0521903 0.1338065 0 0 0 0 43.190929
5.6931009 -2.4210277 -0.11308944 0 0 0 0 43.195881
13.317565 -5.1633911 1.0671109 0 0 0 0 43.200825
9.1952953 -3.5993993 0.42517778 0 0 0 0 43.205776
9.2821941 -3.6551647 0.12368739 0 0 0 0 43.21072
5.9944105 -2.3808947 -0.12168251 0 0 0 0 43.215664
13.346374 -4.8428793 1.053967 0 0 0 0 43.220615
11.93398 -4.3618035 0.53650463 0 0 0 0 43.225559
8.8936653 -3.2637396 0.11279378 0 0 0 0 43.230511
13.36223 -4.5172486 1.0388926 0 0 0 0 43.240406
11.945611 -4.0641112 0.52645624 0 0 0 0 43.24535
8.6534615 -2.9496715 0.10510273 0 0 0 0 43.250294
13.383026 -4.200665 1.0257893 0 0 0 0 43.260189
11.747803 -3.7004809 0.50753176 0 0 0 0 43.265141
8.4141121 -2.6526034 0.097406328 0 0 0 0 43.270084
13.389859 -3.879952 1.0107608 0 0 0 0 43.27998
11.565807 -3.3589907 0.48952073 0 0 0 0 43.284924
8.1716623 -2.3674986 0.089726955 0 0 0 0 43.289875
13.405618 -3.5703228 0.9986819 0 0 0 0 43.299763
11.360797 -3.0202811 0.47163391 0 0 0 0 43.304714
7.8552461 -2.0796995 0.082444116 0 0 0 0 43.309658
13.405391 -3.2585452 0.98368812 0 0 0 0 43.319553
11.070807 -2.6787744 0.4512018 0 0 0 0 43.324505
7.5875816 -1.8203428 0.075899854 0 0 0 0 43.329449
13.466091 -2.9593358 0.97436762 0 0 0 0 43.339344
10.782685 -2.3532753 0.43176013 0 0 0 0 43.344288
7.3287544 -1.58006 0.070307642 0 0 0 0 43.349239
7.3475895 -1.570208 -0.16580191 0 0 0 0 43.354183
13.507812 -2.6579511 0.96314776 0 0 0 0 43.359127
10.495447 -2.0407746 0.41131485 0 0 0 0 43.364079
7.084805 -1.353907 0.064636625 0 0 0 0 43.369022
7.1546235 -1.3515327 -0.16174589 0 0 0 0 43.373974
13.494576 -2.351054 0.94922149 0 0 0 0 43.378918
10.202073 -1.7452073 0.39290228 0 0 0 0 43.383862
6.8696704 -1.1490157 0.059809987 0 0 0 0 43.388813
5.2652993 -0.86399633 -0.11656658 0 0 0 0 43.393757
13.505303 -2.0503812 0.93716592 0 0 0 0 43.398708
9.9405308 -1.4699286 0.37631902 0 0 0 0 43.403652
6.6424651 -0.95300418 0.056048863 0 0 0 0 43.408604
5.2844777 -0.73726565 -0.11764921 0 0 0 0 43.413548
13.518056 -1.7477273 0.92410022 0 0 0 0 43.418491
9.6938429 -1.2117807 0.36065584 0 0 0 0 43.423443
6.4611139 -0.77341509 0.052041765 0 0 0 0 43.428387
6.2495475 -0.72140771 -0.1428217 0 0 0 0 43.433338
13.553768 -1.4522903 0.91390955 0 0 0 0 43.438282
9.4630604 -0.96477365 0.3449086 0 0 0 0 43.443226
9.4880543 -0.9129777 0.065772951 0 0 0 0 43.448177
5.8913093 -0.53614771 -0.13487454 0 0 0 0 43.453121
13.5625 -1.1546001 0.90186369 0 0 0 0 43.458073
9.1991892 -0.72844779 0.33033946 0 0 0 0 43.463017
5.0932093 -0.34073538 -0.11555946 0 0 0 0 43.472912
13.60126 -0.85619348 0.89165694 0 0 0 0 43.477856
8.9142237 -0.50191355 0.31388515 0 0 0 0 43.482807
5.4611969 -0.2332923 -0.12552018 0 0 0 0 43.492702
13.612041 -0.55552351 0.8796007 0 0 0 0 43.497646
8.6501236 -0.29156727 0.29931879 0 0 0 0 43.50259
8.6054325 -0.22311746 0.050564531 0 0 0 0 43.507542
5.5414267 -0.10314322 -0.12793227 0 0 0 0 43.512486
13.654819 -0.25815734 0.87037134 0 0 0 0 43.517437
8.4039307 -0.092381656 0.28565729 0 0 0 0 43.522381
8.4232998 -0.023538658 0.046559248 0 0 0 0 43.527325
5.5746794 0.028447624 -0.12909208 0 0 0 0 43.532276
17.675287 0.051457699 1.1077108 0 0 0 0 43.53722
8.2076397 0.094338797 0.27372724 0 0 0 0 43.542171
8.235117 0.17010376 0.042587996 0 0 0 0 43.547115
5.5809474 0.16129337 -0.1301064 0 0 0 0 43.552067
17.69595 0.44296563 1.0925945 0 0 0 0 43.557011
7.9962759 0.27220887 0.2628794 0 0 0 0 43.561954
7.9087691 0.34606475 0.039361089 0 0 0 0 43.566906
5.6152472 0.29687268 -0.13127141 0 0 0 0 43.57185
7.6143212 0.51073337 0.0359638 0 0 0 0 43.586689
5.6805921 0.43715563 -0.13360353 0 0 0 0 43.59164
7.3698087 0.66793609 0.03229871 0 0 0 0 43.60648
7.2913642 0.73970801 -0.17626604 0 0 0 0 43.611423
7.1322122 0.8150807 0.029597288 0 0 0 0 43.62627
7.0307789 0.88307244 -0.16984248 0 0 0 0 43.631214
6.9095235 0.95209086 0.026815854 0 0 0 0 43.646053
6.8231816 1.0249389 -0.16470303 0 0 0 0 43.651005
6.6647296 1.072492 0.023190878 0 0 0 0 44.295475
6.6355205 1.154811 -0.16062637 0 0 0 0 44.300419
6.4589896 1.1954724 0.02137793 0 0 0 0 44.315266
6.4087877 1.2740043 -0.15431944 0 0 0 0 44.32021
6.2631721 1.3103586 0.019509103 0 0 0 0 44.335049
6.1368585 1.3736657 -0.14775549 0 0 0 0 44.34
5.8938794 1.4680408 -0.14135483 0 0 0 0 44.359783
5.6929216 1.5639946 -0.13519125 0 0 0 0 44.379574
5.5059094 1.6548127 -0.1301062 0 0 0 0 44.399364
5.3489132 1.7473297 -0.12619056 0 0 0 0 44.419147
5.2109499 1.8426565 -0.12238129 0 0 0 0 44.438938
10.529401 3.9004512 0.51941162 0 0 0 0 44.483463
9.4275637 3.6988556 0.22671787 0 0 0 0 44.488407
9.4815588 3.7541118 0.46038631 0 0 0 0 44.503246
12.879147 5.4327769 0.60911655 0 0 0 0 44.523037
6.9658709 3.2740479 0.0037852668 0 0 0 0 44.532932
6.7707148 3.3510892 -0.16106443 0 0 0 0 44.537876
6.9630575 3.2949431 0.160787 0 0 0 0 44.547771
6.8102093 3.3975472 0.0027003405 0 0 0 0 44.552715
6.953105 3.2989101 0.32382506 0 0 0 0 44.562611
6.778142 3.3977497 0.15286702 0 0 0 0 44.567562
6.782198 3.405575 0.30982572 0 0 0 0 44.582401
7.150353 3.7897685 0.15678836 0 0 0 0 44.587345
7.0922265 3.960393 -0.00082771684 0 0 0 0 44.592297
6.4193616 3.771409 -0.14896475 0 0 0 0 44.59724
7.1383104 3.7847548 0.31883484 0 0 0 0 44.602192
7.1093812 3.9790792 0.15205584 0 0 0 0 44.607136
6.3540049 3.7439647 0.00039110944 0 0 0 0 44.61208
6.3099179 3.9114439 -0.14530562 0 0 0 0 44.617031
7.0248151 3.9278238 0.30751252 0 0 0 0 44.621975
6.310617 3.7222965 0.13362062 0 0 0 0 44.626926
6.3265228 3.7250085 0.27251083 0 0 0 0 44.641766
8.946393 5.5596581 0.17772073 0 0 0 0 44.646709
6.2440195 3.8657703 0.26301464 0 0 0 0 44.661549
5.9604816 3.894757 0.11968178 0 0 0 0 44.6665
7.1556468 4.9232721 -0.0060198032 0 0 0 0 44.671444
5.6057663 4.0575027 -0.12519471 0 0 0 0 44.676395
5.8855691 3.8284278 0.24308571 0 0 0 0 44.681339
5.8185701 3.994149 0.11452607 0 0 0 0 44.686291
5.608501 4.0523658 -0.0022255073 0 0 0 0 44.691235
5.7622528 4.380774 -0.12703164 0 0 0 0 44.696178
5.7213559 3.9030576 0.23105481 0 0 0 0 44.70113
5.6272068 4.051064 0.10865055 0 0 0 0 44.706074
5.7448101 4.3578463 -0.0029501761 0 0 0 0 44.711025
5.5561137 3.974704 0.21903187 0 0 0 0 44.720913
5.7231641 4.3239665 0.10615251 0 0 0 0 44.725864
8.0123396 6.3789296 -0.011704682 0 0 0 0 44.730808
5.7215514 4.290875 0.21913739 0 0 0 0 44.740704
8.0119829 6.3467846 0.13825952 0 0 0 0 44.745655
6.9947138 5.8405123 -0.0099017257 0 0 0 0 44.750599
8.0481958 6.3260188 0.29450667 0 0 0 0 44.517666
7.7201509 6.4134312 0.12942979 0 0 0 0 44.52261
6.4392791 5.6406727 -0.0083792387 0 0 0 0 44.527554
6.3125587 5.8330021 -0.13458854 0 0 0 0 44.532505
7.7679019 6.3937926 0.27611974 0 0 0 0 44.537449
5.3253937 4.632071 0.090764344 0 0 0 0 44.5424
5.0498672 4.6339331 -0.0036357276 0 0 0 0 44.547344
6.8348727 6.624507 -0.14540319 0 0 0 0 44.552296
7.4875059 6.4515767 0.25773504 0 0 0 0 44.55724
5.0844288 4.6314826 0.084151931 0 0 0 0 44.562183
5.1593828 4.9627213 -0.0051838025 0 0 0 0 44.567135
6.5028601 6.6068368 -0.13450062 0 0 0 0 44.572079
5.3227801 4.7939153 0.18180263 0 0 0 0 44.57703
5.0150633 4.7821236 0.079590186 0 0 0 0 44.581974
6.5789056 6.6279254 -0.010956384 0 0 0 0 44.586918
5.6873331 6.0581889 -0.11393758 0 0 0 0 44.591869
4.9372468 4.6498384 0.16399269 0 0 0 0 44.596813
4.9770613 4.9664407 0.07585717 0 0 0 0 44.601765
6.3154402 6.668561 -0.011429139 0 0 0 0 44.606709
6.031539 6.7375302 -0.119753 0 0 0 0 44.61166
4.9102631 4.8380437 0.15619725 0 0 0 0 44.616604
6.3760633 6.6618156 0.089196146 0 0 0 0 44.621548
6.0771222 6.7219424 -0.010040576 0 0 0 0 44.626499
5.784142 6.7800112 -0.11231168 0 0 0 0 44.631443
5.7236495 5.901495 0.17275791 0 0 0 0 44.636395
6.1316423 6.7102656 0.081619799 0 0 0 0 44.641338
5.8326483 6.7613974 -0.010616308 0 0 0 0 44.646282
5.5457315 6.8204064 -0.10391951 0 0 0 0 44.651234
6.2021484 6.6954184 0.17618459 0 0 0 0 44.656178
5.8901758 6.7536931 0.07502868 0 0 0 0 44.661129
5.6013064 6.8127241 -0.010261153 0 0 0 0 44.666073
5.2322249 6.7565928 -0.095115513 0 0 0 0 44.671017
5.9757352 6.7476916 0.16250865 0 0 0 0 44.675968
5.6597357 6.8000135 0.067377776 0 0 0 0 44.680912
5.3738718 6.8550167 -0.0099279415 0 0 0 0 44.685863
5.0970693 6.9169278 -0.089283571 0 0 0 0 44.690807
5.7360873 6.7781119 0.14790745 0 0 0 0 44.695759
5.4453917 6.8541727 0.061638579 0 0 0 0 44.700703
5.1544695 6.9002333 -0.0096371993 0 0 0 0 44.705647
4.8806558 6.9571166 -0.082009122 0 0 0 0 44.710598
5.516613 6.8243284 0.13419653 0 0 0 0 44.715542
5.2208185 6.8864465 0.055956319 0 0 0 0 44.720493
4.9369793 6.9364367 -0.0083568869 0 0 0 0 44.725437
4.6693068 7.0032601 -0.074758895 0 0 0 0 44.730381
5.2980833 6.864542 0.12148187 0 0 0 0 44.735332
4.9982615 6.9207072 0.049266651 0 0 0 0 44.740276
4.7255378 6.9775844 -0.0081069879 0 0 0 0 44.745228
4.4588857 7.0424013 -0.067512803 0 0 0 0 44.750172
5.0805273 6.9027534 0.10776454 0 0 0 0 44.755116
4.7958689 6.9697628 0.043466307 0 0 0 0 44.760067
4.5130339 7.0127511 -0.0078491028 0 0 0 0 44.765011
4.2514286 7.0785184 -0.061281644 0 0 0 0 44.769962
4.8801146 6.9537921 0.094953597 0 0 0 0 44.774906
4.5843301 7.0049224 0.037719131 0 0 0 0 44.779858
4.3106208 7.0558186 -0.0066447933 0 0 0 0 44.784801
4.046978 7.1146111 -0.054064721 0 0 0 0 44.789745
4.6674929 6.9849658 0.082212068 0 0 0 0 44.794697
4.3797703 7.0380154 0.031933505 0 0 0 0 44.799641
4.1142035 7.0988293 -0.0064726239 0 0 0 0 44.804592
3.8475606 7.1536574 -0.046873208 0 0 0 0 44.809536
4.4689827 7.0259972 0.070393592 0 0 0 0 44.81448
4.1853924 7.0880079 0.026096405 0 0 0 0 44.819431
3.9187613 7.1388369 -0.0053038266 0 0 0 0 44.824375
3.6551597 7.1946368 -0.040719379 0 0 0 0 44.829327
4.2714419 7.0640259 0.058571778 0 0 0 0 44.83427
3.9878407 7.1210403 0.021276021 0 0 0 0 44.839222
3.7232459 7.1718512 -0.0041335146 0 0 0 0 44.844166
3.463702 7.2296128 -0.033569794 0 0 0 0 44.84911
4.0738487 7.0970616 0.046752054 0 0 0 0 44.854061
3.7942686 7.1520371 0.016434651 0 0 0 0 44.859005
3.5348277 7.2137976 -0.0029992259 0 0 0 0 44.863956
3.2732933 7.2695842 -0.027421543 0 0 0 0 44.8689
3.8833203 7.1360292 0.034895517 0 0 0 0 44.873844
3.6058359 7.1959867 0.011570183 0 0 0 0 44.878796
3.3453252 7.2477622 -0.0018578286 0 0 0 0 44.883739
3.0817316 7.2945743 -0.020268019 0 0 0 0 44.888691
3.6958311 7.1779714 0.024025101 0 0 0 0 44.893635
3.4213939 7.2389007 0.0066847717 0 0 0 0 44.898579
3.155818 7.2817335 -0.0017131519 0 0 0 0 44.90353
2.9014273 7.3434515 -0.013170699 0 0 0 0 44.908474
3.5072355 7.2099314 0.013161258 0 0 0 0 44.913425
3.2318251 7.2698746 0.0018293151 0 0 0 0 44.918369
2.9713607 7.3196583 -0.00059413374 0 0 0 0 44.923321
2.7108727 7.3694444 -0.0070163901 0 0 0 0 44.928265
3.3247855 7.2558327 0.0012684037 0 0 0 0 44.933208
3.0483701 7.3107905 -0.0020562422 0 0 0 0 44.93816
2.7909365 7.3605452 0.00050485192 0 0 0 0 44.943104
1.5783787 4.6124063 0.0058761947 0 0 0 0 44.948055
3.1443374 7.3007193 -0.0086336145 0 0 0 0 44.952999
2.8637602 7.3377252 -0.0069363229 0 0 0 0 44.957943
2.6033039 7.3825159 0.00064399868 0 0 0 0 44.962894
2.3893771 7.5708175 0.0049931277 0 0 0 0 44.967838
2.959702 7.3286562 -0.019512951 0 0 0 0 44.97279
2.6832261 7.3716226 -0.011835434 0 0 0 0 44.977734
1.5374701 4.6978016 0.0071757273 0 0 0 0 44.982685
2.0127563 6.9417982 0.012060233 0 0 0 0 44.987629
2.7752738 7.3572192 -0.029453762 0 0 0 0 44.744541
1.5583267 4.6089087 -0.00415145 0 0 0 0 44.749485
2.0963326 6.9633422 0.004437502 0 0 0 0 44.754429
1.7757424 6.7097063 0.018254979 0 0 0 0 44.75938
2.595751 7.3960738 -0.040373385 0 0 0 0 44.764324
2.318253 7.4309974 -0.020716524 0 0 0 0 44.769276
1.9028208 6.9033508 0.0045751426 0 0 0 0 44.77422
1.4529542 6.056057 0.022968076 0 0 0 0 44.779171
1.5126623 4.6373501 -0.025846245 0 0 0 0 44.784115
1.9880955 6.9344296 -0.022911655 0 0 0 0 44.789059
1.5627407 6.223886 0.007383253 0 0 0 0 44.79401
1.5061755 7.0035172 0.02997802 0 0 0 0 44.798954
2.0913293 6.9643173 -0.055506643 0 0 0 0 44.803905
1.7495012 6.679915 -0.024566118 0 0 0 0 44.808849
1.5662874 6.9228601 0.0066059181 0 0 0 0 44.813793
1.3522476 7.0891304 0.035936885 0 0 0 0 44.818745
1.9008034 6.9083056 -0.06438148 0 0 0 0 44.823689
1.423287 5.9913158 -0.023837553 0 0 0 0 44.82864
1.4332068 7.0902576 0.0084679145 0 0 0 0 44.833584
1.1769458 7.0449686 0.042983171 0 0 0 0 44.838528
1.5647277 6.2338142 -0.064588882 0 0 0 0 44.843479
1.4973313 7.0215621 -0.033924967 0 0 0 0 44.848423
1.2527621 7.0361528 0.0095419092 0 0 0 0 44.853374
1.0166384 7.0946589 0.04897381 0 0 0 0 44.858318
1.5670223 6.9158049 -0.082364149 0 0 0 0 44.86327
1.3359423 7.0692625 -0.037930764 0 0 0 0 44.868214
1.091265 7.070857 0.010535024 0 0 0 0 44.873158
0.849002 7.1134315 0.05500083 0 0 0 0 44.878109
1.4359881 7.0941911 -0.093508035 0 0 0 0 44.883053
1.1638391 7.0500789 -0.04189172 0 0 0 0 44.888004
0.92566234 7.0956101 0.011552201 0 0 0 0 44.892948
0.68554807 7.1491661 0.061011296 0 0 0 0 44.897892
1.2554865 7.0400968 -0.10143007 0 0 0 0 44.902843
1.0012808 7.0818024 -0.045890123 0 0 0 0 44.907787
0.76218903 7.1323471 0.012563426 0 0 0 0 44.912739
0.51906359 7.1819396 0.067041762 0 0 0 0 44.917683
1.0918598 7.0688338 -0.1114229 0 0 0 0 44.922626
0.79928911 6.7919354 -0.046755217 0 0 0 0 44.927578
0.43889135 5.2296944 0.013897105 0 0 0 0 44.932522
0.35531658 7.2826924 0.074081086 0 0 0 0 44.937473
0.84769356 6.4824033 -0.10913219 0 0 0 0 44.942417
0.4903135 5.1951466 -0.034405343 0 0 0 0 44.947369
0.43266606 7.2448692 0.014622664 0 0 0 0 44.952312
0.18648103 7.2825003 0.080120541 0 0 0 0 44.957256
0.55486321 5.1764584 -0.089782223 0 0 0 0 44.962208
0.37300622 5.2524042 -0.037657809 0 0 0 0 44.967152
0.26616544 7.278657 0.015659617 0 0 0 0 44.972103
0.017516319 7.2703156 0.086159728 0 0 0 0 44.977047
0.4384934 5.2307076 -0.098041199 0 0 0 0 44.981991
0.34289423 7.2868466 -0.06278085 0 0 0 0 44.986942
0.097029567 7.2534752 0.016695833 0 0 0 0 44.991886
-0.15329842 7.3641624 0.09324795 0 0 0 0 44.996838
0.33276162 5.5318623 -0.11128078 0 0 0 0 45.001781
0.17400353 7.2866659 -0.065737486 0 0 0 0 45.006733
-0.072199307 7.312305 0.017763253 0 0 0 0 45.011677
0.26653591 7.2856879 -0.16027716 0 0 0 0 45.021572
0.0040851003 7.284502 -0.069685727 0 0 0 0 45.026516
0.096299976 7.2565279 -0.16823219 0 0 0 0 45.041355
-0.13133937 5.8408813 -0.055316135 0 0 0 0 45.046307
-0.057318207 5.7880983 -0.13776076 0 0 0 0 45.061146
-0.26406693 5.7653203 -0.057508625 0 0 0 0 45.06609
-0.22975723 6.8630466 -0.17433177 0 0 0 0 45.080936
-0.40604702 5.8518748 -0.061589103 0 0 0 0 45.08588
-1.1449269 8.3240118 0.13973089 0 0 0 0 45.095776
-1.0647953 8.3881884 0.025292898 0 0 0 0 45.110615
-4.1032057 8.3024035 0.25186467 0 0 0 0 45.157642
-4.0312347 8.3107252 0.04747308 0 0 0 0 45.172489
-4.3096585 8.2437325 0.25916871 0 0 0 0 45.177433
-3.988848 8.3633747 -0.16772434 0 0 0 0 45.187328
-4.2485499 8.2681789 0.048849363 0 0 0 0 45.192272
-4.490747 8.1277895 0.26530221 0 0 0 0 45.197224
-4.1886516 8.2786369 -0.1704682 0 0 0 0 45.207119
-4.4081788 8.105998 0.049836755 0 0 0 0 45.212063
-4.7689052 8.1859274 0.27609059 0 0 0 0 45.217007
-4.1255202 8.3250666 -0.41579482 0 0 0 0 45.221958
-4.3542032 8.1255245 -0.17244112 0 0 0 0 45.226902
-4.6814866 8.1550875 0.052593358 0 0 0 0 45.231853
-4.8823056 7.9532471 0.2777774 0 0 0 0 45.236797
-4.2803793 8.1448364 -0.41884184 0 0 0 0 45.241741
-4.5992141 8.1153021 -0.17787662 0 0 0 0 45.246693
-4.8390908 7.9958982 0.053575609 0 0 0 0 45.251637
-4.9414301 7.6559687 0.27811149 0 0 0 0 45.256588
-4.5147228 8.1084995 -0.43135074 0 0 0 0 45.261532
-4.8040328 8.0306416 -0.18157952 0 0 0 0 45.266476
-4.8993754 7.6846318 0.053912088 0 0 0 0 45.271427
-4.9994178 7.3726797 0.27744406 0 0 0 0 45.276371
-4.7519946 8.0782042 -0.4428356 0 0 0 0 45.281322
-4.8604155 7.7093306 -0.17827031 0 0 0 0 45.286266
-4.9623718 7.4003987 0.054275125 0 0 0 0 45.291218
-5.0592484 7.1044149 0.27679384 0 0 0 0 45.296162
-4.8065414 7.7408705 -0.4365432 0 0 0 0 45.301105
-4.9254994 7.4171195 -0.17689708 0 0 0 0 45.306057
-5.0153356 7.1200566 0.054578565 0 0 0 0 45.311001
-5.1061015 6.8350081 0.27606416 0 0 0 0 45.315952
-4.8776188 7.4487252 -0.4331331 0 0 0 0 45.320896
-4.9815116 7.1318111 -0.17457655 0 0 0 0 45.32584
-5.0672092 6.8487053 0.054879054 0 0 0 0 45.330791
-5.155724 6.5866351 0.27635923 0 0 0 0 45.335735
-4.93469 7.1574273 -0.42880806 0 0 0 0 45.340687
-5.0334625 6.8534594 -0.17327794 0 0 0 0 45.345631
-5.1159482 6.5903211 0.055165235 0 0 0 0 45.350574
-5.2033181 6.3422408 0.2756438 0 0 0 0 45.355526
-4.9827332 6.869031 -0.42353708 0 0 0 0 45.36047
-5.089138 6.6001525 -0.17094716 0 0 0 0 45.365421
-5.1655407 6.3459492 0.055462096 0 0 0 0 45.370365
-5.2507534 6.1128478 0.27493313 0 0 0 0 45.375317
-5.0464358 6.6138129 -0.42115742 0 0 0 0 45.38026
-5.1318913 6.340703 -0.16869767 0 0 0 0 45.385204
-5.2179971 6.1146121 0.055781767 0 0 0 0 45.390156
