# .PCD v0.7 - Point Cloud Data file format
VERSION 0.7
FIELDS x y z normal_x normal_y normal_z intensity curvature
SIZE 4 4 4 4 4 4 4 4
TYPE F F F F F F F F
COUNT 1 1 1 1 1 1 1 1
WIDTH 949
HEIGHT 1
VIEWPOINT 0 0 0 1 0 0 0
POINTS 949
DATA ascii
3.9336879 3.1623147 -0.32782117 0 0 0 0 72.65155
4.9135084 3.630338 0.1471615 0 0 0 0 72.656502
4.5030546 3.47544 -0.031714436 0 0 0 0 72.661446
3.8734658 3.1208148 -0.16495524 0 0 0 0 72.666397
3.755728 3.1670854 -0.31390971 0 0 0 0 72.671341
4.7559605 3.679863 0.14407967 0 0 0 0 72.676285
4.3687534 3.5342286 -0.03045699 0 0 0 0 72.681236
3.7446425 3.162375 -0.15999483 0 0 0 0 72.68618
3.6042936 3.1891596 -0.30248114 0 0 0 0 72.691132
4.6218047 3.742722 0.14141843 0 0 0 0 72.696075
4.245564 3.5967021 -0.02905038 0 0 0 0 72.701027
3.6372769 3.2193437 -0.15558764 0 0 0 0 72.705971
3.4782996 3.2255671 -0.29359937 0 0 0 0 72.710915
4.4783397 3.7948506 0.13848567 0 0 0 0 72.715866
4.1633825 3.6930637 -0.029704075 0 0 0 0 72.72081
3.9866076 3.7040148 -0.17875145 0 0 0 0 72.725761
3.3594184 3.2657738 -0.28459466 0 0 0 0 72.730705
4.3378463 3.8458974 0.13555299 0 0 0 0 72.735649
4.1985092 3.9021511 -0.031363491 0 0 0 0 72.740601
3.8518543 3.7477508 -0.17378527 0 0 0 0 72.745544
3.2404592 3.303005 -0.27664801 0 0 0 0 72.750496
4.2084999 3.901648 0.13178913 0 0 0 0 72.75544
4.0763631 3.9656219 -0.030927232 0 0 0 0 72.760391
3.7335618 3.8070385 -0.16940415 0 0 0 0 72.765335
3.1523485 3.3684337 -0.27194229 0 0 0 0 72.770279
4.1347103 4.0108118 0.12944505 0 0 0 0 72.77523
3.9489839 4.0212259 -0.029678766 0 0 0 0 72.780174
3.6109564 3.8554516 -0.16526252 0 0 0 0 72.785126
3.0394249 3.4065163 -0.2649368 0 0 0 0 72.79007
4.1382747 4.2007647 0.12920366 0 0 0 0 72.795013
3.8256404 4.0777369 -0.029384399 0 0 0 0 72.799965
3.478034 3.8931439 -0.16039988 0 0 0 0 72.804909
3.3494635 3.9466162 -0.30228934 0 0 0 0 72.80986
4.0419273 4.2905788 0.12633173 0 0 0 0 72.814804
3.6929286 4.1215191 -0.029401232 0 0 0 0 72.819748
3.3832169 3.9678261 -0.15855658 0 0 0 0 72.824699
3.2339602 3.9987972 -0.29602456 0 0 0 0 72.829643
3.9166751 4.3492236 0.12265597 0 0 0 0 72.834595
3.5704153 4.1720123 -0.02921677 0 0 0 0 72.839539
3.4213758 4.2109413 -0.16452894 0 0 0 0 72.84449
3.1214211 4.0498757 -0.28875971 0 0 0 0 72.849434
3.7809975 4.3931699 0.11862331 0 0 0 0 72.854378
3.4520452 4.2273898 -0.02890875 0 0 0 0 72.859329
3.3247387 4.2916813 -0.16257815 0 0 0 0 72.864273
3.0016563 4.0931644 -0.28169599 0 0 0 0 72.869225
3.659718 4.4507079 0.11495453 0 0 0 0 72.874168
3.3335042 4.2767749 -0.028717386 0 0 0 0 72.879112
3.1885955 4.3214769 -0.15788804 0 0 0 0 72.884064
2.8963327 4.1510816 -0.27624837 0 0 0 0 72.889008
3.5373831 4.506279 0.11124054 0 0 0 0 72.893959
3.2586946 4.3849702 -0.030081999 0 0 0 0 72.898903
3.0751779 4.3756633 -0.15456714 0 0 0 0 72.903847
2.7899821 4.2080307 -0.27082631 0 0 0 0 72.908798
3.4066212 4.5470939 0.10718212 0 0 0 0 72.913742
3.2456493 4.5874596 -0.032187611 0 0 0 0 72.918694
2.9586477 4.4259424 -0.15134346 0 0 0 0 72.923637
2.792779 4.4381943 -0.27828899 0 0 0 0 72.928589
3.2872591 4.6015859 0.10346852 0 0 0 0 72.933533
3.1408732 4.6624994 -0.033400748 0 0 0 0 72.938477
2.8399467 4.4702859 -0.14824978 0 0 0 0 72.943428
2.7036085 4.5347376 -0.27597827 0 0 0 0 72.948372
3.1656978 4.6491437 0.099605478 0 0 0 0 72.953323
3.0182924 4.710032 -0.034270838 0 0 0 0 72.958267
2.7295103 4.5234151 -0.14592791 0 0 0 0 72.963211
2.5911171 4.5868516 -0.26968962 0 0 0 0 72.968163
3.0462592 4.700664 0.094833896 0 0 0 0 72.973106
2.9040847 4.770328 -0.034834716 0 0 0 0 72.978058
2.630806 4.6012521 -0.14504516 0 0 0 0 72.983002
2.4701045 4.621192 -0.26280481 0 0 0 0 72.987953
2.9329855 4.7579904 0.091218725 0 0 0 0 72.992897
2.7783279 4.8119388 -0.034841545 0 0 0 0 72.997841
2.6062 4.818131 -0.14894712 0 0 0 0 73.002792
2.3608885 4.6822586 -0.25831994 0 0 0 0 73.007736
2.6618714 4.8633251 -0.03659365 0 0 0 0 73.017632
2.5217235 4.9376087 -0.14915457 0 0 0 0 73.022575
2.243057 4.7225347 -0.252298 0 0 0 0 73.027527
2.5457699 4.9091511 -0.034421891 0 0 0 0 73.782425
2.4078026 4.9884329 -0.14386103 0 0 0 0 73.787369
2.1328895 4.7693772 -0.24417377 0 0 0 0 73.79232
2.4272201 4.9566498 -0.035262968 0 0 0 0 73.802216
2.2840288 5.0290279 -0.1418753 0 0 0 0 73.807159
2.0678785 4.9354072 -0.24629124 0 0 0 0 73.812103
2.3118472 5.0100589 -0.035964333 0 0 0 0 73.821999
2.1698415 5.0893474 -0.13943076 0 0 0 0 73.82695
2.0132749 5.1482034 -0.25040767 0 0 0 0 73.831894
3.5656841 7.643435 0.080205701 0 0 0 0 73.836838
2.2180793 5.1169033 -0.03845406 0 0 0 0 73.841789
2.0470402 5.1289196 -0.13745824 0 0 0 0 73.846733
1.8938352 5.200623 -0.2451563 0 0 0 0 73.851685
3.3794858 7.7010493 0.073102258 0 0 0 0 73.856628
1.9253578 5.1724634 -0.13539921 0 0 0 0 73.866524
1.7733386 5.2510772 -0.23995137 0 0 0 0 73.871468
3.1856434 7.7368913 0.06551268 0 0 0 0 73.876419
1.8047942 5.2199788 -0.13325359 0 0 0 0 73.886314
1.6540271 5.3075209 -0.23561947 0 0 0 0 73.891258
3.0154293 7.8270907 0.057168525 0 0 0 0 73.896202
2.7939506 7.9817224 -0.093387097 0 0 0 0 73.901154
1.6930765 5.2953019 -0.1334943 0 0 0 0 73.906097
1.5269976 5.3401518 -0.22981411 0 0 0 0 73.911049
2.8420351 7.9113679 0.049684815 0 0 0 0 73.915993
2.6021876 8.0214005 -0.094884619 0 0 0 0 73.920944
1.4078366 5.4015989 -0.22538197 0 0 0 0 73.930832
2.6568213 7.9679956 0.041568186 0 0 0 0 73.935783
2.4237418 8.1047583 -0.098421872 0 0 0 0 73.940727
1.283052 5.4421921 -0.22040312 0 0 0 0 73.950623
2.4637256 7.9948549 0.032804314 0 0 0 0 73.955566
2.231137 8.1494923 -0.1008264 0 0 0 0 73.960518
2.0000551 8.2898645 -0.22372608 0 0 0 0 73.965462
2.2928538 8.096118 0.023675188 0 0 0 0 73.975357
2.0495195 8.2269545 -0.10450342 0 0 0 0 73.980301
1.8091052 8.3574867 -0.22166416 0 0 0 0 73.985252
2.108911 8.161726 0.015745195 0 0 0 0 73.995148
1.8616334 8.2955856 -0.10740075 0 0 0 0 74.000092
1.6213995 8.4330397 -0.22042167 0 0 0 0 74.005043
1.3615012 8.5462542 -0.34306836 0 0 0 0 74.009987
1.9264281 8.2423391 0.0061228774 0 0 0 0 74.014931
1.6640884 8.3084764 -0.11047401 0 0 0 0 74.019882
1.424886 8.4818134 -0.21777417 0 0 0 0 74.024826
1.1704538 8.6448431 -0.33739206 0 0 0 0 74.029778
1.7439179 8.3219595 -0.0035190918 0 0 0 0 74.034721
1.4825871 8.4229994 -0.11541536 0 0 0 0 74.039665
1.2342819 8.5604839 -0.21749128 0 0 0 0 74.044617
0.9752925 8.7395582 -0.33182219 0 0 0 0 74.049561
1.5570196 8.3886919 -0.012448521 0 0 0 0 74.054512
1.2940181 8.5017099 -0.12011827 0 0 0 0 74.059456
1.0391933 8.62325 -0.21555643 0 0 0 0 74.0644
0.77014536 8.7684603 -0.32263073 0 0 0 0 74.069351
1.3693755 8.4634943 -0.023223691 0 0 0 0 74.074295
1.1034452 8.5804663 -0.12383451 0 0 0 0 74.079247
0.84017485 8.688159 -0.21460807 0 0 0 0 74.08419
0.56570929 8.787365 -0.31463388 0 0 0 0 74.089142
1.1790241 8.5483656 -0.032818154 0 0 0 0 74.094086
0.90994972 8.661355 -0.12953009 0 0 0 0 74.09903
0.64275825 8.7730503 -0.21425124 0 0 0 0 74.103981
0.36110592 8.8673544 -0.30842569 0 0 0 0 74.108925
0.98865294 8.6322632 -0.043432143 0 0 0 0 74.113876
0.7101779 8.7333946 -0.13344683 0 0 0 0 74.11882
0.43922821 8.8541288 -0.21401474 0 0 0 0 74.123764
0.15297037 8.8963833 -0.30025613 0 0 0 0 74.128716
0.78954589 8.6914206 -0.054601908 0 0 0 0 74.133659
0.51005381 8.8265162 -0.13994747 0 0 0 0 74.138611
0.23694488 8.9431992 -0.21461022 0 0 0 0 74.143555
-0.055946816 9.0656366 -0.29730466 0 0 0 0 74.148506
0.59042835 8.7836132 -0.066114783 0 0 0 0 74.15345
0.30738422 8.9016752 -0.14482352 0 0 0 0 74.158394
0.026148284 9.0154848 -0.2136014 0 0 0 0 74.163345
-0.26938283 9.1509285 -0.29205525 0 0 0 0 74.168289
0.39040315 8.8788385 -0.077573605 0 0 0 0 74.173241
0.098816089 8.9800377 -0.15067913 0 0 0 0 74.178185
-0.18591754 9.1118603 -0.21412271 0 0 0 0 74.183128
-0.4898501 9.2354174 -0.28587297 0 0 0 0 74.18808
0.18652013 8.945179 -0.089635737 0 0 0 0 74.193024
-0.11205731 9.0815001 -0.15709165 0 0 0 0 74.197975
-0.4042156 9.2004261 -0.21484491 0 0 0 0 74.202919
-0.71221757 9.3229904 -0.28064334 0 0 0 0 74.207863
-0.02445766 9.0417652 -0.10214742 0 0 0 0 74.212814
-0.32540274 9.1670389 -0.16383933 0 0 0 0 74.217758
-0.62477785 9.2800636 -0.21576156 0 0 0 0 74.22271
-0.94419116 9.4238596 -0.27521887 0 0 0 0 74.227654
-0.23772918 9.1284237 -0.11487352 0 0 0 0 74.232605
-0.54689068 9.2478275 -0.17074122 0 0 0 0 74.237549
-0.85167986 9.3819036 -0.21628195 0 0 0 0 74.242493
-1.176519 9.512743 -0.27003583 0 0 0 0 74.247444
-0.45871541 9.1962433 -0.12957291 0 0 0 0 73.975647
-0.77495807 9.3487005 -0.17983596 0 0 0 0 73.980591
-1.0871395 9.4718113 -0.21964847 0 0 0 0 73.985542
-1.4188457 9.6096497 -0.26631275 0 0 0 0 73.990486
-0.68232954 9.3052225 -0.14393291 0 0 0 0 73.99543
-1.0055419 9.4267254 -0.1868583 0 0 0 0 74.000381
-1.3235847 9.5558968 -0.22059201 0 0 0 0 74.005325
-1.664817 9.7109289 -0.26198339 0 0 0 0 74.010277
-0.91138208 9.3993664 -0.1586263 0 0 0 0 74.015221
-1.2386342 9.520875 -0.19557971 0 0 0 0 74.020164
-1.5682094 9.6672802 -0.22305404 0 0 0 0 74.025116
-1.9216102 9.8185186 -0.25660729 0 0 0 0 74.03006
-1.1436969 9.4846134 -0.17351989 0 0 0 0 74.035011
-1.4852729 9.6304379 -0.20409377 0 0 0 0 74.039955
-1.8192204 9.7658367 -0.22481668 0 0 0 0 74.044899
-2.1816359 9.91821 -0.25141135 0 0 0 0 74.04985
-1.3871301 9.5992441 -0.18991172 0 0 0 0 74.054794
-1.7359289 9.73915 -0.21365395 0 0 0 0 74.059746
-2.0809865 9.8727236 -0.22649223 0 0 0 0 74.06469
-2.4522607 10.031248 -0.24702783 0 0 0 0 74.069641
-1.637068 9.697052 -0.20568444 0 0 0 0 74.074585
-1.9909725 9.8349743 -0.22250172 0 0 0 0 74.079529
-2.3486207 9.9838142 -0.22912712 0 0 0 0 74.08448
-2.7356098 10.153675 -0.2425504 0 0 0 0 74.089424
-1.891875 9.7990341 -0.22240992 0 0 0 0 74.094376
-2.2578521 9.936182 -0.23232909 0 0 0 0 74.099319
-2.6241815 10.097168 -0.23277499 0 0 0 0 74.104263
-3.0194669 10.259101 -0.23741414 0 0 0 0 74.109215
-2.1602128 9.9164715 -0.24092729 0 0 0 0 74.114159
-2.5370553 10.059811 -0.24380104 0 0 0 0 74.11911
-2.9099791 10.202814 -0.23565046 0 0 0 0 74.124054
-3.3208971 10.379064 -0.23211719 0 0 0 0 74.128998
-2.4383864 10.039232 -0.26041052 0 0 0 0 74.133949
-2.8233478 10.180638 -0.25438002 0 0 0 0 74.138893
-3.2193813 10.355225 -0.23976843 0 0 0 0 74.143845
-3.6302536 10.501291 -0.22783314 0 0 0 0 74.148788
-2.7217622 10.155153 -0.28006756 0 0 0 0 74.15374
-3.1206768 10.299843 -0.26707211 0 0 0 0 74.158684
-3.5201876 10.460357 -0.24376389 0 0 0 0 74.163628
-3.9582412 10.636086 -0.22343498 0 0 0 0 74.168579
-3.0123987 10.2623 -0.29995236 0 0 0 0 74.173523
-3.427819 10.425352 -0.27971035 0 0 0 0 74.178474
-3.8460495 10.597272 -0.24830991 0 0 0 0 74.183418
-4.298862 10.783273 -0.21888231 0 0 0 0 74.188362
-3.3231974 10.397122 -0.32243395 0 0 0 0 74.193314
-3.7459524 10.551198 -0.29242218 0 0 0 0 74.198257
-4.1818738 10.735497 -0.25290251 0 0 0 0 74.203209
-4.6480179 10.912698 -0.21374537 0 0 0 0 74.208153
-3.6365638 10.513008 -0.34431118 0 0 0 0 74.213104
-4.0835824 10.693681 -0.30694535 0 0 0 0 74.218048
-4.5288372 10.869061 -0.25766939 0 0 0 0 74.222992
-5.0156474 11.059711 -0.20939338 0 0 0 0 74.227943
-3.9796627 10.670882 -0.36956996 0 0 0 0 74.232887
-4.4303451 10.831466 -0.32262915 0 0 0 0 74.237839
-4.8982654 11.020353 -0.26424763 0 0 0 0 74.242783
-5.4038768 11.220353 -0.20492026 0 0 0 0 74.247726
-4.3253589 10.80882 -0.39424467 0 0 0 0 74.252678
-4.8034964 10.990055 -0.33809105 0 0 0 0 74.257622
-5.2825928 11.175103 -0.27086586 0 0 0 0 74.262573
-5.8035421 11.366345 -0.20082302 0 0 0 0 74.267517
-4.6859326 10.950274 -0.42195886 0 0 0 0 74.272461
-5.1829524 11.137883 -0.35581413 0 0 0 0 74.277412
-5.6868253 11.33344 -0.27655801 0 0 0 0 74.282356
-6.2352352 11.545317 -0.19630228 0 0 0 0 74.287308
-5.0767055 11.11867 -0.45035669 0 0 0 0 74.292252
-5.5859389 11.301451 -0.37439558 0 0 0 0 74.297203
-6.1192117 11.519699 -0.28489956 0 0 0 0 74.302147
-6.7003036 11.745325 -0.19260614 0 0 0 0 74.307091
-5.4767823 11.276396 -0.48103595 0 0 0 0 74.312042
-6.0184817 11.479939 -0.39389589 0 0 0 0 74.316986
-6.5707035 11.702544 -0.2934491 0 0 0 0 74.321938
-6.9775147 11.605372 -0.18132202 0 0 0 0 74.326881
-5.9128904 11.466281 -0.5143376 0 0 0 0 74.331825
-6.4660344 11.65791 -0.4145166 0 0 0 0 74.336777
-6.9214516 11.676147 -0.29644004 0 0 0 0 74.341721
-7.122045 11.253275 -0.16730873 0 0 0 0 74.346672
-6.3669767 11.656739 -0.54875946 0 0 0 0 74.351616
-6.8804336 11.740798 -0.43279448 0 0 0 0 74.35656
-7.0709901 11.322343 -0.28950131 0 0 0 0 74.361511
-7.2738662 10.925406 -0.15287207 0 0 0 0 74.366455
-6.8107424 11.790868 -0.58323205 0 0 0 0 74.371407
-7.0226512 11.362891 -0.43228775 0 0 0 0 74.37635
-7.2201138 10.982553 -0.28328708 0 0 0 0 74.381302
-7.2169204 10.321045 -0.13444008 0 0 0 0 74.386246
-6.9667554 11.41852 -0.58971941 0 0 0 0 74.39119
-7.1766639 11.025393 -0.43306747 0 0 0 0 74.396141
-7.1721401 10.378543 -0.2689184 0 0 0 0 74.401085
-7.3511519 10.012717 -0.12249997 0 0 0 0 74.406036
-7.1199884 11.07214 -0.59767503 0 0 0 0 74.41098
-7.1320376 10.40952 -0.42096511 0 0 0 0 74.415924
-7.3093586 10.069428 -0.26301923 0 0 0 0 74.420876
-7.4877939 9.7244701 -0.11018219 0 0 0 0 74.425819
-7.0823126 10.457537 -0.58860266 0 0 0 0 74.430771
-7.2694163 10.093553 -0.42220822 0 0 0 0 74.435715
-7.4376726 9.7570696 -0.25812668 0 0 0 0 74.440666
-7.5807214 9.3929033 -0.09841729 0 0 0 0 74.44561
-7.2193494 10.121329 -0.59744328 0 0 0 0 74.200813
-7.4056292 9.7841959 -0.42445973 0 0 0 0 74.205757
-7.5307875 9.4162683 -0.25364506 0 0 0 0 74.210701
-7.7583542 9.1686115 -0.090186588 0 0 0 0 74.215652
-7.3565202 9.8094606 -0.60456961 0 0 0 0 74.220596
-7.4922638 9.4246235 -0.42316985 0 0 0 0 74.225548
-7.7084212 9.1924715 -0.25131926 0 0 0 0 74.230492
-8.0102253 9.0399599 -0.081509776 0 0 0 0 74.235443
-7.4356084 9.4337416 -0.60754979 0 0 0 0 74.240387
-7.6709666 9.1970015 -0.42793161 0 0 0 0 74.245331
-7.965404 9.0581541 -0.2517961 0 0 0 0 74.250282
-7.6144996 9.1982679 -0.61947304 0 0 0 0 74.260178
-7.9366937 9.0691547 -0.43834725 0 0 0 0 74.265121
-7.8803697 9.0636082 -0.6390292 0 0 0 0 74.279961
-9.7094307 6.5626688 0.0052517308 0 0 0 0 74.45311
-9.8012409 6.3022375 0.012407272 0 0 0 0 74.472893
-0.31560594 -0.14082764 0.055353217 0 0 0 0 75.610924
-0.29649165 -0.14567055 0.019395089 0 0 0 0 75.615875
-0.3464402 -0.20565175 0.041882914 0 0 0 0 75.704918
-15.30676 -10.009472 -1.7320096 0 0 0 0 75.793968
-15.720522 -9.9441242 -0.50857127 0 0 0 0 75.803856
-14.797853 -10.201873 -1.6952358 0 0 0 0 75.813751
-15.050912 -10.187994 -1.0737549 0 0 0 0 75.818703
-15.279532 -10.171806 -0.50305283 0 0 0 0 75.823647
-15.510144 -10.152788 0.078695059 0 0 0 0 75.82859
-14.319816 -10.390246 -1.6626146 0 0 0 0 75.833542
-14.58704 -10.38464 -1.0554169 0 0 0 0 75.838486
-14.803153 -10.354611 -0.49533623 0 0 0 0 75.843437
-15.004088 -10.317222 0.073014349 0 0 0 0 75.848381
-13.86794 -10.58378 -1.6323001 0 0 0 0 75.853325
-14.127893 -10.572151 -1.036926 0 0 0 0 75.858276
-14.347784 -10.537735 -0.48978677 0 0 0 0 75.86322
-14.576079 -10.514251 0.066063881 0 0 0 0 75.868172
-13.446503 -10.791344 -1.6045092 0 0 0 0 75.873116
-13.697885 -10.763749 -1.0197425 0 0 0 0 75.878067
-13.914571 -10.725205 -0.48349628 0 0 0 0 75.883011
-14.144552 -10.694398 0.059489671 0 0 0 0 75.887955
-12.250496 -10.328429 -1.4808915 0 0 0 0 75.892906
-13.248095 -10.92999 -1.0008824 0 0 0 0 75.89785
-13.478769 -10.893744 -0.47779405 0 0 0 0 75.902802
-13.717942 -10.871425 0.053942587 0 0 0 0 75.907745
-12.639965 -11.185246 -1.5547687 0 0 0 0 75.912689
-12.821251 -11.094488 -0.98416167 0 0 0 0 75.917641
-13.046746 -11.055153 -0.47297299 0 0 0 0 75.922585
-13.299985 -11.03717 0.047563091 0 0 0 0 75.927536
-15.63846 -14.516868 -1.9670086 0 0 0 0 75.93248
-12.411489 -11.261445 -0.96862257 0 0 0 0 75.937424
-12.653335 -11.235398 -0.46783745 0 0 0 0 75.942375
-12.886743 -11.193757 0.040337406 0 0 0 0 75.947319
-11.735374 -11.446466 -1.4895246 0 0 0 0 75.952271
-12.010819 -11.431133 -0.95320994 0 0 0 0 75.957214
-12.252204 -11.392848 -0.46417055 0 0 0 0 75.962166
-12.484569 -11.352033 0.033992317 0 0 0 0 75.96711
-11.335612 -11.604396 -1.4622893 0 0 0 0 75.725433
-11.618138 -11.594603 -0.93713713 0 0 0 0 75.730385
-11.850069 -11.544384 -0.4577772 0 0 0 0 75.735329
-12.09664 -11.512886 0.029086452 0 0 0 0 75.74028
-10.977685 -11.796837 -1.4416679 0 0 0 0 75.745224
-11.229902 -11.746807 -0.92345667 0 0 0 0 75.750168
-11.465949 -11.702278 -0.45324817 0 0 0 0 75.755119
-11.70903 -11.657637 0.02191036 0 0 0 0 75.760063
-10.891689 -12.281303 -1.4591597 0 0 0 0 75.765015
-10.854941 -11.907615 -0.91005522 0 0 0 0 75.769958
-11.091628 -11.853836 -0.45066324 0 0 0 0 75.774902
-11.326431 -11.802263 0.015698977 0 0 0 0 75.779854
-11.365549 -13.446307 -1.5560089 0 0 0 0 75.784798
-11.271491 -12.958122 -0.96809083 0 0 0 0 75.789749
-11.136765 -12.468404 -0.46584985 0 0 0 0 75.794693
-10.965103 -11.955244 0.0091529777 0 0 0 0 75.799637
-11.400792 -14.165734 -1.5953147 0 0 0 0 75.804588
-11.726922 -14.13338 -1.0320277 0 0 0 0 75.809532
-11.615609 -13.618477 -0.50343537 0 0 0 0 75.814484
-11.477846 -13.09581 -0.0024850634 0 0 0 0 75.819427
-11.00407 -14.363444 -1.5725334 0 0 0 0 75.824379
-11.308271 -14.303556 -1.0185125 0 0 0 0 75.829323
-11.598185 -14.246962 -0.51946461 0 0 0 0 75.834267
-11.876809 -14.179843 -0.014111602 0 0 0 0 75.839218
-10.591443 -14.531673 -1.5480206 0 0 0 0 75.844162
-10.888141 -14.457808 -1.003656 0 0 0 0 75.849113
-11.185276 -14.410764 -0.51586413 0 0 0 0 75.854057
-11.474867 -14.345055 -0.022627003 0 0 0 0 75.859001
-10.181943 -14.703817 -1.5236132 0 0 0 0 75.863953
-10.45819 -14.585391 -0.98717171 0 0 0 0 75.868896
-10.769817 -14.556652 -0.51187301 0 0 0 0 75.873848
-11.070621 -14.500347 -0.030919533 0 0 0 0 75.878792
-9.7717972 -14.85499 -1.4987663 0 0 0 0 75.883743
-10.084569 -14.788171 -0.97667623 0 0 0 0 75.888687
-10.370717 -14.714025 -0.50924474 0 0 0 0 75.893631
-10.666326 -14.653673 -0.038170651 0 0 0 0 75.898582
-9.4781265 -15.184304 -1.4925059 0 0 0 0 75.903526
-9.7705564 -15.075046 -0.97238195 0 0 0 0 75.908478
-9.9788895 -14.880165 -0.50785416 0 0 0 0 75.913422
-10.272889 -14.802629 -0.047414392 0 0 0 0 75.918365
-9.0796537 -15.3571 -1.4701991 0 0 0 0 75.923317
-9.4113894 -15.292358 -0.96430212 0 0 0 0 75.928261
-9.5855789 -15.03038 -0.50512189 0 0 0 0 75.933212
-9.8848419 -14.963474 -0.054945584 0 0 0 0 75.938156
-8.6795034 -15.507954 -1.4474243 0 0 0 0 75.9431
-9.0092659 -15.446087 -0.9505747 0 0 0 0 75.948051
-9.2131233 -15.207942 -0.50411683 0 0 0 0 75.952995
-9.4984102 -15.112235 -0.064238891 0 0 0 0 75.957947
-8.284543 -15.66466 -1.4248108 0 0 0 0 75.962891
-8.6235275 -15.612279 -0.93923181 0 0 0 0 75.967842
-8.8637772 -15.420805 -0.50402242 0 0 0 0 75.972786
-9.1159582 -15.259903 -0.072539598 0 0 0 0 75.97773
-7.513649 -15.075969 -1.3328235 0 0 0 0 75.982681
-8.1823072 -15.666245 -0.92213225 0 0 0 0 75.987625
-8.4776869 -15.577807 -0.50248766 0 0 0 0 75.992577
-8.7343855 -15.403554 -0.080763645 0 0 0 0 75.99752
-7.1371336 -15.215082 -1.3119774 0 0 0 0 76.002464
-7.4518476 -15.131572 -0.86757511 0 0 0 0 76.007416
-8.0526791 -15.641033 -0.49770525 0 0 0 0 76.01236
-8.354003 -15.553181 -0.089120984 0 0 0 0 76.017311
-6.7658067 -15.360047 -1.2912927 0 0 0 0 76.022255
-7.0887198 -15.285073 -0.85713333 0 0 0 0 76.027199
-7.3819947 -15.201908 -0.47558999 0 0 0 0 76.03215
-7.6843348 -15.120481 -0.093152016 0 0 0 0 76.037094
-6.6484194 -16.119459 -1.3233457 0 0 0 0 76.042046
-6.7210631 -15.421701 -0.84730625 0 0 0 0 76.046989
-7.020422 -15.34316 -0.47490814 0 0 0 0 76.051941
-7.3217564 -15.263576 -0.10150329 0 0 0 0 76.056885
-6.332623 -16.443525 -1.3178239 0 0 0 0 76.061829
-6.659852 -16.313465 -0.8795529 0 0 0 0 76.06678
-6.6588845 -15.48542 -0.47424757 0 0 0 0 76.071724
-6.9662638 -15.409439 -0.11096682 0 0 0 0 76.076675
-5.9372854 -16.587309 -1.2949388 0 0 0 0 76.081619
-6.3080597 -16.541618 -0.87276208 0 0 0 0 76.086563
-6.6270394 -16.450459 -0.50025421 0 0 0 0 76.091515
-6.8632798 -16.144745 -0.12664349 0 0 0 0 76.096458
-5.559032 -16.766497 -1.2769233 0 0 0 0 76.10141
-5.9227862 -16.68985 -0.86205047 0 0 0 0 76.106354
-6.2477098 -16.599274 -0.50060332 0 0 0 0 76.111305
-6.5571475 -16.46117 -0.13804683 0 0 0 0 76.116249
-5.1730804 -16.922953 -1.2573752 0 0 0 0 76.121193
-5.5390759 -16.856047 -0.85172546 0 0 0 0 76.126144
-5.8729191 -16.764982 -0.50033915 0 0 0 0 76.131088
-6.1991744 -16.655148 -0.14850351 0 0 0 0 76.13604
-4.7295175 -16.897406 -1.2225871 0 0 0 0 76.140984
-5.1347733 -16.938902 -0.8385042 0 0 0 0 76.145927
-5.4897323 -16.917961 -0.49974561 0 0 0 0 76.150879
-5.8304958 -16.826466 -0.15840635 0 0 0 0 76.155823
-4.3447509 -17.05983 -1.2041713 0 0 0 0 76.160774
-4.7079754 -16.94149 -0.8214336 0 0 0 0 76.165718
-5.0550685 -16.895536 -0.49409619 0 0 0 0 76.170662
-5.4501657 -16.977135 -0.1687896 0 0 0 0 76.175613
-3.9566863 -17.212385 -1.1845242 0 0 0 0 76.180557
-4.3230276 -17.099762 -0.81093216 0 0 0 0 76.185509
-4.6611171 -16.991861 -0.49223545 0 0 0 0 76.190453
-5.0037804 -16.902781 -0.17596745 0 0 0 0 76.195404
-3.5638583 -17.364691 -1.1629519 0 0 0 0 75.95723
-3.9373958 -17.260633 -0.80059355 0 0 0 0 75.962173
-4.277607 -17.158503 -0.49103367 0 0 0 0 75.967125
-4.6224518 -17.04516 -0.18427709 0 0 0 0 75.972069
-3.1682446 -17.532438 -1.1435626 0 0 0 0 75.977013
-3.5503294 -17.415901 -0.79101288 0 0 0 0 75.981964
-3.8941214 -17.302444 -0.49124765 0 0 0 0 75.986908
-4.242291 -17.20179 -0.19478276 0 0 0 0 75.991859
-2.6635363 -17.015047 -1.0790911 0 0 0 0 75.996803
-3.1576428 -17.583359 -0.78164274 0 0 0 0 76.001747
-3.510222 -17.465393 -0.49285385 0 0 0 0 76.006699
-3.8641572 -17.359348 -0.20632365 0 0 0 0 76.011642
-2.0400918 -15.403031 -0.9459244 0 0 0 0 76.016594
-2.5251312 -16.237686 -0.70196038 0 0 0 0 76.021538
-3.1181839 -17.623629 -0.49329981 0 0 0 0 76.026489
-3.4785347 -17.501146 -0.21747972 0 0 0 0 76.031433
-1.6890396 -15.557362 -0.92957377 0 0 0 0 76.036377
-2.0356531 -15.443356 -0.65181834 0 0 0 0 76.041328
-2.4753573 -16.179573 -0.4444806 0 0 0 0 76.046272
-3.0862978 -17.623156 -0.22817318 0 0 0 0 76.051224
-1.3356203 -15.699774 -0.91295731 0 0 0 0 76.056168
-1.6839539 -15.578542 -0.6430667 0 0 0 0 76.061111
-2.0034158 -15.472246 -0.41927734 0 0 0 0 76.066063
-2.4097648 -15.940367 -0.20911357 0 0 0 0 76.071007
-0.97721535 -15.842373 -0.89530647 0 0 0 0 76.075958
-1.3323441 -15.716716 -0.6353783 0 0 0 0 76.080902
-1.6539223 -15.616164 -0.42072707 0 0 0 0 76.085846
-1.9789391 -15.498416 -0.20974509 0 0 0 0 76.090797
-0.61202812 -15.992176 -0.87875414 0 0 0 0 76.095741
-0.97633177 -15.874043 -0.62805527 0 0 0 0 76.100693
-1.3033091 -15.756127 -0.42208606 0 0 0 0 76.105637
-1.6312937 -15.639116 -0.2191442 0 0 0 0 76.110588
-0.24140474 -15.998226 -0.85416287 0 0 0 0 76.115532
-0.6119858 -16.020638 -0.62044501 0 0 0 0 76.120476
-0.94923085 -15.913214 -0.42377555 0 0 0 0 76.125427
-1.280327 -15.769886 -0.23031135 0 0 0 0 76.130371
0.12829059 -15.872329 -0.82182354 0 0 0 0 76.135323
-0.24017251 -15.861543 -0.599401 0 0 0 0 76.140266
-0.58264172 -16.053719 -0.42402333 0 0 0 0 76.14521
-0.92633909 -15.931788 -0.24110448 0 0 0 0 76.150162
0.51286173 -16.300676 -0.81893164 0 0 0 0 76.155106
0.1257222 -15.829225 -0.58504266 0 0 0 0 76.160057
-0.21058293 -15.76133 -0.41319591 0 0 0 0 76.165001
-0.56282306 -16.076975 -0.2524763 0 0 0 0 76.169945
0.90408468 -16.57831 -0.80784738 0 0 0 0 76.174896
0.49943405 -15.99615 -0.5777806 0 0 0 0 76.17984
0.15355085 -15.884732 -0.41510192 0 0 0 0 76.184792
-0.19021626 -15.770314 -0.25534511 0 0 0 0 76.189735
1.1285645 -14.454629 -0.67488801 0 0 0 0 76.194687
0.80363262 -14.729075 -0.51510084 0 0 0 0 76.199631
0.52379709 -16.036366 -0.41654998 0 0 0 0 76.204575
0.17420392 -15.91855 -0.26676965 0 0 0 0 76.209526
1.5398729 -15.182716 -0.6880455 0 0 0 0 76.21447
1.2027558 -15.527714 -0.53383213 0 0 0 0 76.219421
0.90325099 -16.149286 -0.41711864 0 0 0 0 76.224365
0.54374069 -16.030947 -0.27740607 0 0 0 0 76.229309
1.9566497 -15.7011 -0.68878722 0 0 0 0 76.234261
1.659332 -16.472206 -0.5551824 0 0 0 0 76.239204
1.2876456 -16.296362 -0.4193629 0 0 0 0 76.244156
0.92427731 -16.175686 -0.28963378 0 0 0 0 76.2491
2.0804338 -14.022942 -0.58784813 0 0 0 0 76.254051
1.7819103 -14.324457 -0.46444213 0 0 0 0 76.258995
1.6901528 -16.504034 -0.42273501 0 0 0 0 76.263939
1.310557 -16.328621 -0.30198869 0 0 0 0 76.26889
2.416718 -14.040939 -0.56673288 0 0 0 0 76.273834
2.070781 -14.003768 -0.44161123 0 0 0 0 76.278786
1.8595786 -14.754211 -0.37094176 0 0 0 0 76.28373
1.709607 -16.488968 -0.31440046 0 0 0 0 76.288673
2.7857337 -14.228936 -0.55292225 0 0 0 0 76.293625
2.4163313 -14.079846 -0.43264151 0 0 0 0 76.298569
2.0924177 -13.98748 -0.34720626 0 0 0 0 76.30352
1.8978777 -14.910321 -0.28802934 0 0 0 0 76.308464
3.253248 -14.819977 -0.55479431 0 0 0 0 76.313408
2.8828981 -14.766733 -0.44353047 0 0 0 0 76.318359
2.43051 -14.016129 -0.34630203 0 0 0 0 76.323303
2.1117563 -13.985661 -0.27512684 0 0 0 0 76.328255
3.8665612 -15.868567 -0.57313675 0 0 0 0 76.333199
3.1309121 -14.280787 -0.41553989 0 0 0 0 76.33815
2.9040828 -14.736105 -0.36483738 0 0 0 0 76.343094
2.484844 -14.209237 -0.28903875 0 0 0 0 76.348038
4.0930367 -15.267309 -0.524894 0 0 0 0 76.352989
3.846215 -15.812513 -0.4532291 0 0 0 0 76.357933
3.1635408 -14.303263 -0.3508676 0 0 0 0 76.362885
3.3649428 -16.967157 -0.3661733 0 0 0 0 76.367828
4.3144016 -14.734832 -0.48212057 0 0 0 0 76.372772
4.0782657 -15.22908 -0.42231268 0 0 0 0 76.377724
3.8690131 -15.765592 -0.39119333 0 0 0 0 76.382668
3.186142 -14.299911 -0.30973721 0 0 0 0 76.387619
4.5231624 -14.22197 -0.43984419 0 0 0 0 76.392563
4.3033395 -14.709432 -0.39377558 0 0 0 0 76.397507
4.1037035 -15.196976 -0.37356213 0 0 0 0 76.402458
3.8815508 -15.700793 -0.35486683 0 0 0 0 76.407402
3.3278439 -9.6560612 -0.26433131 0 0 0 0 76.412354
4.5214047 -14.222555 -0.3669692 0 0 0 0 76.417297
4.3235478 -14.655885 -0.35761106 0 0 0 0 76.422249
4.1190691 -15.140997 -0.35039371 0 0 0 0 76.427193
3.8561614 -10.421442 -0.27376249 0 0 0 0 76.56002
3.7516761 -10.905822 -0.25978088 0 0 0 0 76.564964
4.5514073 -14.205581 -0.3430976 0 0 0 0 76.569916
4.3404598 -14.611194 -0.34629753 0 0 0 0 76.57486
4.0760975 -10.291784 -0.25238234 0 0 0 0 76.579811
3.855685 -10.423296 -0.23687127 0 0 0 0 76.584755
3.7768905 -10.891906 -0.24937123 0 0 0 0 76.589699
3.3116591 -10.222178 -0.23188098 0 0 0 0 76.59465
3.885483 -9.1860971 -0.20361046 0 0 0 0 76.599594
4.0723248 -10.27334 -0.22408862 0 0 0 0 76.604546
3.887471 -10.425403 -0.23574424 0 0 0 0 76.609489
3.798475 -10.870469 -0.25783542 0 0 0 0 76.614433
3.9605455 -8.796792 -0.17786418 0 0 0 0 76.619385
3.8957689 -9.2008696 -0.18689844 0 0 0 0 76.624329
4.1015859 -10.262197 -0.23070094 0 0 0 0 76.62928
3.9094093 -10.394807 -0.2520082 0 0 0 0 76.634224
4.2699647 -8.9409466 -0.16654433 0 0 0 0 76.639168
3.9645016 -8.7921906 -0.16878971 0 0 0 0 76.644119
3.8980005 -9.1287241 -0.19842294 0 0 0 0 76.649063
4.1308293 -10.255673 -0.25541484 0 0 0 0 76.654015
4.5622721 -9.0245724 -0.15308033 0 0 0 0 76.658958
4.2863045 -8.9575987 -0.16482428 0 0 0 0 76.66391
4.0228891 -8.8447084 -0.18950528 0 0 0 0 76.668854
3.8546147 -8.9518051 -0.22209194 0 0 0 0 76.673798
4.7835488 -8.9489565 -0.1348052 0 0 0 0 76.678749
4.5769882 -9.0310049 -0.15915887 0 0 0 0 76.683693
4.3347335 -8.9786291 -0.19295512 0 0 0 0 76.688644
4.0645518 -8.8603258 -0.22657654 0 0 0 0 76.693588
5.4971485 -9.7591286 -0.13440998 0 0 0 0 76.698532
4.8551126 -9.0580521 -0.15061057 0 0 0 0 76.703484
4.7877297 -9.3640366 -0.20362148 0 0 0 0 76.708427
4.4865737 -9.21457 -0.24482773 0 0 0 0 76.713379
6.122448 -10.322518 -0.12649612 0 0 0 0 76.718323
5.5247006 -9.7746038 -0.15858884 0 0 0 0 76.723274
4.8368573 -8.944622 -0.19142066 0 0 0 0 76.728218
4.6481495 -9.0065832 -0.2452222 0 0 0 0 76.733162
5.8235807 -9.3242025 -0.091763511 0 0 0 0 76.738113
6.1313171 -10.298167 -0.16098495 0 0 0 0 76.743057
6.0368333 -10.579817 -0.23570593 0 0 0 0 76.748009
4.9315605 -9.0284424 -0.25352502 0 0 0 0 76.752953
6.3703923 -9.7111206 -0.078728497 0 0 0 0 76.757896
5.852541 -9.3304071 -0.13073254 0 0 0 0 76.762848
6.1682034 -10.249034 -0.22573863 0 0 0 0 76.767792
6.0583696 -10.51289 -0.31420985 0 0 0 0 76.772743
6.4942498 -9.4254179 -0.055758782 0 0 0 0 76.777687
6.3853626 -9.687624 -0.12918308 0 0 0 0 76.782631
6.2874703 -9.9218502 -0.21693484 0 0 0 0 76.787582
6.0557952 -9.9577284 -0.3035323 0 0 0 0 76.792526
6.5945148 -9.1269445 -0.033696476 0 0 0 0 76.797478
6.5055661 -9.3926554 -0.11304321 0 0 0 0 76.802422
6.4281859 -9.6443653 -0.20900913 0 0 0 0 76.807373
5.9403534 -9.270009 -0.28791615 0 0 0 0 76.812317
6.7146702 -8.8641167 -0.012227604 0 0 0 0 76.817261
6.6127691 -9.0982351 -0.099010348 0 0 0 0 76.822212
6.5187631 -9.3072948 -0.19920559 0 0 0 0 76.827156
6.4711986 -9.5996828 -0.30880722 0 0 0 0 76.832108
6.8237519 -8.60392 0.0081047444 0 0 0 0 76.837051
6.7281847 -8.8290844 -0.085442528 0 0 0 0 76.841995
6.6587753 -9.0527802 -0.19275944 0 0 0 0 76.846947
6.5964341 -9.3075571 -0.30768296 0 0 0 0 76.851891
6.9269385 -8.3405371 0.028464356 0 0 0 0 76.856842
6.8366122 -8.5597153 -0.071918674 0 0 0 0 76.861786
6.7782416 -8.7836313 -0.18515728 0 0 0 0 76.86673
6.7212343 -9.0294247 -0.3068524 0 0 0 0 76.871681
5.0128136 -5.7586346 0.050242472 0 0 0 0 76.876625
6.9457612 -8.2993746 -0.058574777 0 0 0 0 76.881577
6.8830953 -8.5020399 -0.17639907 0 0 0 0 76.88652
6.8439727 -8.753252 -0.30507308 0 0 0 0 76.891472
5.096858 -5.5965614 0.064328261 0 0 0 0 76.896416
5.0252767 -5.7256651 -0.016992738 0 0 0 0 76.90136
7.0116291 -8.2631741 -0.17035697 0 0 0 0 76.906311
6.9808245 -8.5055399 -0.30378136 0 0 0 0 76.911255
5.1933064 -5.4538703 0.077103011 0 0 0 0 76.916206
5.4159837 -5.8953681 -0.011551928 0 0 0 0 76.92115
5.1587019 -5.7942114 -0.1024413 0 0 0 0 76.926094
5.0136352 -5.8146186 -0.19703525 0 0 0 0 76.931046
5.9759946 -6.0045633 0.095525257 0 0 0 0 76.935989
5.5052662 -5.7273393 -0.0032959287 0 0 0 0 76.940941
7.2274923 -7.7601542 -0.15704116 0 0 0 0 76.945885
6.0217843 -5.7872515 0.10949185 0 0 0 0 76.95578
7.3330851 -7.3004208 -0.0094290255 0 0 0 0 76.960724
5.5541615 -5.6879129 -0.099112652 0 0 0 0 76.965675
7.5027323 -6.9027944 0.13937193 0 0 0 0 76.975571
6.4224424 -6.1071563 0.0087917214 0 0 0 0 76.980515
7.424974 -7.2695847 -0.14311142 0 0 0 0 76.985458
5.5985045 -5.6379943 -0.21074471 0 0 0 0 76.99041
6.1078124 -5.3704605 0.13701582 0 0 0 0 76.995354
5.4556017 -4.9520602 0.024776503 0 0 0 0 77.000305
6.0582342 -5.6590824 -0.098571897 0 0 0 0 77.005249
7.6903009 -6.4684148 0.17406078 0 0 0 0 77.015144
6.1545734 -5.3377647 0.031045064 0 0 0 0 77.020088
5.5009198 -4.9013648 -0.077819698 0 0 0 0 77.02504
6.4777241 -5.2054906 0.16739357 0 0 0 0 77.52356
7.2177973 -5.9880295 0.036388088 0 0 0 0 77.528511
6.2001152 -5.2761102 -0.088393919 0 0 0 0 77.533455
7.8524089 -6.0332437 0.20648602 0 0 0 0 77.54335
7.8389139 -6.2074919 0.04658556 0 0 0 0 77.548294
6.4542575 -5.2433672 -0.087676741 0 0 0 0 77.553246
7.9370298 -5.8242826 0.22265638 0 0 0 0 77.563133
7.9385004 -6.0009046 0.05782105 0 0 0 0 77.568085
5.7445297 -4.5647802 -0.19672319 0 0 0 0 77.57798
8.008832 -5.6098862 0.23784646 0 0 0 0 77.582924
8.0194969 -5.7816939 0.068185382 0 0 0 0 77.587868
5.7103601 -4.3196936 -0.1917101 0 0 0 0 77.597763
5.7364473 -3.8286166 0.19518252 0 0 0 0 77.602715
5.7396955 -3.9411387 0.07175298 0 0 0 0 77.607658
5.7783923 -3.6731746 0.20587876 0 0 0 0 77.622498
7.5913167 -4.9689384 0.086311139 0 0 0 0 77.627449
6.4421029 -4.309217 -0.062629864 0 0 0 0 77.632393
6.2479711 -3.7809613 0.22830169 0 0 0 0 77.642288
5.7915316 -3.6020553 0.086499184 0 0 0 0 77.647232
6.2389092 -3.9687262 -0.052889578 0 0 0 0 77.652184
5.6568699 -3.6790431 -0.17829645 0 0 0 0 77.657127
6.344101 -3.6513345 0.24087769 0 0 0 0 77.662079
7.8007264 -4.6130757 0.1056708 0 0 0 0 77.667023
5.6882563 -3.5120559 -0.17643176 0 0 0 0 77.676918
7.8881068 -4.3119526 0.29792395 0 0 0 0 77.681862
6.378407 -3.5795164 0.10368108 0 0 0 0 77.686813
8.5158424 -4.4150925 0.32971182 0 0 0 0 77.701653
6.447052 -3.4996328 -0.041068099 0 0 0 0 77.711548
8.5901356 -4.2177982 0.34458366 0 0 0 0 77.721443
8.6713343 -4.0237308 0.35944504 0 0 0 0 77.741226
8.7021618 -4.1382275 0.14816381 0 0 0 0 77.746178
8.741745 -3.823292 0.37336227 0 0 0 0 77.761017
6.4430437 -2.9397073 -0.025940474 0 0 0 0 77.770912
8.8297892 -3.6344533 0.38817364 0 0 0 0 77.780807
6.4743733 -2.7747774 -0.022100599 0 0 0 0 77.790695
8.9179592 -3.4416418 0.40407655 0 0 0 0 77.800591
4.5162101 -1.8429019 -0.11254209 0 0 0 0 77.81543
8.9872904 -3.2441759 0.4179337 0 0 0 0 77.820381
6.4755173 -2.4289589 -0.012555518 0 0 0 0 77.830276
4.5497952 -1.7329894 -0.11186964 0 0 0 0 77.83522
9.0714493 -3.0522172 0.43279439 0 0 0 0 77.840172
4.6011801 -1.6296588 -0.11119537 0 0 0 0 77.855011
9.1527443 -2.8561671 0.44772521 0 0 0 0 77.859955
4.6248746 -1.5164255 -0.1105253 0 0 0 0 77.874794
9.181488 -2.6463387 0.45953837 0 0 0 0 77.879745
6.5242481 -1.9427495 0.00045683802 0 0 0 0 77.889641
4.6575346 -1.404485 -0.10980925 0 0 0 0 77.894585
9.2707577 -2.4515526 0.47451407 0 0 0 0 77.899536
4.7050281 -1.2980303 -0.1090913 0 0 0 0 77.914375
9.3480721 -2.2553792 0.48942858 0 0 0 0 77.919319
4.7465677 -1.1903603 -0.1093925 0 0 0 0 77.934158
9.4424067 -2.0587847 0.50549299 0 0 0 0 77.93911
4.7872005 -1.0796831 -0.108633 0 0 0 0 77.953949
9.5387211 -1.8632361 0.52055472 0 0 0 0 77.958893
4.8337684 -0.97120118 -0.10787131 0 0 0 0 77.97374
9.6282082 -1.6624659 0.53567964 0 0 0 0 77.978683
4.8724165 -0.8604393 -0.10812138 0 0 0 0 77.993523
9.708847 -1.455026 0.55015659 0 0 0 0 77.687355
4.9119415 -0.74653172 -0.10784807 0 0 0 0 77.702194
9.7964296 -1.2501773 0.56532836 0 0 0 0 77.707138
4.9586639 -0.63302523 -0.10798844 0 0 0 0 77.721985
9.8921366 -1.0416155 0.58164984 0 0 0 0 77.726929
5.0708952 -0.53382277 0.038115513 0 0 0 0 77.736824
5.0173821 -0.51990932 -0.10803922 0 0 0 0 77.741768
9.9908791 -0.83215475 0.59801966 0 0 0 0 77.746719
5.1225963 -0.4205482 0.041015394 0 0 0 0 77.756607
5.073195 -0.40372166 -0.10704385 0 0 0 0 77.761559
10.059813 -0.61670548 0.61328578 0 0 0 0 77.766502
5.1514344 -0.30255312 0.044837959 0 0 0 0 77.776398
5.1320577 -0.28659055 -0.10800167 0 0 0 0 77.781349
10.134815 -0.39945495 0.62864393 0 0 0 0 77.786293
5.1842489 -0.18566643 0.047670424 0 0 0 0 77.796188
5.1819849 -0.16719186 -0.10797877 0 0 0 0 77.801132
10.301934 -0.17928711 0.64880586 0 0 0 0 77.806084
5.2311239 -0.067237206 0.050650936 0 0 0 0 77.815971
5.2580628 -0.043643437 -0.10765467 0 0 0 0 77.820923
10.362191 0.045461159 0.6632182 0 0 0 0 77.825867
5.2571111 0.054871045 0.05354701 0 0 0 0 77.835762
5.3212566 0.083344877 -0.10835626 0 0 0 0 77.840706
5.3302045 0.17944671 0.056875303 0 0 0 0 77.855553
5.3985114 0.21187443 -0.10890926 0 0 0 0 77.860497
5.3592944 0.30445281 0.059864197 0 0 0 0 77.875336
5.4378719 0.34459278 -0.10767071 0 0 0 0 77.880287
5.4074988 0.43281469 0.064081565 0 0 0 0 77.895126
5.4952989 0.47874415 -0.10725409 0 0 0 0 77.90007
5.4457197 0.56152248 0.067229122 0 0 0 0 77.914917
5.5368032 0.61541349 -0.1069072 0 0 0 0 77.919861
10.888171 1.2495254 0.75489581 0 0 0 0 77.924805
5.5031934 0.69760394 0.070693538 0 0 0 0 77.9347
5.5673099 0.75241828 -0.10563788 0 0 0 0 77.939651
5.5446477 0.83320594 0.074022315 0 0 0 0 77.954491
5.5798631 0.89100838 -0.10447504 0 0 0 0 77.959435
5.5993576 0.97637665 0.077624626 0 0 0 0 77.974281
5.608573 1.0340723 -0.10308281 0 0 0 0 77.979225
11.177736 2.0369854 0.8115716 0 0 0 0 77.984169
5.6561604 1.1224564 0.082310311 0 0 0 0 77.994064
5.6030636 1.1712068 -0.10009028 0 0 0 0 77.999016
5.7191343 1.2733566 0.086153254 0 0 0 0 78.013855
5.6420116 1.3209593 -0.099465109 0 0 0 0 78.018799
5.7903676 1.4319874 0.090233997 0 0 0 0 78.033646
5.6538086 1.4665748 -0.098144308 0 0 0 0 78.038589
10.749117 2.6957269 0.8197251 0 0 0 0 78.043533
5.861671 1.5926145 0.094362259 0 0 0 0 78.053429
5.6586056 1.6123968 -0.095872082 0 0 0 0 78.05838
10.858409 2.9807842 0.83990246 0 0 0 0 78.063324
5.9312396 1.7612988 0.098655678 0 0 0 0 78.073219
5.9142504 1.8392828 -0.10082047 0 0 0 0 78.078163
11.267838 3.3616331 0.88358772 0 0 0 0 78.083115
6.00703 1.9367576 0.10415065 0 0 0 0 78.09301
5.5440373 1.8709822 -0.088035546 0 0 0 0 78.097954
6.071969 2.1165929 0.10865743 0 0 0 0 78.112793
5.5276875 2.0124745 -0.085019723 0 0 0 0 78.117744
5.9172196 2.2175508 0.11168259 0 0 0 0 78.132584
5.7355218 2.2458751 -0.088197246 0 0 0 0 78.137527
11.390395 4.2366676 0.93496203 0 0 0 0 78.142479
5.7693386 2.3142867 0.11467166 0 0 0 0 78.152374
5.62923 2.3602374 -0.083489165 0 0 0 0 78.157318
11.190124 4.4464073 0.93266642 0 0 0 0 77.910896
5.589149 2.3941796 0.11617562 0 0 0 0 77.920792
5.5383296 2.4791644 -0.079421751 0 0 0 0 77.925735
10.842599 4.5839067 0.91897523 0 0 0 0 77.930679
5.4328389 2.4781687 0.11881682 0 0 0 0 77.940575
5.4115081 2.5781558 -0.074217521 0 0 0 0 77.945526
10.518178 4.7246203 0.90753943 0 0 0 0 77.95047
5.2905231 2.5617058 0.12156072 0 0 0 0 77.960365
5.1797605 2.6204467 -0.066083193 0 0 0 0 77.965309
10.418737 4.9567237 0.91389537 0 0 0 0 77.970261
5.1267347 2.6309433 0.12382235 0 0 0 0 77.980156
5.0026813 2.6820097 -0.05909339 0 0 0 0 77.9851
10.084601 5.0748072 0.8998915 0 0 0 0 77.990044
7.2782092 3.8047092 0.40769812 0 0 0 0 77.994995
5.5577483 3.0229313 0.13486804 0 0 0 0 77.999939
4.8273759 2.7365177 -0.052242927 0 0 0 0 78.00489
7.1802359 3.8021023 0.66699135 0 0 0 0 78.009834
7.0570641 3.8929083 0.40493026 0 0 0 0 78.014778
5.4012246 3.0999351 0.13736233 0 0 0 0 78.01973
4.6671367 2.7925615 -0.046238787 0 0 0 0 78.024673
6.964973 3.8852413 0.65815866 0 0 0 0 78.029625
7.5210872 4.3803868 0.43735221 0 0 0 0 78.034569
5.2435412 3.1719794 0.13973971 0 0 0 0 78.03952
4.5241246 2.8550706 -0.040956061 0 0 0 0 78.044464
7.4765368 4.3936601 0.71442837 0 0 0 0 78.049408
7.3113689 4.4812198 0.4349575 0 0 0 0 78.054359
5.0806346 3.2371974 0.14192672 0 0 0 0 78.059303
4.406498 2.9287791 -0.036225867 0 0 0 0 78.064255
7.242198 4.4744244 0.70539761 0 0 0 0 78.069199
5.3468027 3.4332855 0.339441 0 0 0 0 78.074142
5.0945115 3.4156947 0.14700037 0 0 0 0 78.079094
4.2816424 2.9957037 -0.030700715 0 0 0 0 78.084038
8.4911528 5.5167398 0.83025479 0 0 0 0 78.088989
5.2033048 3.5099387 0.33903521 0 0 0 0 78.093933
5.0501804 3.5580633 0.15182289 0 0 0 0 78.098877
4.5977054 3.3867424 -0.034574728 0 0 0 0 78.103828
8.2517395 5.6256475 0.82281113 0 0 0 0 78.108772
5.324913 3.7717991 0.35279948 0 0 0 0 78.113724
4.9085636 3.6315966 0.15436533 0 0 0 0 78.118668
4.4895735 3.4751489 -0.029441638 0 0 0 0 78.123619
8.0099792 5.7236586 0.81411099 0 0 0 0 78.128563
5.1425076 3.8207443 0.3504799 0 0 0 0 78.133507
4.7472763 3.684772 0.15630595 0 0 0 0 78.138458
4.3576751 3.5403297 -0.025005396 0 0 0 0 78.143402
7.7649384 5.8128033 0.80419093 0 0 0 0 78.148354
5.0050154 3.8972101 0.35012186 0 0 0 0 78.153297
4.6033382 3.7483869 0.15861371 0 0 0 0 78.158241
4.2225442 3.5985961 -0.01974549 0 0 0 0 78.163193
7.5441966 5.911118 0.79666692 0 0 0 0 78.168137
4.8540845 3.9601383 0.34836039 0 0 0 0 78.173088
4.4488544 3.7953467 0.16047321 0 0 0 0 78.178032
4.1678071 3.7283189 -0.01527924 0 0 0 0 78.182976
7.3150387 5.9967117 0.78879756 0 0 0 0 78.187927
4.7029514 4.0170541 0.34746632 0 0 0 0 78.192871
4.330297 3.8701413 0.1632296 0 0 0 0 78.197823
4.180254 3.9229479 -0.012853387 0 0 0 0 78.202766
7.0960407 6.0869799 0.78111213 0 0 0 0 78.207718
4.5598893 4.0757318 0.34567547 0 0 0 0 78.212662
4.3553038 4.0822935 0.16914368 0 0 0 0 78.217606
4.0450983 3.9802232 -0.0076121809 0 0 0 0 78.222557
6.8952875 6.1846366 0.77473551 0 0 0 0 78.227501
4.4209161 4.1372585 0.34498015 0 0 0 0 78.232452
4.2637749 4.1881924 0.17380096 0 0 0 0 78.237396
3.9130328 4.04038 -0.0012827381 0 0 0 0 78.24234
6.6882553 6.2735243 0.76711673 0 0 0 0 78.247292
4.311769 4.2237954 0.34607252 0 0 0 0 78.252235
4.1286883 4.2465549 0.17506836 0 0 0 0 78.257187
3.7838116 4.0954671 0.0039587086 0 0 0 0 78.262131
6.4645491 6.34196 0.75891626 0 0 0 0 78.267082
3.9997804 4.3106761 0.17851222 0 0 0 0 78.27697
3.6441076 4.1358981 0.0087950202 0 0 0 0 78.281921
6.2653131 6.4245806 0.75222349 0 0 0 0 78.286865
3.8613646 4.3591299 0.18053648 0 0 0 0 78.296761
3.5293062 4.2035227 0.014427247 0 0 0 0 78.301704
6.0586667 6.4944687 0.74419206 0 0 0 0 78.306656
3.7280126 4.4094224 0.18264179 0 0 0 0 78.316551
3.5041931 4.3813453 0.01819591 0 0 0 0 78.321495
5.866497 6.5788693 0.73759544 0 0 0 0 78.326439
3.6040168 4.4704142 0.18505698 0 0 0 0 78.336334
3.4438777 4.5232725 0.022897558 0 0 0 0 78.341286
5.6750917 6.6562266 0.7318511 0 0 0 0 78.34623
5.4801965 6.7891512 0.48514906 0 0 0 0 78.351181
3.480932 4.5284004 0.18641368 0 0 0 0 78.356125
3.3271267 4.5919914 0.027541365 0 0 0 0 78.361069
5.4909468 6.7413526 0.72633588 0 0 0 0 78.36602
5.2689567 6.8420768 0.48271045 0 0 0 0 78.370964
3.2009165 4.6469989 0.032808803 0 0 0 0 78.380859
5.2977281 6.8064117 0.71882296 0 0 0 0 78.47998
5.0716062 6.904171 0.48110104 0 0 0 0 78.484924
3.0707653 4.6908832 0.03918197 0 0 0 0 78.49482
5.1133561 6.8845448 0.71415329 0 0 0 0 78.499763
4.8965931 6.993916 0.48076373 0 0 0 0 78.504715
2.9454296 4.7418766 0.044368632 0 0 0 0 78.51461
4.930861 6.9586425 0.70840997 0 0 0 0 78.519554
4.7058349 7.0611796 0.47980461 0 0 0 0 78.524498
4.522727 7.2249966 0.26889187 0 0 0 0 78.529449
2.8273623 4.8006577 0.048785351 0 0 0 0 78.534393
4.7514005 7.0336461 0.70271128 0 0 0 0 78.539345
4.5285649 7.1430073 0.47927535 0 0 0 0 78.544289
4.3246174 7.2824221 0.27165836 0 0 0 0 78.549232
2.7091899 4.8564229 0.054135378 0 0 0 0 78.554184
4.5730066 7.11062 0.6970647 0 0 0 0 78.559128
4.3481016 7.2189436 0.47859073 0 0 0 0 78.564079
4.1357923 7.3485265 0.2756913 0 0 0 0 78.569023
4.3943849 7.1806045 0.69126248 0 0 0 0 78.578918
4.1654439 7.2889566 0.4777579 0 0 0 0 78.583862
3.9339645 7.3840795 0.27794525 0 0 0 0 78.588814
4.2127342 7.2496943 0.68541604 0 0 0 0 78.598709
3.9902782 7.3737311 0.47731125 0 0 0 0 78.603653
3.7599652 7.4747338 0.28163874 0 0 0 0 78.608597
4.0373039 7.3255639 0.68076974 0 0 0 0 78.618492
3.8095253 7.4406905 0.47642678 0 0 0 0 78.623444
3.5741439 7.5407553 0.28569382 0 0 0 0 78.628387
3.3494029 7.6877518 0.084078901 0 0 0 0 78.633331
3.8584254 7.3875699 0.67478967 0 0 0 0 78.638283
3.6288071 7.5086546 0.47556463 0 0 0 0 78.643227
3.3955836 7.6145434 0.28997919 0 0 0 0 78.648178
3.1605475 7.7537732 0.093111098 0 0 0 0 78.653122
3.6849327 7.4613848 0.67011398 0 0 0 0 78.658066
3.4501145 7.5775342 0.47573948 0 0 0 0 78.663017
3.2138379 7.6824632 0.29310888 0 0 0 0 78.667961
2.9614553 7.7821503 0.10022887 0 0 0 0 78.672913
3.5083449 7.5323062 0.66534948 0 0 0 0 78.677856
3.2735953 7.6513715 0.47504115 0 0 0 0 78.682808
3.0333159 7.7573271 0.29740214 0 0 0 0 78.687752
2.7887559 7.8826795 0.10915347 0 0 0 0 78.692696
3.3380196 7.6110277 0.66080821 0 0 0 0 78.697647
3.0906866 7.7134213 0.47403058 0 0 0 0 78.702591
2.8569589 7.8370595 0.30183691 0 0 0 0 78.707542
2.6041427 7.9556003 0.11737195 0 0 0 0 78.712486
3.1579182 7.6660943 0.65466464 0 0 0 0 78.71743
2.9162943 7.7911768 0.47443652 0 0 0 0 78.722382
2.673245 7.9060378 0.30597433 0 0 0 0 78.727325
2.4175327 8.0285931 0.12557578 0 0 0 0 78.732277
2.9878528 7.7527971 0.6513024 0 0 0 0 78.737221
2.7377748 7.8650732 0.4747237 0 0 0 0 78.742172
2.4936297 7.9778862 0.31020862 0 0 0 0 78.747116
2.2362516 8.1114159 0.13404034 0 0 0 0 78.75206
2.8090436 7.8168116 0.64636731 0 0 0 0 78.757011
2.5602651 7.9389634 0.47401878 0 0 0 0 78.761955
2.3134463 8.0627632 0.31472641 0 0 0 0 78.766907
2.0494065 8.1774025 0.14308776 0 0 0 0 78.771851
2.6313097 7.8828177 0.64048469 0 0 0 0 78.776794
2.3818407 8.0158453 0.47537327 0 0 0 0 78.781746
2.1309693 8.1387177 0.31902838 0 0 0 0 78.78669
1.8619683 8.2554398 0.15139654 0 0 0 0 78.791641
2.4569893 7.9616756 0.63691485 0 0 0 0 78.796585
2.2000728 8.0818853 0.4744601 0 0 0 0 78.801529
1.9442904 8.2087936 0.32416633 0 0 0 0 78.80648
1.6745571 8.3344584 0.16072764 0 0 0 0 78.811424
2.2816138 8.0385942 0.63229334 0 0 0 0 78.816376
2.0187619 8.1618967 0.47486019 0 0 0 0 78.82132
1.7608843 8.2867908 0.32850611 0 0 0 0 78.826271
1.4817212 8.4006605 0.16973078 0 0 0 0 78.831215
2.1030688 8.1106014 0.62853765 0 0 0 0 78.836159
1.8372215 8.2349195 0.47510386 0 0 0 0 78.84111
1.5723428 8.36094 0.33371907 0 0 0 0 78.846054
1.2912167 8.4767914 0.1789728 0 0 0 0 78.851006
1.9226013 8.1847 0.62381238 0 0 0 0 78.855949
1.6538167 8.3120108 0.47542241 0 0 0 0 78.860893
1.3823819 8.4221601 0.33763373 0 0 0 0 78.865845
1.1000791 8.5639534 0.18845412 0 0 0 0 78.870789
1.7423265 8.2647762 0.6202215 0 0 0 0 78.87574
1.4662179 8.3832445 0.475577 0 0 0 0 78.880684
1.1943741 8.5123081 0.34320566 0 0 0 0 78.885628
0.90268242 8.6433268 0.19771186 0 0 0 0 78.890579
1.5586996 8.3339901 0.61536229 0 0 0 0 78.895523
1.2776467 8.4554939 0.47674644 0 0 0 0 78.900475
0.99857807 8.5787125 0.34818766 0 0 0 0 78.905418
0.70388299 8.7107258 0.20769286 0 0 0 0 78.91037
1.3711352 8.4053173 0.61151797 0 0 0 0 78.915314
1.0870205 8.5258398 0.4768565 0 0 0 0 78.920258
0.80404836 8.6530828 0.3533566 0 0 0 0 78.925209
0.50175035 8.7982483 0.21809292 0 0 0 0 78.930153
1.1815491 8.4757395 0.60663676 0 0 0 0 78.935104
0.89252323 8.6002989 0.47802639 0 0 0 0 78.940048
0.60458994 8.7296247 0.35853335 0 0 0 0 78.944992
0.29915616 8.8717861 0.22817898 0 0 0 0 78.949944
0.99054021 8.5544586 0.60163915 0 0 0 0 78.721352
0.69584936 8.691041 0.47824869 0 0 0 0 78.726303
0.40255734 8.8113718 0.36351308 0 0 0 0 78.731247
0.088036723 8.9526854 0.23706484 0 0 0 0 78.736191
0.79930222 8.6358967 0.59798849 0 0 0 0 78.741142
0.49718937 8.7606363 0.47827703 0 0 0 0 78.746086
0.19792849 8.8830605 0.3685405 0 0 0 0 78.751038
-0.12232967 9.0334616 0.24724792 0 0 0 0 78.755981
0.60187179 8.7115421 0.59415931 0 0 0 0 78.760925
0.29569009 8.8353119 0.47939473 0 0 0 0 78.765877
-0.0089123761 8.9788151 0.37508217 0 0 0 0 78.770821
-0.33853337 9.1194181 0.25849822 0 0 0 0 78.775772
0.40441886 8.7862158 0.58930826 0 0 0 0 78.780716
0.090525471 8.9201174 0.48070657 0 0 0 0 78.78566
-0.22310977 9.0638151 0.38132626 0 0 0 0 78.790611
-0.55703092 9.1964531 0.26953241 0 0 0 0 78.795555
0.2013929 8.8740635 0.58570349 0 0 0 0 78.800507
-0.11656943 9.0069942 0.48204857 0 0 0 0 78.80545
-0.43837032 9.1468554 0.38751832 0 0 0 0 78.810402
-0.78179508 9.2957096 0.28100726 0 0 0 0 78.815346
-0.0046949126 8.9600182 0.58203197 0 0 0 0 78.82029
-0.33188859 9.0871477 0.48317474 0 0 0 0 78.825241
-0.65746105 9.2350321 0.39379281 0 0 0 0 78.830185
-1.0118263 9.3871231 0.29326594 0 0 0 0 78.835136
-0.21600878 9.0391502 0.57816678 0 0 0 0 78.84008
-0.54878259 9.1803427 0.48557708 0 0 0 0 78.845024
-0.88629502 9.3314953 0.40217191 0 0 0 0 78.849976
-1.2450186 9.4736462 0.30539042 0 0 0 0 78.854919
-0.43078873 9.134409 0.57463056 0 0 0 0 78.859871
-0.77305865 9.2618065 0.48665908 0 0 0 0 78.864815
-1.1148055 9.4069939 0.40808865 0 0 0 0 78.869766
-1.489581 9.5795374 0.3188515 0 0 0 0 78.87471
-0.64835912 9.20576 0.57054174 0 0 0 0 78.879654
-1.0007094 9.3623734 0.48913717 0 0 0 0 78.884605
-1.3534631 9.5087996 0.41650599 0 0 0 0 78.889549
-1.73467 9.6694489 0.33195421 0 0 0 0 78.894501
-0.87529254 9.2964334 0.56680465 0 0 0 0 78.899445
-1.233876 9.4471483 0.4902198 0 0 0 0 78.904388
-1.5964053 9.6017742 0.42369232 0 0 0 0 78.90934
-1.9921613 9.7777624 0.34636378 0 0 0 0 78.914284
-1.1068228 9.399272 0.56329989 0 0 0 0 78.919235
-1.4765539 9.5472059 0.49356422 0 0 0 0 78.924179
-1.846951 9.7069902 0.43208826 0 0 0 0 78.929123
-2.2564464 9.892312 0.36085635 0 0 0 0 78.934074
-1.3447443 9.4903259 0.5594815 0 0 0 0 78.939018
-1.7214515 9.6403656 0.49573717 0 0 0 0 78.94397
-2.107496 9.8125248 0.44140989 0 0 0 0 78.948914
-2.5270312 9.9980545 0.3761023 0 0 0 0 78.953865
-1.5891701 9.5965853 0.55694771 0 0 0 0 78.958809
-1.9780079 9.7439241 0.49804544 0 0 0 0 78.963753
-2.3729937 9.9192543 0.44971734 0 0 0 0 78.968704
-2.8094487 10.109178 0.39237112 0 0 0 0 78.973648
-1.8398131 9.6960812 0.5532127 0 0 0 0 78.9786
-2.2404997 9.8496666 0.50135404 0 0 0 0 78.983543
-2.6531312 10.037439 0.4601599 0 0 0 0 78.988487
-3.0977602 10.223506 0.40866292 0 0 0 0 78.993439
-2.1020813 9.8069754 0.54963571 0 0 0 0 78.998383
-2.5165901 9.9678507 0.50582808 0 0 0 0 79.003334
