# .PCD v0.7 - Point Cloud Data file format
VERSION 0.7
FIELDS x y z normal_x normal_y normal_z intensity curvature
SIZE 4 4 4 4 4 4 4 4
TYPE F F F F F F F F
COUNT 1 1 1 1 1 1 1 1
WIDTH 935
HEIGHT 1
VIEWPOINT 0 0 0 1 0 0 0
POINTS 935
DATA ascii
-2.6638894 7.8199906 0.033498362 0 0 0 0 9.5838642
-2.9210713 7.7506723 0.1974165 0 0 0 0 9.58881
-2.4996946 8.5132742 -0.3335281 0 0 0 0 9.5937576
-2.5942931 7.8260875 -0.13254088 0 0 0 0 9.5987053
-2.8525145 7.7737746 0.036351655 0 0 0 0 9.603651
-3.1228633 7.745388 0.20736389 0 0 0 0 9.6085987
-2.5233576 7.8891492 -0.3187322 0 0 0 0 9.6135454
-2.7850282 7.7858472 -0.13467206 0 0 0 0 9.6184931
-3.0574191 7.7704554 0.039338149 0 0 0 0 9.6234398
-3.3844554 7.8677235 0.2198808 0 0 0 0 9.6283865
-2.6998029 7.7979956 -0.32395425 0 0 0 0 9.6333332
-3.0052316 7.8154168 -0.13754095 0 0 0 0 9.6382809
-3.3130538 7.8818126 0.043791983 0 0 0 0 9.6432276
-3.5678527 7.7995601 0.22869746 0 0 0 0 9.6481743
-2.8079479 7.5222988 -0.32274473 0 0 0 0 9.6531219
-3.2335122 7.856936 -0.1403247 0 0 0 0 9.6580687
-3.4995165 7.8106165 0.046658698 0 0 0 0 9.6630154
-3.787708 7.8041654 0.23887095 0 0 0 0 9.667963
-3.1474683 7.8620558 -0.34560576 0 0 0 0 9.6729097
-3.4332347 7.8126421 -0.1433292 0 0 0 0 9.6778564
-3.7204635 7.8162022 0.050844159 0 0 0 0 9.6828041
-4.0236645 7.8266706 0.25023204 0 0 0 0 9.6877508
-3.3574166 7.8416853 -0.35351849 0 0 0 0 9.6926975
-3.6613517 7.8291664 -0.14606683 0 0 0 0 9.6976442
-3.956506 7.8366928 0.055209309 0 0 0 0 9.7025919
-4.2545238 7.8342118 0.26154894 0 0 0 0 9.7075386
-3.5815222 7.8412213 -0.36327672 0 0 0 0 9.7124853
-3.8944547 7.8436618 -0.14873232 0 0 0 0 9.717433
-4.1904788 7.8441968 0.058569435 0 0 0 0 9.7223797
-4.5155993 7.877562 0.27421594 0 0 0 0 9.7273264
-3.8187835 7.8626733 -0.37389982 0 0 0 0 9.7322741
-4.1305065 7.8481379 -0.15233704 0 0 0 0 9.7372208
-4.4466295 7.8815627 0.063176893 0 0 0 0 9.7421675
-4.7351947 7.8421783 0.2844587 0 0 0 0 9.7471151
-4.0599871 7.8730989 -0.38544556 0 0 0 0 9.7520618
-4.3999052 7.9064021 -0.15558824 0 0 0 0 9.7570086
-4.6612139 7.829196 0.066384442 0 0 0 0 9.7619553
-4.3416429 7.9492636 -0.39856309 0 0 0 0 9.7718496
-4.6135149 7.8470316 -0.15738045 0 0 0 0 9.7767963
-4.5522847 7.8818998 -0.40638143 0 0 0 0 9.7916374
-6.0603404 8.6458311 0.35669047 0 0 0 0 9.8064785
-6.0082469 8.664609 0.090847231 0 0 0 0 9.8213196
-5.9743671 8.6972494 -0.18376532 0 0 0 0 9.8361607
-5.9047842 8.7180634 -0.48486701 0 0 0 0 9.8510017
-7.8309641 8.8382654 0.4431158 0 0 0 0 9.6692562
-7.7684817 8.8229923 0.12117656 0 0 0 0 9.6840973
-7.7210646 8.8076096 -0.2055438 0 0 0 0 9.6989384
-7.6602573 8.8152447 -0.5645135 0 0 0 0 9.7137794
-9.1199055 8.2011995 0.49896836 0 0 0 0 9.7681971
-9.1190748 8.21346 0.14384471 0 0 0 0 9.7830381
-9.3627214 8.0456896 0.50976944 0 0 0 0 9.7879848
-8.8157825 8.359807 -0.60597742 0 0 0 0 9.7929316
-9.0699272 8.1660194 -0.21683973 0 0 0 0 9.7978783
-9.3679533 8.0548992 0.14873753 0 0 0 0 9.8028259
-9.7290745 7.983397 0.5261336 0 0 0 0 9.8077726
-9.02349 8.1554928 -0.61057246 0 0 0 0 9.8127193
-9.3741837 8.0490875 -0.21924634 0 0 0 0 9.817667
-9.660037 7.9260621 0.15317923 0 0 0 0 9.8226137
-9.730752 7.6244206 0.52291089 0 0 0 0 9.8275604
-9.4566336 8.1376934 -0.62935239 0 0 0 0 9.8325081
-9.5858459 7.8457608 -0.21979593 0 0 0 0 9.8374548
-9.6726828 7.5670199 0.15211497 0 0 0 0 9.8424015
-9.7556057 7.2942977 0.52095467 0 0 0 0 9.8473482
-9.5133038 7.7953792 -0.62481809 0 0 0 0 9.8522959
-9.6125088 7.4986372 -0.21668518 0 0 0 0 9.8572426
-9.6944599 7.2299213 0.15213038 0 0 0 0 9.8621893
-9.7684717 6.9632502 0.51782596 0 0 0 0 9.867137
-9.5308113 7.4333239 -0.61780465 0 0 0 0 9.8720837
-9.6221256 7.1436243 -0.21380369 0 0 0 0 9.8770304
-9.7112789 6.9008579 0.15305436 0 0 0 0 9.881978
-9.7854424 6.6501789 0.51571369 0 0 0 0 9.8869247
-9.5513926 7.0822496 -0.61077392 0 0 0 0 9.8918715
-9.6378803 6.8095717 -0.21088342 0 0 0 0 9.8968191
-9.7271614 6.5767961 0.15195155 0 0 0 0 9.9017658
-9.8074732 6.3460755 0.51365209 0 0 0 0 9.9067125
-9.576107 6.7491465 -0.60472673 0 0 0 0 9.9116592
-9.6657429 6.4894404 -0.20882276 0 0 0 0 9.9166069
-9.7431183 6.2657366 0.15181862 0 0 0 0 9.9215536
-9.8345728 6.05194 0.51163888 0 0 0 0 9.9265003
-9.5958519 6.4220781 -0.59776646 0 0 0 0 9.931448
-9.6765957 6.171422 -0.20501283 0 0 0 0 9.9363947
-9.7671413 5.9646254 0.15177716 0 0 0 0 9.9413414
-9.8627243 5.7678003 0.51061624 0 0 0 0 9.9462891
-9.6096334 6.0980463 -0.59190053 0 0 0 0 9.9512358
-9.6995811 5.8693223 -0.2030668 0 0 0 0 9.9561825
-0.39540005 0.20956372 -0.013619556 0 0 0 0 9.9809179
-0.41619149 0.21146338 0.0016789517 0 0 0 0 9.9858646
-0.35162562 0.19179162 -0.038202289 0 0 0 0 9.9908113
-0.37447268 0.1956716 -0.025879147 0 0 0 0 9.995759
-0.39322111 0.18657802 -0.013572189 0 0 0 0 10.020494
-0.42404377 0.19341378 0.0018582304 0 0 0 0 10.02544
-0.34141386 0.165859 -0.037262227 0 0 0 0 10.030388
-0.37831873 0.17664728 -0.025754213 0 0 0 0 10.035335
-0.40809193 0.17148356 -0.013299129 0 0 0 0 10.06007
-0.44993919 0.18224931 0.0022792565 0 0 0 0 10.065017
-0.37036902 0.15967004 -0.038807414 0 0 0 0 10.069963
-0.39419571 0.16254635 -0.025468897 0 0 0 0 10.074911
-0.46406057 0.17212774 -0.012475902 0 0 0 0 10.099646
-0.46178532 0.16317479 0.0025165258 0 0 0 0 10.104592
-0.39127254 0.14753509 -0.039455183 0 0 0 0 10.10954
-0.45319235 0.16316706 -0.026602821 0 0 0 0 10.114487
-0.44987574 0.14421798 -0.012609377 0 0 0 0 10.108975
-0.45261922 0.13823307 0.0024479548 0 0 0 0 10.113923
-0.43124402 0.14027627 -0.040862828 0 0 0 0 10.11887
-0.43398756 0.13429134 -0.025805471 0 0 0 0 10.123816
-0.41464487 0.11244286 -0.013014578 0 0 0 0 10.148552
-0.40841195 0.1055106 -8.3171974e-05 0 0 0 0 10.153499
-0.40199625 0.11046728 -0.03918653 0 0 0 0 10.158445
-0.40375456 0.10448637 -0.025143337 0 0 0 0 10.163393
-0.38745198 0.086616039 -0.013317635 0 0 0 0 10.188128
-0.37924027 0.08069405 -0.0014165905 0 0 0 0 10.193074
-0.38077378 0.084606774 -0.037404034 0 0 0 0 10.198022
-0.37855354 0.079648912 -0.024419829 0 0 0 0 10.202969
-0.37030447 0.065722898 -0.014488287 0 0 0 0 10.227704
-0.35709375 0.059832431 -0.0026581234 0 0 0 0 10.232651
-0.36559719 0.063705437 -0.036546275 0 0 0 0 10.237597
-0.36439776 0.059738867 -0.024549857 0 0 0 0 10.242545
-0.35815531 0.046799954 -0.014591828 0 0 0 0 10.26728
-0.35898283 0.04481839 -0.0035712058 0 0 0 0 10.272226
-0.34442821 0.043841671 -0.035775337 0 0 0 0 10.277174
-0.36525968 0.04273361 -0.024473106 0 0 0 0 10.282121
-0.3440195 0.029889334 -0.014727657 0 0 0 0 10.306855
-0.36085173 0.028806653 -0.0034824449 0 0 0 0 10.311803
-0.35229576 0.027792029 -0.035601281 0 0 0 0 10.31675
-0.36412224 0.025740989 -0.024424864 0 0 0 0 10.321696
-0.34589481 0.014877477 -0.014640879 0 0 0 0 10.346432
-0.35872778 0.013820153 -0.0034526356 0 0 0 0 10.351378
-0.34916493 0.011811886 -0.035583302 0 0 0 0 10.356326
-0.35999182 0.009767225 -0.024421286 0 0 0 0 10.361273
-0.34477082 -0.00011545735 -0.014596698 0 0 0 0 10.386007
-0.36160356 -0.0011978617 -0.0033522137 0 0 0 0 10.390955
-0.34802648 -0.0031787034 -0.034539316 0 0 0 0 10.395902
-0.36486068 -0.0062632412 -0.024290552 0 0 0 0 10.400848
-0.34565324 -0.014121006 -0.014526505 0 0 0 0 10.425584
-0.36149412 -0.01619919 -0.0042942576 0 0 0 0 10.430531
-0.35288912 -0.02020919 -0.034406397 0 0 0 0 10.435477
-0.36473054 -0.022262203 -0.024230668 0 0 0 0 10.440425
-0.35352251 -0.0301704 -0.014353571 0 0 0 0 10.465159
-0.35637152 -0.031166933 -0.0043069571 0 0 0 0 10.470107
-0.35676637 -0.037235521 -0.035287801 0 0 0 0 10.475054
-0.36259463 -0.039248608 -0.024196941 0 0 0 0 10.48
-0.35738632 -0.047194552 -0.014235244 0 0 0 0 10.504736
-0.3602356 -0.048191093 -0.0041887132 0 0 0 0 10.509683
-0.35462281 -0.053219795 -0.03425622 0 0 0 0 10.514629
-0.3624652 -0.055247597 -0.024137268 0 0 0 0 10.519577
-0.35725728 -0.063193642 -0.014175534 0 0 0 0 10.544312
-0.3651062 -0.064221442 -0.0040588463 0 0 0 0 10.549258
-0.36648095 -0.073295936 -0.035019387 0 0 0 0 10.554206
-0.36632308 -0.073271535 -0.024017315 0 0 0 0 10.559153
-0.35670763 -0.07918445 -0.013733144 0 0 0 0 11.175435
-0.36755368 -0.081229739 -0.0035759395 0 0 0 0 11.180382
-0.36990744 -0.092308037 -0.034519706 0 0 0 0 11.185328
-0.3727468 -0.09330257 -0.023474419 0 0 0 0 11.190275
-0.37054989 -0.1002684 -0.013472605 0 0 0 0 11.215011
-0.37342298 -0.10026725 -0.0044292361 0 0 0 0 11.219957
-0.39373156 -0.11845441 -0.035112314 0 0 0 0 11.224905
-0.40156457 -0.12047922 -0.023996675 0 0 0 0 11.229852
-0.37340605 -0.11928548 -0.013367333 0 0 0 0 11.254586
-0.38426626 -0.12133273 -0.0042105657 0 0 0 0 11.259534
-0.36361861 -0.12826729 -0.033477362 0 0 0 0 11.264481
-0.37147161 -0.12929423 -0.02336378 0 0 0 0 11.269427
-0.40618032 -0.1514836 -0.012826101 0 0 0 0 11.294163
-0.41403353 -0.15251048 -0.0027127655 0 0 0 0 11.299109
-0.42835253 -0.17566693 -0.036468331 0 0 0 0 11.304057
-0.44215965 -0.17972569 -0.02426728 0 0 0 0 11.309004
-0.47185609 -0.20188193 -0.012799719 0 0 0 0 11.333738
-0.45477155 -0.19075596 -0.0020521225 0 0 0 0 11.338686
-0.42681617 -0.20460898 -0.013383391 0 0 0 0 11.373315
-0.45559955 -0.21475992 -0.0019664133 0 0 0 0 11.378262
-0.37613538 -0.19634417 -0.034085829 0 0 0 0 11.383208
-0.39196405 -0.20141907 -0.023855824 0 0 0 0 11.388156
-0.41667575 -0.22354715 -0.013456941 0 0 0 0 11.41289
-0.43350458 -0.22862791 -0.0032137327 0 0 0 0 11.417838
-0.37696305 -0.22034885 -0.033998631 0 0 0 0 11.422785
-0.39876723 -0.22945958 -0.023679353 0 0 0 0 11.427732
-0.4334498 -0.25864938 -0.014131207 0 0 0 0 11.452467
-0.44728532 -0.262712 -0.0039311652 0 0 0 0 11.457414
-10.390904 -7.0907621 -0.4827812 0 0 0 0 11.46236
-10.432499 -6.9853907 -0.18443879 0 0 0 0 11.467308
-10.470607 -6.8740692 0.078840367 0 0 0 0 11.472255
-10.511722 -6.7547593 0.34514359 0 0 0 0 11.477201
-10.409612 -7.4788289 -0.48381433 0 0 0 0 11.482149
-10.452302 -7.3604655 -0.18648513 0 0 0 0 11.487096
-10.490504 -7.2381492 0.074771456 0 0 0 0 11.492043
-10.52176 -7.1027865 0.3379066 0 0 0 0 11.496989
-10.441195 -7.8879728 -0.48463076 0 0 0 0 11.501937
-10.484976 -7.7596202 -0.1893086 0 0 0 0 11.506884
-10.516322 -7.6182666 0.069814451 0 0 0 0 11.51183
-10.554649 -7.4759502 0.33103001 0 0 0 0 11.516778
-10.462737 -8.3050556 -0.48556858 0 0 0 0 11.521725
-10.499637 -8.1596642 -0.19137597 0 0 0 0 11.526671
-10.544042 -8.0133934 0.065912716 0 0 0 0 11.531619
-10.568544 -7.8490005 0.32389426 0 0 0 0 11.536566
-10.487145 -8.747159 -0.48741731 0 0 0 0 11.541512
-10.52418 -8.5817699 -0.19426544 0 0 0 0 11.546459
-10.554744 -8.4144192 0.060791239 0 0 0 0 11.551407
-10.591343 -8.241106 0.3159169 0 0 0 0 11.556354
-10.511476 -9.2032604 -0.48923999 0 0 0 0 11.5613
-10.543643 -9.0208464 -0.1981902 0 0 0 0 11.566248
-10.582307 -8.8415489 0.054950222 0 0 0 0 11.571195
-10.620001 -8.6572456 0.30806702 0 0 0 0 11.576141
-10.532679 -9.681344 -0.491061 0 0 0 0 11.581089
-10.57792 -9.4890108 -0.20085615 0 0 0 0 11.586036
-10.602772 -9.2856359 0.049046755 0 0 0 0 11.590982
-10.636653 -9.0773163 0.29906109 0 0 0 0 11.59593
-10.57168 -10.193533 -0.49257296 0 0 0 0 11.600877
-10.618044 -9.9882126 -0.20538102 0 0 0 0 11.605824
-10.636099 -9.7558022 0.042368956 0 0 0 0 11.61077
-10.660155 -9.5254297 0.28920406 0 0 0 0 11.615718
-10.578714 -10.699531 -0.49353135 0 0 0 0 11.620665
-10.640155 -10.488305 -0.20914942 0 0 0 0 11.625611
-10.666287 -10.249949 0.03569651 0 0 0 0 11.630559
-10.70545 -10.008673 0.27971172 0 0 0 0 11.635506
-10.616854 -11.271471 -0.49540088 0 0 0 0 11.381207
-10.641663 -10.99402 -0.21065488 0 0 0 0 11.386153
-10.687851 -10.752789 0.030454554 0 0 0 0 11.391101
-10.68841 -10.455285 0.2688244 0 0 0 0 11.396048
-10.204067 -11.363887 -0.47892788 0 0 0 0 11.400994
-10.492482 -11.366074 -0.21300921 0 0 0 0 11.405942
-10.722733 -11.295968 0.022962036 0 0 0 0 11.410889
-10.713516 -10.968413 0.25813538 0 0 0 0 11.415835
-9.9284878 -11.602148 -0.46727565 0 0 0 0 11.420783
-10.108785 -11.475698 -0.21010005 0 0 0 0 11.42573
-10.363031 -11.437764 0.01226229 0 0 0 0 11.430676
-10.706743 -11.467352 0.24498095 0 0 0 0 11.435624
-10.214797 -12.16531 -0.21731618 0 0 0 0 11.445518
-10.036181 -11.601761 0.0030619556 0 0 0 0 11.450464
-10.223117 -11.462431 0.21929368 0 0 0 0 11.455412
-9.7939167 -11.86115 -0.0071559376 0 0 0 0 11.470253
-10.000943 -11.735949 0.19932428 0 0 0 0 11.4752
-8.947979 -12.116928 -0.43098122 0 0 0 0 11.480146
-9.5474949 -12.124642 -0.016987901 0 0 0 0 11.490041
-9.5641613 -11.751319 0.17641516 0 0 0 0 11.494987
-9.1671247 -12.208328 -0.025988359 0 0 0 0 11.509829
-9.2078638 -11.849174 0.1557664 0 0 0 0 11.514775
-8.8175926 -12.323207 -0.036502741 0 0 0 0 11.529616
-9.027173 -12.18209 0.13597006 0 0 0 0 11.534564
-8.6094351 -12.185582 0.11531381 0 0 0 0 11.554352
-8.3127232 -12.354807 0.094632223 0 0 0 0 11.57414
-6.9691529 -12.253687 -0.3534945 0 0 0 0 11.579086
-6.6087837 -12.283463 -0.33829558 0 0 0 0 11.598875
-5.8973594 -11.608102 -0.30725965 0 0 0 0 11.618663
-7.1326842 -12.341763 0.030662658 0 0 0 0 11.633504
-5.5512285 -11.603978 -0.29492384 0 0 0 0 11.638451
-5.8187389 -11.601325 -0.17839326 0 0 0 0 11.643397
-5.2022996 -11.563841 -0.2816945 0 0 0 0 11.658238
-5.490664 -11.612336 -0.17678116 0 0 0 0 11.663186
-5.7525673 -11.619719 -0.094309911 0 0 0 0 11.668133
-4.8475547 -11.49067 -0.26760486 0 0 0 0 11.678026
-5.1448641 -11.575242 -0.1744992 0 0 0 0 11.682974
-5.4207339 -11.61273 -0.10278168 0 0 0 0 11.687921
-5.7046657 -11.635261 -0.028991159 0 0 0 0 11.692867
-4.5718045 -11.600987 -0.25906995 0 0 0 0 11.697815
-4.8317819 -11.58735 -0.17267153 0 0 0 0 11.702762
-5.084024 -11.582714 -0.11035959 0 0 0 0 11.707708
-5.3640904 -11.607244 -0.047619116 0 0 0 0 11.712656
-4.2862625 -11.672246 -0.24874201 0 0 0 0 11.717603
-4.5226898 -11.605487 -0.17277135 0 0 0 0 11.722549
-4.7800031 -11.6089 -0.11937805 0 0 0 0 11.727497
-5.0384641 -11.585317 -0.065028831 0 0 0 0 11.732444
-3.9662814 -11.647301 -0.23806809 0 0 0 0 11.737391
-4.2304411 -11.647726 -0.17159039 0 0 0 0 11.742337
-4.4769697 -11.635093 -0.12737657 0 0 0 0 11.747285
-4.7365923 -11.606536 -0.083025627 0 0 0 0 11.752232
-3.6965864 -11.746661 -0.22845821 0 0 0 0 11.757178
-3.9155865 -11.623835 -0.1708423 0 0 0 0 11.762126
-4.1809664 -11.658333 -0.13628207 0 0 0 0 11.767073
-4.4455786 -11.653825 -0.10181694 0 0 0 0 11.772019
-3.6784828 -11.816414 -0.17160076 0 0 0 0 11.781914
-3.8742061 -11.638509 -0.14441448 0 0 0 0 11.78686
-4.1487412 -11.669081 -0.1197468 0 0 0 0 11.791808
-3.6450512 -11.862159 -0.15499954 0 0 0 0 11.806648
-3.847075 -11.653308 -0.13679963 0 0 0 0 11.811596
-3.6249578 -11.893022 -0.15725583 0 0 0 0 11.831384
1.7016406 -12.179645 -0.18955313 0 0 0 0 11.915599
2.2356105 -12.041231 -0.054808214 0 0 0 0 11.93044
1.9678663 -12.053088 -0.19028907 0 0 0 0 11.935387
2.5041933 -11.957649 -0.047474246 0 0 0 0 11.950228
2.2517898 -12.047435 -0.19199316 0 0 0 0 11.955174
2.0007558 -12.054232 -0.34770852 0 0 0 0 11.960122
2.7962899 -11.963937 -0.041250344 0 0 0 0 11.970016
2.5232334 -11.959855 -0.1937016 0 0 0 0 11.974962
2.2926512 -12.063552 -0.35848126 0 0 0 0 11.97991
3.087323 -11.957231 -0.034033388 0 0 0 0 11.989803
2.8120971 -11.946181 -0.19647422 0 0 0 0 11.994751
2.5558069 -11.942038 -0.36714956 0 0 0 0 11.999698
2.0312798 -10.589335 -0.48718104 0 0 0 0 12.004644
3.3884699 -11.974474 -0.028891066 0 0 0 0 12.009592
3.1061187 -11.95948 -0.19925033 0 0 0 0 12.014539
2.8455555 -11.928378 -0.37892994 0 0 0 0 12.019485
2.5790761 -11.931327 -0.56746262 0 0 0 0 12.024433
3.6916716 -11.996704 -0.021757985 0 0 0 0 12.02938
3.4060917 -11.96675 -0.20311013 0 0 0 0 12.034327
2.7493508 -10.453859 -0.34476501 0 0 0 0 12.039273
2.5640924 -10.652326 -0.52794349 0 0 0 0 12.044221
3.9896612 -11.984969 -0.015622144 0 0 0 0 12.049168
3.705107 -11.979027 -0.20593999 0 0 0 0 12.054114
2.9888184 -10.383491 -0.35299939 0 0 0 0 12.059062
2.737061 -10.311326 -0.52988607 0 0 0 0 12.064009
4.3150649 -12.042077 -0.0086903749 0 0 0 0 12.068955
4.0028944 -11.952313 -0.20882943 0 0 0 0 12.073903
3.746213 -11.962241 -0.41648138 0 0 0 0 12.07885
3.0049505 -10.34182 -0.55127418 0 0 0 0 12.083797
4.3362241 -12.022399 -0.21397434 0 0 0 0 12.091529
4.0448489 -11.930543 -0.42939287 0 0 0 0 12.096476
3.3947582 -10.74165 -0.59146553 0 0 0 0 12.101422
3.84513 -10.530629 -0.39270794 0 0 0 0 12.116263
3.3404744 -9.7659006 -0.55877852 0 0 0 0 12.121211
3.7853384 -9.6699448 -0.37370211 0 0 0 0 12.136052
3.8658695 -10.484997 -0.6200406 0 0 0 0 12.140999
5.6423383 -12.793936 -0.24013643 0 0 0 0 12.150892
5.2940578 -12.642493 -0.49895319 0 0 0 0 12.15584
4.9883204 -12.606825 -0.76807994 0 0 0 0 12.160787
5.9446449 -12.685213 -0.24321938 0 0 0 0 12.170681
5.6499233 -12.656485 -0.51447493 0 0 0 0 12.175628
5.3430791 -12.630848 -0.79656976 0 0 0 0 12.180574
6.3186855 -12.710088 -0.24994217 0 0 0 0 12.190469
6.0087214 -12.663468 -0.53204143 0 0 0 0 12.195415
5.7007461 -12.636856 -0.8241269 0 0 0 0 12.200362
7.1247287 -12.930854 0.038181048 0 0 0 0 12.20531
6.6977272 -12.732934 -0.25572529 0 0 0 0 12.210257
6.3825541 -12.676367 -0.5497815 0 0 0 0 12.215203
6.0633945 -12.641841 -0.85274243 0 0 0 0 12.220151
7.427917 -12.78212 0.044030178 0 0 0 0 12.225098
7.0887718 -12.758718 -0.26264873 0 0 0 0 12.230044
6.7724886 -12.70918 -0.56867921 0 0 0 0 12.234992
6.4491248 -12.667703 -0.88460404 0 0 0 0 12.239939
7.8128939 -12.767919 0.050113831 0 0 0 0 12.244885
7.4806828 -12.761501 -0.26962268 0 0 0 0 12.249833
7.164289 -12.718987 -0.5876404 0 0 0 0 12.25478
6.8670917 -12.741389 -0.91977257 0 0 0 0 12.259727
8.2432213 -12.812459 0.056744937 0 0 0 0 12.264673
7.8886447 -12.773195 -0.2767759 0 0 0 0 12.269621
7.5792122 -12.754667 -0.60883659 0 0 0 0 12.274568
8.6492205 -12.800142 0.063579984 0 0 0 0 12.284462
8.3227472 -12.811747 -0.28520024 0 0 0 0 12.289409
8.0091228 -12.788268 -0.63022071 0 0 0 0 12.294355
4.7085147 -7.8362327 -0.61208397 0 0 0 0 12.299303
9.0984468 -12.827582 0.069951341 0 0 0 0 12.30425
8.7486658 -12.816347 -0.29258046 0 0 0 0 12.309196
8.4288502 -12.78993 -0.65153086 0 0 0 0 12.314144
4.9713206 -7.8517866 -0.63437545 0 0 0 0 12.319091
9.551609 -12.844006 0.076259233 0 0 0 0 12.324038
9.1996155 -12.830813 -0.3022522 0 0 0 0 12.328984
5.4703736 -7.9035015 -0.42261598 0 0 0 0 12.333932
5.2632132 -7.8891821 -0.65998924 0 0 0 0 12.338879
10.029861 -12.874287 0.083284184 0 0 0 0 12.343825
9.6948137 -12.88903 -0.31239054 0 0 0 0 12.348773
5.7280579 -7.8760705 -0.43491676 0 0 0 0 12.35372
5.5772109 -7.9474564 -0.68683672 0 0 0 0 12.358666
10.533112 -12.90443 0.089998938 0 0 0 0 12.363614
10.198913 -12.930201 -0.32266754 0 0 0 0 12.368561
6.0359983 -7.9023638 -0.45174447 0 0 0 0 12.373507
4.2657738 -5.7856703 -0.52244681 0 0 0 0 12.378454
10.885172 -12.735451 0.094247989 0 0 0 0 12.383402
6.6096931 -8.0036068 -0.21181174 0 0 0 0 12.388349
6.3851447 -7.9694281 -0.47100851 0 0 0 0 12.393295
4.4875627 -5.7914581 -0.54222238 0 0 0 0 12.398243
11.011751 -12.314772 0.096869402 0 0 0 0 12.40319
6.8954039 -7.9680133 -0.21846688 0 0 0 0 12.408136
6.7301598 -8.0115175 -0.48926383 0 0 0 0 12.413084
4.7183986 -5.803195 -0.56109631 0 0 0 0 12.418031
11.583191 -12.378538 0.10281073 0 0 0 0 12.422977
7.2344084 -7.9841204 -0.22568971 0 0 0 0 12.427925
5.1380172 -5.837431 -0.37433097 0 0 0 0 12.432872
4.9923663 -5.8517003 -0.58644068 0 0 0 0 12.437819
12.345681 -12.616213 0.11168404 0 0 0 0 12.442765
7.6085229 -8.0220318 -0.23430844 0 0 0 0 12.447713
5.3888912 -5.8430467 -0.38746125 0 0 0 0 12.45266
5.246139 -5.8593168 -0.6086055 0 0 0 0 12.457606
8.2034206 -8.0210457 0.068183489 0 0 0 0 12.462554
8.0096636 -8.0647936 -0.24325383 0 0 0 0 12.467501
5.6688409 -5.8665042 -0.40292022 0 0 0 0 12.472447
5.5008602 -5.8579307 -0.63079542 0 0 0 0 12.477395
8.5915251 -8.0288601 0.072343186 0 0 0 0 12.482342
6.1157255 -5.886539 -0.18850897 0 0 0 0 12.487288
5.9728079 -5.8978314 -0.42066312 0 0 0 0 12.492236
3.9655128 -4.0303702 -0.45591989 0 0 0 0 12.497183
9.0267668 -8.0614109 0.075961918 0 0 0 0 12.50213
6.4076529 -5.8889189 -0.19614995 0 0 0 0 12.507076
6.2636418 -5.9012322 -0.43628952 0 0 0 0 12.512024
4.1522846 -4.0243568 -0.4722586 0 0 0 0 12.516971
9.1593885 -7.8206978 0.076879337 0 0 0 0 12.521917
6.7276464 -5.9031415 -0.20411721 0 0 0 0 12.526865
6.5523891 -5.8916497 -0.45290965 0 0 0 0 12.531812
4.3620925 -4.0292192 -0.49086398 0 0 0 0 12.536758
7.1898108 -5.8690085 0.057014253 0 0 0 0 12.541706
7.1651068 -6.0027037 -0.2143956 0 0 0 0 12.546653
4.6198997 -3.9654279 -0.3222169 0 0 0 0 12.5516
4.5387306 -3.9972656 -0.50611854 0 0 0 0 12.556546
7.2560673 -5.6579032 0.059467949 0 0 0 0 13.148873
7.2404342 -5.7935324 -0.21306498 0 0 0 0 13.153821
4.6448922 -3.8041 -0.31994128 0 0 0 0 13.158768
4.6289968 -3.8865643 -0.50957811 0 0 0 0 13.163714
7.2275114 -5.3821006 0.058355756 0 0 0 0 13.168662
7.2379365 -5.523582 -0.21248779 0 0 0 0 13.173609
4.637907 -3.6221585 -0.31815752 0 0 0 0 13.178555
4.6611071 -3.7264113 -0.51023412 0 0 0 0 13.183502
7.2220998 -5.1321707 0.057009917 0 0 0 0 13.18845
7.251555 -5.2765446 -0.21306279 0 0 0 0 13.193397
4.5807824 -3.4074874 -0.31281951 0 0 0 0 13.198343
4.6441317 -3.5365171 -0.50434196 0 0 0 0 13.203291
7.200665 -4.8773289 0.055852804 0 0 0 0 13.208238
7.2622108 -5.0335217 -0.2125919 0 0 0 0 13.213184
4.4775681 -3.1710649 -0.30495682 0 0 0 0 13.218132
4.5369158 -3.2861047 -0.49045718 0 0 0 0 13.223079
7.2053866 -4.6483412 0.055425469 0 0 0 0 13.228025
7.2498384 -4.784626 -0.21184772 0 0 0 0 13.232973
4.4546685 -3.0012083 -0.30195257 0 0 0 0 13.23792
4.5871878 -3.1588564 -0.49326921 0 0 0 0 13.242867
7.1579585 -4.3956437 0.053593989 0 0 0 0 13.247813
7.1803141 -4.5070434 -0.21045634 0 0 0 0 13.252761
4.537096 -2.9047861 -0.30609882 0 0 0 0 13.257708
4.4460049 -2.9066231 -0.4759711 0 0 0 0 13.262654
7.1266489 -4.1618557 0.05260184 0 0 0 0 13.267602
7.1870875 -4.2860441 -0.2108914 0 0 0 0 13.272549
4.2796254 -2.6011913 -0.28847373 0 0 0 0 13.277495
4.2898717 -2.6604686 -0.45747915 0 0 0 0 13.282443
7.1184211 -3.9449427 0.050359625 0 0 0 0 13.28739
7.1297164 -4.0353942 -0.20959599 0 0 0 0 13.292336
4.2448158 -2.446399 -0.28529403 0 0 0 0 13.297284
4.2260122 -2.4848254 -0.4489837 0 0 0 0 13.302231
7.1333208 -3.7489011 0.048875611 0 0 0 0 13.307178
7.2137618 -3.8659742 -0.21187609 0 0 0 0 13.312124
4.1689301 -2.2748291 -0.28064352 0 0 0 0 13.317072
4.126112 -2.2943726 -0.43707591 0 0 0 0 13.322019
7.1071391 -3.5370846 0.047865476 0 0 0 0 13.326965
4.0900865 -2.1082726 -0.27494776 0 0 0 0 13.33686
4.0112386 -2.1059985 -0.42398176 0 0 0 0 13.341806
7.0568824 -3.315403 0.045130964 0 0 0 0 13.346754
4.0203023 -1.9546678 -0.27033854 0 0 0 0 13.356647
3.9034426 -1.9315848 -0.41094851 0 0 0 0 13.361594
6.9936633 -3.0977898 0.043563109 0 0 0 0 13.366542
3.7936804 -1.7651829 -0.39887711 0 0 0 0 13.381383
6.9144297 -2.8812671 0.040192671 0 0 0 0 13.38633
3.6759655 -1.6048213 -0.38569826 0 0 0 0 13.401171
6.8332429 -2.6707523 0.037857119 0 0 0 0 13.406117
5.2082877 -2.0933826 -0.34341228 0 0 0 0 13.416012
3.5803065 -1.4613444 -0.37575772 0 0 0 0 13.420959
6.7170177 -2.4544291 0.034936991 0 0 0 0 13.425905
5.1945157 -1.9484837 -0.34245935 0 0 0 0 13.4358
3.4706907 -1.3209383 -0.36364222 0 0 0 0 13.440746
6.6028433 -2.2470939 0.032007825 0 0 0 0 13.445694
5.1336918 -1.7888361 -0.33896118 0 0 0 0 13.455587
3.3641074 -1.1885169 -0.35254988 0 0 0 0 13.460535
6.4787045 -2.0458114 0.029210322 0 0 0 0 13.465482
5.0699086 -1.6342022 -0.3344177 0 0 0 0 13.475376
3.2645736 -1.0650562 -0.34152767 0 0 0 0 13.480323
6.3836532 -1.8603699 0.026087699 0 0 0 0 13.48527
5.049191 -1.49834 -0.33336267 0 0 0 0 13.495164
3.2461109 -0.9731704 -0.33943251 0 0 0 0 13.500111
6.0122094 -1.6084328 0.02219619 0 0 0 0 13.505057
6.0287442 -1.6277555 -0.18896227 0 0 0 0 13.510005
5.0044613 -1.3576057 -0.33102506 0 0 0 0 13.514952
4.2820525 -1.1727517 -0.44159415 0 0 0 0 13.519898
5.8231249 -1.4195007 0.018204112 0 0 0 0 13.524846
5.8998022 -1.4494842 -0.18666427 0 0 0 0 13.529793
4.9587607 -1.2218763 -0.32866621 0 0 0 0 13.534739
4.2424598 -1.0519813 -0.43728778 0 0 0 0 13.539686
5.6651669 -1.2493947 0.015867548 0 0 0 0 13.544634
5.7268491 -1.2684493 -0.18383941 0 0 0 0 13.549581
4.9290862 -1.0930617 -0.32748896 0 0 0 0 13.554527
4.2188978 -0.9391259 -0.43416098 0 0 0 0 13.559475
5.5032377 -1.0863104 0.012589999 0 0 0 0 13.564422
5.5219526 -1.0925815 -0.17861982 0 0 0 0 13.569368
4.8834209 -0.96333116 -0.32511964 0 0 0 0 13.574316
4.1753407 -0.82437629 -0.42979538 0 0 0 0 13.579263
5.354363 -0.93315387 0.0091706226 0 0 0 0 13.584209
5.3231044 -0.92768091 -0.17445603 0 0 0 0 13.589157
4.8727846 -0.84341508 -0.3251563 0 0 0 0 13.594104
4.1767912 -0.72039115 -0.42995492 0 0 0 0 13.599051
5.2245603 -0.79089105 0.0065388642 0 0 0 0 13.603997
5.1393218 -0.77469707 -0.17045522 0 0 0 0 13.608945
4.9821682 -0.74186349 -0.33261055 0 0 0 0 13.613892
4.9914227 -0.63511205 -0.16888826 0 0 0 0 13.349779
4.9583182 -0.6196177 -0.3335079 0 0 0 0 13.354726
4.8297329 -0.50302005 -0.16609786 0 0 0 0 13.369567
4.8326941 -0.4883185 -0.32615799 0 0 0 0 13.374514
4.6731 -0.37889686 -0.16235663 0 0 0 0 13.389355
4.7461033 -0.36780921 -0.3212668 0 0 0 0 13.394301
4.5224996 -0.26274118 -0.15967652 0 0 0 0 13.409142
4.6135483 -0.24854547 -0.31381258 0 0 0 0 13.414089
4.3729439 -0.15457822 -0.15699631 0 0 0 0 13.42893
4.4330497 -0.13453743 -0.30376479 0 0 0 0 13.433878
4.2414207 -0.052315678 -0.15452749 0 0 0 0 13.448719
4.1876454 -0.027872697 -0.28891385 0 0 0 0 13.453666
4.1219354 0.043013599 -0.15219435 0 0 0 0 13.468507
4.0282445 0.066251986 -0.28009209 0 0 0 0 13.473454
4.0134778 0.13340396 -0.14998813 0 0 0 0 13.488295
3.8898571 0.15549041 -0.27251995 0 0 0 0 13.493241
3.9230287 0.21989115 -0.14899559 0 0 0 0 13.508082
3.7824831 0.23989642 -0.26631853 0 0 0 0 13.51303
3.6721318 0.32028741 -0.26007515 0 0 0 0 13.532818
3.5827713 0.3977893 -0.25608334 0 0 0 0 13.552606
6.3349123 0.73915476 -0.031118676 0 0 0 0 13.5625
5.0024261 0.62760144 -0.19371723 0 0 0 0 13.567447
3.4974329 0.4713138 -0.25213429 0 0 0 0 13.572393
6.1672282 0.85920459 -0.034231707 0 0 0 0 13.582288
4.968823 0.7383886 -0.19545335 0 0 0 0 13.587234
3.4161062 0.54286087 -0.24823162 0 0 0 0 13.592181
6.0415359 0.97848094 -0.038855478 0 0 0 0 13.602076
4.9192457 0.84709191 -0.19599214 0 0 0 0 13.607022
5.8809142 1.0875722 -0.042038713 0 0 0 0 13.621863
4.8576798 0.95172924 -0.19737864 0 0 0 0 13.626811
3.1153316 0.6810264 -0.33474395 0 0 0 0 13.636704
5.7253079 1.1916903 -0.04627616 0 0 0 0 13.641652
4.8201022 1.0584964 -0.1990604 0 0 0 0 13.646599
4.2790451 0.99234897 -0.3123804 0 0 0 0 13.651546
3.0371032 0.74159932 -0.32786348 0 0 0 0 13.656492
5.6556501 1.3092762 -0.049581576 0 0 0 0 13.66144
4.7555614 1.1611207 -0.19940871 0 0 0 0 13.666387
4.1886587 1.0758451 -0.3083851 0 0 0 0 13.671333
2.9668679 0.80121416 -0.3220793 0 0 0 0 13.676281
5.4971061 1.4023814 -0.053767271 0 0 0 0 13.681228
4.7090087 1.2638404 -0.20097545 0 0 0 0 13.686174
4.1511683 1.1716206 -0.30805409 0 0 0 0 13.691122
2.8806899 0.85274601 -0.31508824 0 0 0 0 13.696069
5.3585739 1.4955976 -0.057197724 0 0 0 0 13.701015
4.6774344 1.3706412 -0.20273149 0 0 0 0 13.705963
4.113677 1.2653946 -0.30871975 0 0 0 0 13.71091
2.8224533 0.91042483 -0.31044787 0 0 0 0 13.715857
5.2500234 1.591976 -0.060998425 0 0 0 0 13.720803
4.6648207 1.4825422 -0.2057263 0 0 0 0 13.725751
4.0552502 1.3520606 -0.30711973 0 0 0 0 13.730698
3.6625104 1.2777659 -0.3992365 0 0 0 0 13.735644
5.0676265 1.6609598 -0.063858718 0 0 0 0 13.740592
4.6671457 1.6035215 -0.20991862 0 0 0 0 13.745539
4.042716 1.4539692 -0.30810282 0 0 0 0 13.750485
3.5961869 1.3523982 -0.39452344 0 0 0 0 13.755433
4.9022341 1.7290366 -0.066925637 0 0 0 0 13.76038
4.5607333 1.6839241 -0.20972353 0 0 0 0 13.765326
3.9962571 1.5446984 -0.30765614 0 0 0 0 13.770273
3.5787206 1.444285 -0.39443278 0 0 0 0 13.775221
4.7688131 1.8022861 -0.070390299 0 0 0 0 13.780168
4.5161862 1.7866571 -0.21131736 0 0 0 0 13.785114
3.9647536 1.6415061 -0.30840173 0 0 0 0 13.790062
3.5632269 1.5391808 -0.39537185 0 0 0 0 13.795009
4.6354084 1.8725373 -0.073852077 0 0 0 0 13.799955
4.474628 1.8894044 -0.21394782 0 0 0 0 13.804903
3.9103243 1.7271936 -0.30785087 0 0 0 0 13.80985
3.5307803 1.627988 -0.39509559 0 0 0 0 13.814796
4.5166974 1.9431976 -0.077378847 0 0 0 0 13.57579
4.4067984 1.982331 -0.21611564 0 0 0 0 13.580738
3.8944337 1.8303636 -0.31059286 0 0 0 0 13.585685
3.4860497 1.7099844 -0.39339501 0 0 0 0 13.590631
4.4102764 2.015588 -0.08116015 0 0 0 0 13.595578
4.3433032 2.07496 -0.21745817 0 0 0 0 13.600526
3.8728814 1.9332222 -0.31246993 0 0 0 0 13.605473
3.4665527 1.8048581 -0.39428604 0 0 0 0 13.610419
4.2749629 2.0708256 -0.083559901 0 0 0 0 13.615367
4.2070408 2.1302009 -0.21584713 0 0 0 0 13.620314
3.8094893 2.0138609 -0.31079674 0 0 0 0 13.62526
3.4311154 1.8936501 -0.39297217 0 0 0 0 13.630208
4.2044864 2.1534123 -0.087800786 0 0 0 0 13.635155
4.1953945 2.2461073 -0.21986584 0 0 0 0 13.640101
3.7580347 2.1015608 -0.31128311 0 0 0 0 13.645049
3.41061 1.9905189 -0.39385533 0 0 0 0 13.649996
3.7643616 2.2225668 -0.315534 0 0 0 0 13.664837
3.3970551 2.0944238 -0.39583644 0 0 0 0 13.669784
3.8472614 2.2941961 -0.21161968 0 0 0 0 13.679678
3.7159104 2.3122857 -0.31506148 0 0 0 0 13.684625
3.3566318 2.1811898 -0.39445946 0 0 0 0 13.689571
3.8077121 2.2871847 -0.096071593 0 0 0 0 13.694519
3.7390144 2.3465929 -0.210352 0 0 0 0 13.699466
3.6724088 2.407028 -0.31665939 0 0 0 0 13.704412
3.341074 2.2860842 -0.39641854 0 0 0 0 13.70936
3.7044153 2.339601 -0.098865256 0 0 0 0 13.714307
3.616823 2.3889163 -0.20889886 0 0 0 0 13.719254
3.6040325 2.4856427 -0.31492653 0 0 0 0 13.7242
3.3155408 2.3889272 -0.39725336 0 0 0 0 13.729148
3.6130846 2.396081 -0.10281319 0 0 0 0 13.734095
3.5086029 2.4343138 -0.20862262 0 0 0 0 13.739041
3.5028183 2.5390859 -0.31075028 0 0 0 0 13.743989
3.2651377 2.472641 -0.39575163 0 0 0 0 13.748936
3.528739 2.4576011 -0.10585681 0 0 0 0 13.753882
3.4043946 2.4797359 -0.20739689 0 0 0 0 13.75883
3.3717539 2.5673721 -0.305168 0 0 0 0 13.763777
3.2266684 2.5664172 -0.39541388 0 0 0 0 13.768723
3.4483871 2.5181415 -0.10994829 0 0 0 0 13.77367
3.3051639 2.5271838 -0.20723723 0 0 0 0 13.778618
3.2297947 2.580605 -0.29742816 0 0 0 0 13.783565
3.1901557 2.6662025 -0.39611199 0 0 0 0 13.788511
3.3541138 2.5666103 -0.11285058 0 0 0 0 13.793459
3.2179108 2.578697 -0.20723136 0 0 0 0 13.798406
3.1167021 2.6139901 -0.29207742 0 0 0 0 13.803352
3.0930121 2.7136774 -0.38898054 0 0 0 0 13.8083
3.1157241 2.6181312 -0.20702465 0 0 0 0 13.818193
3.0215359 2.6564682 -0.28896195 0 0 0 0 13.823141
2.971029 2.7360239 -0.37950423 0 0 0 0 13.828088
3.0344665 2.6706784 -0.20709641 0 0 0 0 13.837981
2.9194148 2.6929123 -0.28475332 0 0 0 0 13.842929
2.8411455 2.7443333 -0.36790857 0 0 0 0 13.847876
2.9452477 2.7161837 -0.20706084 0 0 0 0 13.85777
2.8292544 2.7344191 -0.28169999 0 0 0 0 13.862717
2.7281549 2.7657287 -0.35954362 0 0 0 0 13.867663
2.8639951 2.7657309 -0.20813033 0 0 0 0 13.877558
2.7281711 2.7638707 -0.27749446 0 0 0 0 13.882504
2.6251423 2.7911785 -0.35130829 0 0 0 0 13.887452
3.9411254 3.7875526 -0.17094263 0 0 0 0 13.892399
2.6420112 2.8054011 -0.27449286 0 0 0 0 13.902292
2.5340459 2.8276887 -0.34523916 0 0 0 0 13.90724
3.8516228 3.874042 -0.17697386 0 0 0 0 13.912187
2.5588286 2.8489463 -0.27253261 0 0 0 0 13.922081
2.4399996 2.8571863 -0.33812308 0 0 0 0 13.927028
3.7999034 3.9987314 -0.18453163 0 0 0 0 13.931974
2.4677227 2.8804519 -0.26945624 0 0 0 0 13.941869
2.3558753 2.8967338 -0.33314693 0 0 0 0 13.946815
3.7143817 4.0892439 -0.19062105 0 0 0 0 13.951762
3.3643408 3.9052172 -0.27408433 0 0 0 0 13.95671
2.3994479 2.9390762 -0.26870641 0 0 0 0 13.961657
2.28268 2.9473383 -0.32932416 0 0 0 0 13.966603
3.6427467 4.1988292 -0.19791438 0 0 0 0 13.971551
3.2908175 4.0028019 -0.27733615 0 0 0 0 13.976498
2.1975832 2.9818826 -0.32433015 0 0 0 0 13.986392
3.5621672 4.2983675 -0.20508313 0 0 0 0 13.991339
3.2500341 4.1425557 -0.2840603 0 0 0 0 13.996285
2.1214435 3.0244749 -0.31946 0 0 0 0 14.00618
3.1873667 4.2631955 -0.28948793 0 0 0 0 14.016073
2.9005251 4.1015611 -0.34675846 0 0 0 0 14.021021
3.1108041 4.3667645 -0.29371861 0 0 0 0 14.035862
2.85078 4.2392735 -0.35137695 0 0 0 0 14.040809
3.0560846 4.5044332 -0.29922476 0 0 0 0 14.072404
2.7931166 4.3709331 -0.35484248 0 0 0 0 14.077351
2.5540957 4.2515635 -0.40877244 0 0 0 0 14.082297
3.2585695 4.7516084 -0.23704796 0 0 0 0 14.087245
2.984406 4.6260266 -0.30555111 0 0 0 0 14.092192
2.7314196 4.5025859 -0.35830945 0 0 0 0 14.097138
2.498363 4.392251 -0.41133028 0 0 0 0 14.102086
2.8928859 4.7225194 -0.30959561 0 0 0 0 14.111979
2.6756065 4.6542692 -0.36288545 0 0 0 0 14.116926
2.4445736 4.5439506 -0.41393307 0 0 0 0 14.121874
2.8568029 4.9142962 -0.31948006 0 0 0 0 14.131767
2.6048968 4.7868743 -0.36724958 0 0 0 0 14.136715
2.3739204 4.6725626 -0.41529295 0 0 0 0 14.141662
3.0491371 5.1683974 -0.26719034 0 0 0 0 14.146608
2.7612808 5.0117702 -0.32348189 0 0 0 0 14.151556
2.5262599 4.9104424 -0.36950389 0 0 0 0 14.156503
2.3101299 4.8252106 -0.41778114 0 0 0 0 14.161449
2.9574573 5.2848821 -0.27627233 0 0 0 0 14.166397
2.6756091 5.1332941 -0.32964796 0 0 0 0 14.171344
2.4525008 5.0530338 -0.37385359 0 0 0 0 14.176291
2.3172896 5.1502104 -0.43343738 0 0 0 0 14.181237
2.837045 5.3532181 -0.28392518 0 0 0 0 14.186185
2.5918696 5.2658262 -0.33685938 0 0 0 0 14.191132
2.3964489 5.2447133 -0.38150719 0 0 0 0 14.196078
2.1882071 5.1875315 -0.42693624 0 0 0 0 14.201026
2.3136194 5.3992567 -0.38677517 0 0 0 0 14.215867
2.076864 5.2699428 -0.42273292 0 0 0 0 14.220814
2.3265283 5.3404016 -0.33877119 0 0 0 0 14.230708
2.1016834 5.2391605 -0.3699244 0 0 0 0 14.235655
1.9458152 5.3032575 -0.41520625 0 0 0 0 14.240602
2.3592744 5.3076468 -0.2930502 0 0 0 0 14.245548
2.1509922 5.2694769 -0.33352098 0 0 0 0 14.250496
1.973554 5.2764816 -0.36744085 0 0 0 0 14.255443
1.8590031 5.4617901 -0.41744137 0 0 0 0 14.260389
2.3079603 5.5323381 -0.30882457 0 0 0 0 14.265337
2.0031404 5.2516928 -0.33170143 0 0 0 0 14.270284
1.9467579 5.5933042 -0.38368312 0 0 0 0 14.27523
2.0456712 5.2349696 -0.29712877 0 0 0 0 14.285125
2.1337645 6.0022917 -0.37661701 0 0 0 0 14.290071
1.7665583 5.3634233 -0.33804607 0 0 0 0 14.309859
1.5489804 5.8741436 -0.41745403 0 0 0 0 14.319754
1.3566087 5.5122261 -0.35943562 0 0 0 0 14.354383
1.4320117 5.6466231 -0.35453898 0 0 0 0 14.369224
1.1521586 6.0860786 -0.40408918 0 0 0 0 14.379118
1.538987 5.854176 -0.35414815 0 0 0 0 14.384065
1.0690101 6.4746156 -0.41981661 0 0 0 0 14.398906
1.436704 8.2683725 -0.51447445 0 0 0 0 14.413747
1.1725905 8.2759895 -0.5204013 0 0 0 0 14.418694
1.0937449 6.0528011 -0.37924176 0 0 0 0 14.428588
1.2378 8.2713423 -0.50911659 0 0 0 0 14.433535
0.97197676 8.2409649 -0.50695467 0 0 0 0 14.438481
1.1672298 6.1431637 -0.38723779 0 0 0 0 14.443429
1.0152763 6.4793448 -0.40609759 0 0 0 0 14.448376
0.74832827 5.9720221 -0.36802191 0 0 0 0 14.453322
0.74026769 7.8788128 -0.47453153 0 0 0 0 14.45827
1.0753357 6.461638 -0.41273233 0 0 0 0 14.463217
0.79325986 5.9742351 -0.3765215 0 0 0 0 14.468163
0.65089113 6.4044795 -0.38967246 0 0 0 0 14.47311
0.55729222 7.9038782 -0.46541384 0 0 0 0 14.478058
1.183638 8.2809992 -0.5323925 0 0 0 0 14.483005
0.69987619 6.3877058 -0.4021832 0 0 0 0 14.487951
0.61750406 7.8601751 -0.47100219 0 0 0 0 14.492899
0.38828126 8.2799864 -0.47612602 0 0 0 0 14.497846
0.99048847 8.2999783 -0.54114336 0 0 0 0 14.502792
0.67922401 7.8734488 -0.49371576 0 0 0 0 14.50774
0.45822546 8.2703199 -0.48989224 0 0 0 0 14.512687
0.19739138 8.2890139 -0.46689373 0 0 0 0 14.517633
0.75587368 7.8867884 -0.52260172 0 0 0 0 14.522581
0.51005763 8.077548 -0.50810277 0 0 0 0 14.527528
0.26522505 8.2873268 -0.48665181 0 0 0 0 14.532475
0.0036175735 8.2800341 -0.45559832 0 0 0 0 14.537421
0.57654649 7.9307079 -0.53239793 0 0 0 0 15.154206
0.33091781 8.2835073 -0.52127594 0 0 0 0 15.159154
0.075292595 8.2953024 -0.48241866 0 0 0 0 15.164101
-0.18624525 8.2850647 -0.44545642 0 0 0 0 15.169047
0.40843436 8.2928143 -0.56513804 0 0 0 0 15.173995
0.13787109 8.2945375 -0.52509683 0 0 0 0 15.178942
-0.11860631 8.2923412 -0.47920743 0 0 0 0 15.183888
-0.38026273 8.3171139 -0.43731096 0 0 0 0 15.188836
0.215377 8.2948351 -0.57394344 0 0 0 0 15.193783
-0.056124378 8.2975655 -0.52789676 0 0 0 0 15.19873
-0.31160977 8.3103876 -0.47604895 0 0 0 0 15.203676
-0.57611465 8.3181572 -0.42809272 0 0 0 0 15.208624
0.022349708 8.2908583 -0.58274257 0 0 0 0 15.213571
-0.24914464 8.3056011 -0.53072119 0 0 0 0 15.218517
-0.50749868 8.3054209 -0.47282067 0 0 0 0 15.223465
-0.77101654 8.3292084 -0.41890776 0 0 0 0 15.228412
-0.17179897 8.3068752 -0.59357011 0 0 0 0 15.233358
-0.4452613 8.3286209 -0.53554267 0 0 0 0 15.238306
-0.70255893 8.3304577 -0.47166076 0 0 0 0 15.243253
-0.96995908 8.34624 -0.41069302 0 0 0 0 15.248199
-0.36601165 8.3358927 -0.60442495 0 0 0 0 15.253147
-0.63921666 8.3236561 -0.5383417 0 0 0 0 15.258094
-0.90256774 8.3474731 -0.46943536 0 0 0 0 15.263041
-1.1678571 8.3542786 -0.40247804 0 0 0 0 15.267987
-0.56304896 8.3319006 -0.61419255 0 0 0 0 15.272935
-0.83736235 8.3526688 -0.54316032 0 0 0 0 15.277882
-1.0995024 8.3495064 -0.46722153 0 0 0 0 15.282828
-1.3687401 8.3593044 -0.39422885 0 0 0 0 15.287776
-0.76019752 8.3459082 -0.62599623 0 0 0 0 15.292723
-1.0373578 8.3536768 -0.54691184 0 0 0 0 15.297669
-1.2984976 8.3615294 -0.46600741 0 0 0 0 15.302617
-1.5696383 8.3673315 -0.38598949 0 0 0 0 15.307564
-0.96131432 8.3558979 -0.63675284 0 0 0 0 15.31251
-1.2364138 8.3646908 -0.55169654 0 0 0 0 15.317457
-1.5025169 8.3785315 -0.46475092 0 0 0 0 15.322405
-1.7705117 8.3703632 -0.3777459 0 0 0 0 15.327352
-1.1604322 8.3639002 -0.64853269 0 0 0 0 15.332298
-1.4404804 8.37568 -0.55743003 0 0 0 0 15.337246
-1.7044462 8.3795462 -0.46249324 0 0 0 0 15.342193
-1.97638 8.3723698 -0.3694495 0 0 0 0 15.347139
-1.3636248 8.384881 -0.66129529 0 0 0 0 15.352087
-1.6424655 8.3746843 -0.56116956 0 0 0 0 15.357034
-1.9114109 8.3855371 -0.46119326 0 0 0 0 15.36198
-2.1904263 8.4083395 -0.36212844 0 0 0 0 15.366928
-1.5697167 8.3878536 -0.67299765 0 0 0 0 15.371875
-1.8475215 8.3836737 -0.56689763 0 0 0 0 15.376822
-2.1204162 8.3975182 -0.46088627 0 0 0 0 15.381768
-2.437988 8.5381374 -0.35961014 0 0 0 0 15.386716
-1.7748036 8.3898315 -0.68471408 0 0 0 0 15.391663
-2.0596128 8.3976278 -0.57356149 0 0 0 0 15.396609
-2.3344455 8.4144783 -0.46053731 0 0 0 0 15.401557
-2.4808819 7.9829831 -0.33012751 0 0 0 0 15.406504
-1.9890161 8.4107628 -0.69936842 0 0 0 0 15.41145
-2.2726874 8.4105816 -0.57921737 0 0 0 0 15.416398
-2.4720287 8.1678352 -0.44656354 0 0 0 0 15.421345
-2.6339803 7.8382645 -0.31716865 0 0 0 0 15.426291
-2.1991227 8.4147205 -0.71204227 0 0 0 0 15.431239
-2.4836445 8.3995495 -0.58485824 0 0 0 0 15.436186
-2.5752056 7.8463678 -0.42883933 0 0 0 0 15.441133
-2.8155036 7.7734041 -0.30704346 0 0 0 0 15.446079
-2.4163046 8.4296417 -0.72666258 0 0 0 0 15.451027
-2.5194876 7.8394346 -0.55244887 0 0 0 0 15.455974
-2.7598395 7.7884812 -0.42569369 0 0 0 0 15.46092
-3.0173538 7.7684426 -0.29980606 0 0 0 0 15.465868
-2.5161593 8.0471945 -0.70686686 0 0 0 0 15.470815
-2.7092843 7.8015132 -0.55528355 0 0 0 0 15.475761
-2.8186588 7.4012394 -0.40434813 0 0 0 0 15.480709
-3.2758725 7.8871975 -0.29817063 0 0 0 0 15.485656
-2.6702902 7.8824534 -0.70586818 0 0 0 0 15.490602
-2.8005292 7.4881039 -0.53971374 0 0 0 0 15.495549
-3.2102466 7.8813014 -0.42989627 0 0 0 0 15.500497
-3.470515 7.8442788 -0.28895408 0 0 0 0 15.505444
-2.7756948 7.5929685 -0.69418609 0 0 0 0 15.51039
-3.1587799 7.8793135 -0.57447267 0 0 0 0 15.515338
-3.4109888 7.8433414 -0.42762285 0 0 0 0 15.520285
-3.6863606 7.8362536 -0.28257141 0 0 0 0 15.525231
-2.8863649 7.3504548 -0.68553388 0 0 0 0 15.530179
-2.9653447 6.9163675 -0.51287717 0 0 0 0 15.535126
-3.6329982 7.8512735 -0.42920262 0 0 0 0 15.540072
-3.9223962 7.8651314 -0.27703777 0 0 0 0 15.54502
-2.94242 7.0032239 -0.66729754 0 0 0 0 15.549967
-3.5897551 7.8642235 -0.58771861 0 0 0 0 15.554914
-3.8640268 7.8631644 -0.43069535 0 0 0 0 15.55986
-4.1502852 7.8660536 -0.27054885 0 0 0 0 15.564808
-3.0482795 6.7937326 -0.66076368 0 0 0 0 15.569755
-2.7016807 5.5618153 -0.42535421 0 0 0 0 15.574701
-4.1010785 7.8800287 -0.43213609 0 0 0 0 15.579649
-4.4134269 7.9148035 -0.26576376 0 0 0 0 15.584596
-2.6752896 5.5997233 -0.55872262 0 0 0 0 15.589542
-3.7293108 7.2446256 -0.55809885 0 0 0 0 15.59449
-4.3532243 7.9118195 -0.4354434 0 0 0 0 15.599437
-4.6331301 7.8797712 -0.25831103 0 0 0 0 15.604383
-3.647887 7.1937389 -0.7289204 0 0 0 0 15.609331
-4.3233156 7.9386644 -0.61884409 0 0 0 0 15.614278
-4.5759974 7.8757606 -0.43495685 0 0 0 0 15.619225
-3.9225683 7.3010778 -0.75490636 0 0 0 0 15.341207
-4.5400023 7.883276 -0.62409353 0 0 0 0 15.346153
-4.5106025 7.9400649 -0.83755153 0 0 0 0 15.360994
-5.951972 8.6960068 -0.26190293 0 0 0 0 15.375835
-3.558419 5.9220877 -0.64347786 0 0 0 0 15.380783
-5.9175582 8.7238054 -0.48737523 0 0 0 0 15.390676
-3.7323437 5.8902316 -0.65450668 0 0 0 0 15.400571
-5.8852005 8.7345705 -0.72579408 0 0 0 0 15.405518
-4.4946771 6.7333293 -0.76360887 0 0 0 0 15.420359
-4.4700565 6.3048463 -0.53710073 0 0 0 0 15.425305
-4.499804 6.4043565 -0.74498087 0 0 0 0 15.440146
-7.6983294 8.8756666 -0.23312271 0 0 0 0 15.474775
-7.6744866 8.8923206 -0.51647431 0 0 0 0 15.489616
-7.6406202 8.8780031 -0.81188107 0 0 0 0 15.504457
-7.5699358 8.8428192 -1.1336569 0 0 0 0 15.519299
-9.0066175 8.2615738 -0.18792872 0 0 0 0 15.573715
-9.0162401 8.2799978 -0.51392925 0 0 0 0 15.588556
-9.2265978 8.0825672 -0.17826599 0 0 0 0 15.593504
-8.9675846 8.223691 -0.84843594 0 0 0 0 15.603397
-9.2422981 8.1019506 -0.51120418 0 0 0 0 15.608345
-9.6022539 8.0348034 -0.17113721 0 0 0 0 15.613292
-8.9193811 8.1893272 -1.214978 0 0 0 0 15.618238
-9.2278738 8.0714626 -0.85538423 0 0 0 0 15.623186
-9.5296278 7.9686022 -0.51289392 0 0 0 0 15.628133
-9.6143551 7.6808114 -0.15945105 0 0 0 0 15.63308
-9.3386497 8.1712799 -1.2514292 0 0 0 0 15.638026
-9.4720373 7.8953166 -0.86147279 0 0 0 0 15.642974
-9.5537434 7.620554 -0.50008667 0 0 0 0 15.647921
-9.6415596 7.3477473 -0.14763851 0 0 0 0 15.652867
-9.3988295 7.8340549 -1.2402449 0 0 0 0 15.657815
-9.4921122 7.5412903 -0.84769917 0 0 0 0 15.662762
-9.5739145 7.2805243 -0.48833871 0 0 0 0 15.667708
-9.6547966 7.0177488 -0.13698596 0 0 0 0 15.672656
-9.4178419 7.4700356 -1.2254648 0 0 0 0 15.677603
-9.5072298 7.1952882 -0.8339957 0 0 0 0 15.682549
-9.5951366 6.950489 -0.47659874 0 0 0 0 15.687497
-9.6841421 6.7096729 -0.12619805 0 0 0 0 15.692444
-9.429903 7.1170521 -1.209782 0 0 0 0 15.697391
-9.5364656 6.8662133 -0.82317001 0 0 0 0 15.702337
-9.6154423 6.6324553 -0.46689186 0 0 0 0 15.707285
-9.6944647 6.3936872 -0.11660534 0 0 0 0 15.712232
-9.4611349 6.7899694 -1.1979381 0 0 0 0 15.717178
-9.5527191 6.5422025 -0.81149662 0 0 0 0 15.722126
-9.6287479 6.3154573 -0.45626464 0 0 0 0 15.727073
-9.7269297 6.1045938 -0.10782062 0 0 0 0 15.732019
-9.4873857 6.4659114 -1.1861554 0 0 0 0 15.736967
-9.5700407 6.2291856 -0.80083269 0 0 0 0 15.741914
-9.6571779 6.0193834 -0.44751149 0 0 0 0 15.746861
-9.5086842 6.150877 -1.1744446 0 0 0 0 15.756755
-9.5813675 5.9161973 -0.79023558 0 0 0 0 15.761702
-10.430382 -6.7561712 -0.45518243 0 0 0 0 16.217773
-10.271979 -7.211628 -1.1831746 0 0 0 0 16.227669
-10.335239 -7.1492705 -0.80261803 0 0 0 0 16.232615
-10.399969 -7.0799894 -0.46306038 0 0 0 0 16.23756
-10.458703 -7.0056767 -0.12157525 0 0 0 0 16.242508
-10.300301 -7.6067319 -1.1973068 0 0 0 0 16.247456
-10.367591 -7.5363917 -0.81572211 0 0 0 0 16.252403
-10.416393 -7.4480329 -0.4743669 0 0 0 0 16.257351
-10.473187 -7.3617115 -0.13292377 0 0 0 0 16.262297
-10.326394 -8.0119066 -1.2183161 0 0 0 0 17.274374
-10.387928 -7.9265518 -0.83384901 0 0 0 0 17.27932
-10.451894 -7.843277 -0.49335685 0 0 0 0 17.284267
-10.50493 -7.7399516 -0.15100679 0 0 0 0 17.289215
-10.341722 -8.4329453 -1.233593 0 0 0 0 17.294163
-10.40414 -8.332655 -0.8497327 0 0 0 0 17.299109
-10.465222 -8.2353563 -0.50830811 0 0 0 0 17.304054
-10.525312 -8.1320515 -0.16490348 0 0 0 0 17.309002
-10.373716 -8.881135 -1.2532349 0 0 0 0 17.31395
-10.427423 -8.7647285 -0.86491263 0 0 0 0 17.318897
-10.485568 -8.649415 -0.52154744 0 0 0 0 17.323845
-10.544724 -8.5321064 -0.1781759 0 0 0 0 17.328791
-10.382928 -9.3341503 -1.2705195 0 0 0 0 17.333736
-10.451651 -9.2128086 -0.88105899 0 0 0 0 17.338684
-10.511831 -9.0905037 -0.53768623 0 0 0 0 17.343632
-10.566076 -8.9511709 -0.19339988 0 0 0 0 17.348579
-10.404054 -9.8122206 -1.2896481 0 0 0 0 17.353527
-10.471801 -9.6818714 -0.89821273 0 0 0 0 17.358473
-10.511123 -9.521471 -0.55210739 0 0 0 0 17.363419
-10.583346 -9.3902187 -0.20863272 0 0 0 0 17.368366
-10.417114 -10.306256 -1.3088312 0 0 0 0 17.373314
-10.504856 -10.177995 -0.917198 0 0 0 0 17.378262
-10.563151 -10.026678 -0.57189304 0 0 0 0 17.383207
-10.610543 -9.8513126 -0.22573434 0 0 0 0 17.388155
-10.446023 -10.847368 -1.3327843 0 0 0 0 17.393101
-10.532834 -10.695096 -0.93720078 0 0 0 0 17.398048
-10.595185 -10.529797 -0.59088004 0 0 0 0 17.402996
-10.642642 -10.338429 -0.24374767 0 0 0 0 17.407944
-10.333335 -11.255835 -1.3393375 0 0 0 0 17.412889
-10.57066 -11.255245 -0.96003932 0 0 0 0 17.417835
-10.625129 -11.056906 -0.61085045 0 0 0 0 17.422783
-10.656715 -10.834469 -0.26292425 0 0 0 0 17.427731
-9.9216795 -11.338937 -1.3083323 0 0 0 0 17.432678
-10.156168 -11.333357 -0.94307256 0 0 0 0 17.437626
-10.436874 -11.374048 -0.62029046 0 0 0 0 17.442572
-10.686647 -11.368581 -0.28388622 0 0 0 0 17.447517
-9.8702087 -11.547052 -0.93762475 0 0 0 0 17.457413
-10.025535 -11.447199 -0.61629432 0 0 0 0 17.46236
-10.259536 -11.421686 -0.29407871 0 0 0 0 17.467308
-9.8262033 -12.060843 -0.95633119 0 0 0 0 17.4772
-9.996706 -11.652515 -0.30837634 0 0 0 0 17.487095
-9.4317093 -12.145056 -0.94113857 0 0 0 0 17.496988
-10.008551 -12.216557 -0.33246198 0 0 0 0 17.506882
-8.9556713 -12.106907 -0.91892618 0 0 0 0 17.516777
-8.364789 -12.131779 -0.62582731 0 0 0 0 17.561298
-8.0025349 -12.195172 -0.62532163 0 0 0 0 17.581089
-7.6810822 -12.31375 -0.62832469 0 0 0 0 17.600876
-7.0004883 -12.236134 -0.84408271 0 0 0 0 17.615717
-7.0964789 -12.196787 -0.40233609 0 0 0 0 17.645399
-5.6609349 -11.515535 -0.98627675 0 0 0 0 17.650345
-6.7792683 -12.284411 -0.41632658 0 0 0 0 17.665186
-5.3396015 -11.551093 -0.9653703 0 0 0 0 17.670134
-5.5825782 -11.568803 -0.76001936 0 0 0 0 17.675081
-5.0005007 -11.523573 -0.94072866 0 0 0 0 17.689922
-5.244575 -11.548306 -0.74835837 0 0 0 0 17.694868
-5.4759393 -11.566029 -0.58312374 0 0 0 0 17.699816
-4.6892457 -11.543183 -0.92073625 0 0 0 0 17.709709
-4.9185076 -11.544868 -0.7375474 0 0 0 0 17.714657
-5.1400375 -11.54456 -0.5814383 0 0 0 0 17.719604
-5.3983564 -11.59141 -0.42390266 0 0 0 0 17.72455
-4.3750343 -11.552785 -0.90078092 0 0 0 0 17.729498
-4.6103778 -11.560512 -0.72852653 0 0 0 0 17.734446
-4.8339849 -11.56723 -0.58338857 0 0 0 0 17.739391
-5.0616221 -11.55796 -0.43423915 0 0 0 0 17.744339
-4.0773573 -11.580705 -0.88307154 0 0 0 0 17.536625
-4.320652 -11.619493 -0.72166139 0 0 0 0 17.541571
-4.5285215 -11.577166 -0.58372879 0 0 0 0 17.546516
-4.7601829 -11.580938 -0.44449216 0 0 0 0 17.551464
-3.7731962 -11.580339 -0.864061 0 0 0 0 17.556412
-4.0155854 -11.620139 -0.71266049 0 0 0 0 17.561359
-4.2433395 -11.633918 -0.58744645 0 0 0 0 17.566307
-4.4573007 -11.586626 -0.45646632 0 0 0 0 17.571253
-3.5342767 -11.791284 -0.86006963 0 0 0 0 17.576199
-3.720469 -11.636835 -0.70553017 0 0 0 0 17.581146
-3.9344308 -11.618564 -0.58750361 0 0 0 0 17.586094
-4.1663136 -11.616367 -0.46827939 0 0 0 0 17.591042
-3.4866006 -11.856817 -0.71047223 0 0 0 0 17.600935
-3.659225 -11.685368 -0.59309524 0 0 0 0 17.605881
-3.8615079 -11.602052 -0.47929034 0 0 0 0 17.610828
-3.4254413 -11.904366 -0.60603482 0 0 0 0 17.625669
-3.6219935 -11.772034 -0.49836668 0 0 0 0 17.630617
-2.654686 -12.412069 -0.63973129 0 0 0 0 17.685034
1.137754 -12.566053 -0.72570533 0 0 0 0 17.942278
1.8588676 -12.113853 -0.6202113 0 0 0 0 17.952171
1.8732164 -10.582655 -0.53477025 0 0 0 0 17.97196
1.6507207 -10.554651 -0.57271916 0 0 0 0 17.976906
2.4247582 -12.053466 -0.5985868 0 0 0 0 17.991747
1.8955867 -10.524631 -0.57104838 0 0 0 0 17.996695
1.699049 -10.542557 -0.63417202 0 0 0 0 18.001642
