# .PCD v0.7 - Point Cloud Data file format
VERSION 0.7
FIELDS x y z normal_x normal_y normal_z intensity curvature
SIZE 4 4 4 4 4 4 4 4
TYPE F F F F F F F F
COUNT 1 1 1 1 1 1 1 1
WIDTH 963
HEIGHT 1
VIEWPOINT 0 0 0 1 0 0 0
POINTS 963
DATA ascii
14.057389 -13.758159 3.6016128 0 0 0 0 17.834044
13.926746 -13.917036 3.0735726 0 0 0 0 17.838991
13.71787 -14.04057 2.5213118 0 0 0 0 17.843939
14.637146 -13.390744 4.1883187 0 0 0 0 17.848886
14.478586 -13.549902 3.6212187 0 0 0 0 17.853834
14.338761 -13.682869 3.0811198 0 0 0 0 17.858782
14.155921 -13.809204 2.5219188 0 0 0 0 17.863726
15.049271 -13.174558 4.2148933 0 0 0 0 17.868673
14.891605 -13.317723 3.636771 0 0 0 0 17.873621
14.768791 -13.450562 3.0907083 0 0 0 0 17.878569
12.140647 -11.293906 2.0968676 0 0 0 0 17.883516
15.452303 -12.94645 4.2414303 0 0 0 0 17.888464
15.313628 -13.086474 3.6563442 0 0 0 0 17.893408
15.19174 -13.208316 3.103267 0 0 0 0 17.898355
13.048548 -11.566681 2.1912351 0 0 0 0 17.903303
15.870369 -12.723225 4.2730074 0 0 0 0 17.908251
15.73862 -12.851207 3.6779177 0 0 0 0 17.913198
15.626692 -12.965981 3.1168511 0 0 0 0 17.918146
13.628978 -11.515141 2.2304173 0 0 0 0 17.92309
15.175142 -11.630249 4.0059061 0 0 0 0 17.928038
16.127333 -12.578248 3.6903572 0 0 0 0 17.932985
16.061523 -12.707656 3.1294112 0 0 0 0 17.937933
15.948742 -12.835466 2.5473621 0 0 0 0 17.942881
14.759958 -10.814922 3.82582 0 0 0 0 17.947824
15.163592 -11.286424 3.3973877 0 0 0 0 17.952772
15.41024 -11.625215 2.9354219 0 0 0 0 17.95772
16.377337 -12.544211 2.5508597 0 0 0 0 17.962667
14.609432 -10.22639 3.7206392 0 0 0 0 17.967615
14.665968 -10.415732 3.2230446 0 0 0 0 17.972563
14.973591 -10.758999 2.7902157 0 0 0 0 17.977507
15.44949 -11.260956 2.3479822 0 0 0 0 17.982454
15.644734 -10.450066 3.916203 0 0 0 0 17.987402
14.842043 -10.049501 3.2008939 0 0 0 0 17.99235
14.880075 -10.178968 2.7161705 0 0 0 0 17.997297
15.460157 -10.710075 2.2962024 0 0 0 0 18.002245
16.082964 -10.246684 3.9598541 0 0 0 0 18.007189
16.193588 -10.438653 3.4293783 0 0 0 0 18.012136
15.291152 -9.9498272 2.737726 0 0 0 0 18.017084
15.557422 -10.237492 2.260725 0 0 0 0 18.022032
14.74545 -8.9509134 3.5710883 0 0 0 0 18.026979
14.899485 -9.2092142 2.6148071 0 0 0 0 18.036871
15.140346 -9.4490557 2.1516807 0 0 0 0 18.041819
11.213035 -6.5752931 1.9240438 0 0 0 0 18.056662
14.776873 -8.7391729 2.0578692 0 0 0 0 18.061605
14.463238 -8.0034056 2.9081209 0 0 0 0 18.071501
10.650089 -5.9199915 1.7948928 0 0 0 0 18.076448
14.013996 -7.3065124 3.2411449 0 0 0 0 18.086344
11.931539 -6.2551789 2.3561442 0 0 0 0 18.091288
10.778097 -5.6690903 1.7868178 0 0 0 0 18.096235
14.138118 -7.4726605 1.8946671 0 0 0 0 18.101183
7.9733882 -3.9410453 1.8062848 0 0 0 0 18.106131
12.086482 -5.9970751 2.3511155 0 0 0 0 18.111078
10.621074 -5.2744918 1.7309222 0 0 0 0 18.116026
13.854744 -6.9040985 1.8242408 0 0 0 0 18.12097
7.9727535 -3.7291539 1.7819965 0 0 0 0 18.125917
7.9763713 -3.7375381 1.5190227 0 0 0 0 18.130865
8.0471067 -3.7683554 1.2842252 0 0 0 0 18.135813
8.089509 -3.5733066 1.7840422 0 0 0 0 18.145708
8.1101198 -3.5815535 1.5241044 0 0 0 0 18.150652
8.2309275 -3.6229713 1.2954292 0 0 0 0 18.1556
8.6464701 -3.5958829 1.8832908 0 0 0 0 18.165495
8.7282362 -3.6226597 1.6195107 0 0 0 0 18.170443
8.9282198 -3.6854682 1.3870357 0 0 0 0 18.175386
8.8363028 -3.4534502 1.9015119 0 0 0 0 18.185282
8.9009304 -3.4603732 1.6296659 0 0 0 0 18.190229
8.9845238 -3.4681201 1.3768613 0 0 0 0 18.195177
11.447321 -4.1859527 2.4408493 0 0 0 0 17.937117
8.2919102 -3.0113444 1.4973561 0 0 0 0 17.942064
8.4525871 -3.0374248 1.2767446 0 0 0 0 17.947012
11.726419 -4.1803503 1.427453 0 0 0 0 17.951956
8.4232607 -2.8769505 1.7684586 0 0 0 0 17.956903
8.2932777 -2.8024311 1.4790758 0 0 0 0 17.961851
8.4288158 -2.8107128 1.2573841 0 0 0 0 17.966799
10.154191 -3.3461759 1.2158754 0 0 0 0 17.971746
11.066231 -3.5143602 2.3050852 0 0 0 0 17.976694
11.123687 -3.4824347 1.9701658 0 0 0 0 17.981638
8.6966877 -2.6756327 1.2827835 0 0 0 0 17.986586
10.152435 -2.9819834 2.088366 0 0 0 0 17.996481
11.102505 -3.201736 1.943729 0 0 0 0 18.001429
10.966389 -3.0973394 1.6062884 0 0 0 0 18.006372
9.9121723 -2.6790688 2.0174294 0 0 0 0 18.016268
10.909083 -2.8834343 1.8898689 0 0 0 0 18.021215
11.673478 -3.0047367 1.6936878 0 0 0 0 18.026163
8.8206234 -2.2192199 1.0184321 0 0 0 0 18.031111
11.616034 -2.8712616 2.344382 0 0 0 0 18.036055
11.4459 -2.7531941 1.9648486 0 0 0 0 18.041002
8.5764275 -1.9978858 1.2246038 0 0 0 0 18.04595
9.2565603 -2.0948055 1.0602067 0 0 0 0 18.050898
9.1506176 -2.0545142 1.8229301 0 0 0 0 18.055845
8.4536905 -1.833598 1.4291201 0 0 0 0 18.060793
9.0564623 -1.8901006 1.2834975 0 0 0 0 18.065737
8.4732122 -1.7111382 1.6700025 0 0 0 0 18.075632
8.6463871 -1.6731279 1.4493221 0 0 0 0 18.08058
11.18726 -2.0630231 1.5773309 0 0 0 0 18.085527
10.07737 -1.8071802 1.973598 0 0 0 0 18.095419
9.920125 -1.6899151 1.6520946 0 0 0 0 18.100367
11.012015 -1.7685481 1.5395477 0 0 0 0 18.105314
9.9575291 -1.5622691 1.9310073 0 0 0 0 18.11521
10.851126 -1.5974988 1.7939725 0 0 0 0 18.120153
10.879869 -1.4877224 1.5088772 0 0 0 0 18.125101
10.702344 -1.4433352 2.0604484 0 0 0 0 18.134996
10.7091 -1.3297589 1.7563006 0 0 0 0 18.139944
10.729792 -1.2150345 1.478181 0 0 0 0 18.144892
10.562468 -1.1925857 2.0168068 0 0 0 0 18.154783
10.576169 -1.0739425 1.7206665 0 0 0 0 18.159731
10.117567 -0.90705061 1.3824478 0 0 0 0 18.164679
10.437645 -0.94871193 1.9762081 0 0 0 0 18.174574
10.447283 -0.82408792 1.6880506 0 0 0 0 18.179518
10.092743 -0.67034769 1.3710736 0 0 0 0 18.184465
10.324884 -0.71373445 1.9406489 0 0 0 0 18.194361
10.314443 -0.57926327 1.6544341 0 0 0 0 18.199308
10.313953 -0.44567558 1.394242 0 0 0 0 18.204256
10.195153 -0.48089302 1.9010571 0 0 0 0 18.214148
10.184678 -0.34440801 1.6238395 0 0 0 0 18.219095
9.9701309 -0.19752073 1.3401718 0 0 0 0 18.224043
10.082485 -0.25690922 1.8665153 0 0 0 0 18.233938
10.082947 -0.11432485 1.5983123 0 0 0 0 18.238882
9.7684107 0.032776713 1.3074316 0 0 0 0 18.24383
9.9688635 -0.038927823 1.8339809 0 0 0 0 18.253725
9.9242697 0.11130411 1.5636709 0 0 0 0 18.258673
9.6057577 0.25339013 1.2807895 0 0 0 0 18.263617
9.8592825 0.17408842 1.8024629 0 0 0 0 18.273512
9.7876463 0.32911596 1.5350884 0 0 0 0 18.27846
9.8318825 0.49010289 1.3079522 0 0 0 0 18.283407
9.7557116 0.38615477 1.7719597 0 0 0 0 18.293299
9.7269926 0.54853582 1.5176659 0 0 0 0 18.298246
8.4802465 0.61926693 1.1219143 0 0 0 0 18.303194
8.0200024 0.7193045 0.8657943 0 0 0 0 18.308142
9.6461878 0.59217829 1.7424531 0 0 0 0 18.313089
9.6114292 0.75852233 1.4941409 0 0 0 0 18.318037
8.7044935 0.8409726 1.1500961 0 0 0 0 18.322981
8.0424938 0.91541624 0.8695848 0 0 0 0 18.327929
9.5326948 0.79517168 1.711943 0 0 0 0 18.332876
9.4929008 0.96448648 1.4696161 0 0 0 0 18.337824
8.1565895 0.97854954 1.0747589 0 0 0 0 18.342772
9.428236 0.99324125 1.6844598 0 0 0 0 18.352663
6.2493482 0.77758139 0.9550209 0 0 0 0 18.357611
6.1868105 0.8878687 0.8077333 0 0 0 0 18.362558
6.3357887 0.80744851 1.1181855 0 0 0 0 18.372454
9.2859011 1.3686651 1.428643 0 0 0 0 18.377398
6.1167941 1.0242624 0.79841638 0 0 0 0 18.382345
9.2273836 1.3814541 1.6335238 0 0 0 0 18.392241
6.3689752 1.0864192 0.96988612 0 0 0 0 18.397188
6.12467 1.1722741 0.80024827 0 0 0 0 18.402136
9.1180115 1.5704675 1.6070544 0 0 0 0 18.417952
6.2081494 1.204069 0.94241369 0 0 0 0 18.422895
9.0230007 1.9470909 1.1923141 0 0 0 0 18.427843
9.0156775 1.7535655 1.5825998 0 0 0 0 18.437738
8.9616365 1.947822 1.3712071 0 0 0 0 18.442686
7.6741776 1.8413793 1.0126349 0 0 0 0 18.447634
8.5480747 1.8577656 1.4944849 0 0 0 0 18.457525
7.609942 1.8340507 1.1595339 0 0 0 0 18.462473
8.8161278 2.3343146 1.1693708 0 0 0 0 18.467421
7.2424593 1.7403253 1.2589154 0 0 0 0 18.477316
7.2174735 1.913885 1.0986158 0 0 0 0 18.48226
6.7076917 1.9426497 0.88649863 0 0 0 0 18.487207
8.055172 2.5339985 0.90450209 0 0 0 0 18.492155
7.7190733 2.0350354 1.3395287 0 0 0 0 18.497103
6.6884856 1.9366469 1.0154918 0 0 0 0 18.50205
8.0079298 2.5238218 1.0674418 0 0 0 0 18.506998
6.9087911 2.3569632 0.77836013 0 0 0 0 18.511942
6.6344647 1.9063774 1.1444466 0 0 0 0 18.51689
7.976768 2.5067494 1.2174257 0 0 0 0 18.521837
6.9005394 2.3540609 0.9193722 0 0 0 0 18.526785
7.8515368 2.8892915 0.89561594 0 0 0 0 18.531733
7.942718 2.4736619 1.3724271 0 0 0 0 18.53668
7.8905249 2.6770036 1.2050266 0 0 0 0 18.541624
7.8223643 2.8722444 1.0516044 0 0 0 0 18.546572
7.7173414 3.0521889 0.88812631 0 0 0 0 18.551519
7.8724995 2.6410377 1.3590662 0 0 0 0 18.556467
5.6708679 2.0674758 0.8602404 0 0 0 0 18.561415
7.7211409 3.0393929 1.0431787 0 0 0 0 18.566359
6.9065313 2.9218063 0.80163014 0 0 0 0 18.571306
5.6628728 2.039536 0.96928984 0 0 0 0 18.576254
7.6961336 3.0063486 1.1791993 0 0 0 0 18.581202
6.9093852 2.9069808 0.93768358 0 0 0 0 18.586149
8.1225939 3.6682513 0.9571535 0 0 0 0 18.591097
6.7721987 2.608228 1.1628463 0 0 0 0 18.596041
7.6687202 3.1970739 1.1788963 0 0 0 0 18.600988
8.1015673 3.6332612 1.1111858 0 0 0 0 18.605936
8.0321846 3.8584967 0.958718 0 0 0 0 18.610884
7.6080241 3.1247487 1.3088988 0 0 0 0 18.615831
6.7734823 3.0049922 1.0413119 0 0 0 0 18.620779
8.0032434 3.8144364 1.105747 0 0 0 0 18.625723
5.9409642 3.0321538 0.71152371 0 0 0 0 18.630671
6.7586689 2.9510064 1.1603851 0 0 0 0 18.635618
6.8916316 3.2478669 1.0642422 0 0 0 0 18.640566
6.4548769 3.2622879 0.89430374 0 0 0 0 18.645514
7.8095183 4.2216673 0.95678502 0 0 0 0 18.650461
6.5541205 3.0373433 1.1248596 0 0 0 0 18.655405
6.4500036 3.2203596 0.99938053 0 0 0 0 18.660353
7.8056002 4.1767883 1.0968684 0 0 0 0 18.6653
7.6673441 4.3835173 0.95328259 0 0 0 0 18.670248
6.4113946 3.1441705 1.1014357 0 0 0 0 18.675196
5.8283072 3.0774496 0.9043057 0 0 0 0 18.68014
7.6963468 4.3498859 1.0914195 0 0 0 0 18.685087
7.5948415 4.5869122 0.95886773 0 0 0 0 18.690035
5.8534641 3.0327454 1.0044502 0 0 0 0 18.694983
7.7155118 4.2991552 1.2135602 0 0 0 0 18.69993
7.6060047 4.5341349 1.0899947 0 0 0 0 18.704878
7.5004611 4.7751393 0.96242905 0 0 0 0 18.709822
7.7089605 4.211226 1.3337005 0 0 0 0 18.714769
7.6063108 4.4672489 1.2031192 0 0 0 0 18.719717
7.5017056 4.7132788 1.0875484 0 0 0 0 18.724665
7.3901544 4.9542465 0.96497029 0 0 0 0 18.729612
7.6167355 4.3834438 1.3202894 0 0 0 0 18.73456
7.5050759 4.6394086 1.1956894 0 0 0 0 18.739504
7.391458 4.8863778 1.0840986 0 0 0 0 18.744452
7.2937489 5.1464639 0.96952236 0 0 0 0 18.749399
7.5215268 4.5536423 1.3078754 0 0 0 0 18.754347
7.4008389 4.8125467 1.1872524 0 0 0 0 18.759295
7.2961311 5.0695963 1.0836661 0 0 0 0 18.764242
7.1864147 5.3296003 0.97406495 0 0 0 0 18.769186
7.4253159 4.724834 1.2944583 0 0 0 0 18.774134
7.3065462 4.9927654 1.1818266 0 0 0 0 18.779081
7.194808 5.2527714 1.0832214 0 0 0 0 18.784029
7.0760689 5.5147161 0.97859883 0 0 0 0 18.788977
7.3440313 4.9051452 1.2850598 0 0 0 0 18.793921
7.2062945 5.1679416 1.1763959 0 0 0 0 18.798868
7.0875111 5.4329033 1.0827689 0 0 0 0 18.803816
6.9677243 5.6998501 0.98413724 0 0 0 0 18.808764
7.2378621 5.0712662 1.2726297 0 0 0 0 18.813711
7.1100154 5.3471494 1.1709682 0 0 0 0 18.818659
6.9891901 5.6161075 1.0843315 0 0 0 0 18.823603
6.8653269 5.8920345 0.99167854 0 0 0 0 18.82855
7.1396623 5.2414522 1.2622111 0 0 0 0 18.833498
7.0107355 5.5263391 1.1675345 0 0 0 0 18.838446
6.8848433 5.803268 1.085876 0 0 0 0 18.843393
6.7549644 6.0801587 0.99820936 0 0 0 0 18.848341
7.0533581 5.4257317 1.2527975 0 0 0 0 18.853285
6.9134374 5.7085462 1.1641011 0 0 0 0 18.858232
6.7755466 5.9843922 1.0864192 0 0 0 0 18.86318
6.6405969 6.2692571 1.0057306 0 0 0 0 18.868128
6.9561243 5.6009297 1.2433745 0 0 0 0 18.873075
6.8081517 5.8896928 1.1596527 0 0 0 0 18.878023
6.6731777 6.1745763 1.0909644 0 0 0 0 18.882967
6.5331779 6.4654107 1.014257 0 0 0 0 18.887915
6.8489094 5.7710838 1.2330606 0 0 0 0 19.50445
6.7138782 6.0770006 1.1593527 0 0 0 0 19.509398
6.5709419 6.3668752 1.0956511 0 0 0 0 19.514345
6.4130673 6.6506324 1.023927 0 0 0 0 19.519293
6.7586541 5.956368 1.2266452 0 0 0 0 19.524237
6.6026492 6.2581406 1.1558995 0 0 0 0 19.529184
6.4536753 6.5519824 1.0981801 0 0 0 0 19.534132
6.3046484 6.8548179 1.0354481 0 0 0 0 19.53908
6.6554365 6.1375585 1.2182089 0 0 0 0 19.544027
6.4973745 6.4453292 1.1554508 0 0 0 0 19.548975
6.349298 6.7521882 1.1037153 0 0 0 0 19.553919
6.1942053 7.0629907 1.0469595 0 0 0 0 19.558867
6.553205 6.3207593 1.210772 0 0 0 0 19.563814
6.3980293 6.6425648 1.1560007 0 0 0 0 19.568762
6.2389441 6.9493546 1.1102426 0 0 0 0 19.573709
6.0659108 7.2510357 1.0574628 0 0 0 0 19.578657
6.4569106 6.5130062 1.2043355 0 0 0 0 19.583601
6.2827597 6.8306828 1.1535306 0 0 0 0 19.588549
6.1206179 7.143465 1.1157582 0 0 0 0 19.593496
5.9553852 7.4712157 1.0709581 0 0 0 0 19.598444
6.3476796 6.6971607 1.1968837 0 0 0 0 19.603392
6.1704578 7.0228295 1.1540616 0 0 0 0 19.608335
6.0022306 7.3465772 1.1212612 0 0 0 0 19.613283
5.8398714 7.6893663 1.0874465 0 0 0 0 19.618231
6.2413764 6.8913417 1.1914243 0 0 0 0 19.623178
6.0610795 7.2260003 1.1555834 0 0 0 0 19.628126
5.8798647 7.5466657 1.1287607 0 0 0 0 19.633074
5.3421907 7.390676 1.0278656 0 0 0 0 19.638018
6.1390309 7.0915537 1.186965 0 0 0 0 19.642965
5.9467044 7.4291377 1.1570954 0 0 0 0 19.647913
5.5198069 7.4359889 1.0882022 0 0 0 0 19.652861
5.152534 7.4932809 1.0283626 0 0 0 0 19.657808
6.0296712 7.2947168 1.1814874 0 0 0 0 19.662756
5.6807556 7.4401536 1.1295619 0 0 0 0 19.6677
5.240108 7.4109159 1.0636913 0 0 0 0 19.672647
5.0548496 7.7355738 1.0478555 0 0 0 0 19.677595
5.9193039 7.4988775 1.1780069 0 0 0 0 19.682543
5.4158659 7.4431801 1.1010423 0 0 0 0 19.68749
5.0960317 7.5718551 1.0682018 0 0 0 0 19.692438
4.7455983 7.6472979 1.0243725 0 0 0 0 19.697382
5.5890584 7.4164114 1.1304711 0 0 0 0 19.70233
5.174849 7.4623904 1.07855 0 0 0 0 19.707277
4.9706945 7.7689371 1.076701 0 0 0 0 19.712225
4.3871574 7.4486551 0.98594224 0 0 0 0 19.717173
5.3202915 7.4044046 1.0939647 0 0 0 0 19.722116
5.0654211 7.6735797 1.0830626 0 0 0 0 19.727064
4.6012611 7.5712075 1.0312465 0 0 0 0 19.732012
4.0545478 7.2722087 0.95153481 0 0 0 0 19.736959
5.1436362 7.5120864 1.0784826 0 0 0 0 19.741907
4.8372803 7.7098932 1.0635738 0 0 0 0 19.746855
4.2518053 7.3756285 0.98783088 0 0 0 0 19.751799
3.7360177 7.083869 0.91817355 0 0 0 0 19.756746
5.0470557 7.7463651 1.07999 0 0 0 0 19.761694
4.4699402 7.5001764 1.0121406 0 0 0 0 19.766642
3.9272327 7.1952362 0.94744569 0 0 0 0 19.771589
2.7613049 5.5536189 0.7073285 0 0 0 0 19.776537
4.7299976 7.6370134 1.0335207 0 0 0 0 19.781481
4.1314268 7.3136749 0.96373504 0 0 0 0 19.786428
3.6245635 7.0270114 0.91108936 0 0 0 0 19.791376
2.6644006 5.6869311 0.71897715 0 0 0 0 19.796324
4.3746052 7.4353824 0.97810102 0 0 0 0 19.801271
3.8188007 7.1413693 0.92036355 0 0 0 0 19.806219
2.7014353 5.5511494 0.704274 0 0 0 0 19.811163
2.5949702 5.8924541 0.74058223 0 0 0 0 19.816111
4.0549488 7.2690191 0.92870653 0 0 0 0 19.821058
3.5320332 6.9872594 0.88202047 0 0 0 0 19.826006
2.6370227 5.7557006 0.72089094 0 0 0 0 19.830954
2.5254061 6.116981 0.76416075 0 0 0 0 19.835897
3.7493114 7.0987649 0.88234675 0 0 0 0 19.840845
2.6780801 5.6209254 0.69119447 0 0 0 0 19.845793
2.5705326 5.971242 0.73948848 0 0 0 0 19.85074
2.4595833 6.3775434 0.79269701 0 0 0 0 19.855688
2.7647543 5.5394764 0.66551822 0 0 0 0 19.860636
2.6146586 5.8284793 0.70380968 0 0 0 0 19.86558
2.4999371 6.2017584 0.76005691 0 0 0 0 19.870527
2.3847704 6.6370444 0.82221663 0 0 0 0 19.875475
2.6767814 5.6868386 0.66516656 0 0 0 0 19.880423
2.5471599 6.047009 0.71840137 0 0 0 0 19.88537
2.4380345 6.4753456 0.78558373 0 0 0 0 19.890318
2.7931974 8.3802328 1.0396665 0 0 0 0 19.895262
2.6133516 5.897388 0.67377794 0 0 0 0 19.900209
2.4745746 6.2785048 0.73296481 0 0 0 0 19.905157
2.5238626 7.2010565 0.86678612 0 0 0 0 19.910105
2.5802488 8.3857145 1.0362558 0 0 0 0 19.915052
2.5418715 6.115881 0.68136191 0 0 0 0 19.92
2.4047966 6.5370274 0.75149679 0 0 0 0 19.924944
2.7086933 8.3435383 0.99761307 0 0 0 0 19.929892
1.6838568 5.9649363 0.7278145 0 0 0 0 19.934839
2.4870319 6.3845024 0.69591087 0 0 0 0 19.939787
2.8783967 8.407649 0.95890754 0 0 0 0 19.944735
1.787918 5.9716129 0.70105129 0 0 0 0 19.949682
1.5125887 5.8727064 0.71462584 0 0 0 0 19.954626
2.4524653 6.7552824 0.72035986 0 0 0 0 19.959574
2.6449254 8.3499651 0.93754256 0 0 0 0 19.964521
1.6262896 5.9304547 0.68981129 0 0 0 0 19.969469
1.3463485 5.7765131 0.70045322 0 0 0 0 19.974417
2.8316891 8.396493 0.87938738 0 0 0 0 19.732367
1.7314371 5.9543147 0.65053654 0 0 0 0 19.737314
1.4562261 5.8373942 0.67313606 0 0 0 0 19.742262
1.1823746 5.6724687 0.68580598 0 0 0 0 19.747206
2.6246703 8.4159794 0.86196828 0 0 0 0 19.752153
1.5679504 5.8951197 0.63431752 0 0 0 0 19.757101
1.2900227 5.7381806 0.65596771 0 0 0 0 19.762049
1.0339265 5.6053958 0.6766296 0 0 0 0 19.766996
1.7046611 5.9570107 0.58854526 0 0 0 0 19.771944
1.4007158 5.8008962 0.61514002 0 0 0 0 19.776888
1.1356628 5.660058 0.6417945 0 0 0 0 19.781836
0.88943249 5.5443549 0.66845298 0 0 0 0 19.786783
1.5304631 5.8587322 0.56535894 0 0 0 0 19.791731
1.2403764 5.7207274 0.59795719 0 0 0 0 19.796679
0.98533446 5.5769687 0.62863666 0 0 0 0 19.801626
0.74805415 5.4673352 0.65830535 0 0 0 0 19.80657
1.3661792 5.7715316 0.5451777 0 0 0 0 19.811518
1.0841289 5.6275892 0.57980114 0 0 0 0 19.816465
0.84091091 5.5069251 0.6164729 0 0 0 0 19.821413
0.61261868 5.3973651 0.65116024 0 0 0 0 19.826361
1.2039542 5.6763453 0.52301198 0 0 0 0 19.831305
0.93869543 5.559536 0.56563246 0 0 0 0 19.836252
0.70249075 5.4359283 0.60532302 0 0 0 0 19.8412
0.48940527 5.4345021 0.65589046 0 0 0 0 19.846148
1.0516275 5.5942373 0.50484866 0 0 0 0 19.851095
0.79525149 5.4925013 0.55246651 0 0 0 0 19.856043
0.56706917 5.3649549 0.59417939 0 0 0 0 19.860987
0.37519404 5.6087337 0.67844743 0 0 0 0 19.865934
0.90515471 5.532177 0.4886694 0 0 0 0 19.870882
0.6559155 5.4104943 0.53733015 0 0 0 0 19.87583
0.45310146 5.5071745 0.60778177 0 0 0 0 19.880777
0.25570059 5.8219399 0.70693934 0 0 0 0 19.885725
0.76281565 5.4511466 0.47152534 0 0 0 0 19.890669
0.527013 5.4065781 0.53110617 0 0 0 0 19.895617
0.33773702 5.7043982 0.62830466 0 0 0 0 19.900564
0.12621139 6.0350776 0.73541093 0 0 0 0 19.905512
0.62444496 5.3741479 0.45538402 0 0 0 0 19.91046
0.41567537 5.6018209 0.54564029 0 0 0 0 19.915407
0.21322563 5.9225626 0.65077966 0 0 0 0 19.920351
-0.012356644 6.2591591 0.76684886 0 0 0 0 19.925299
0.50861734 5.50034 0.45700538 0 0 0 0 19.930246
0.29624668 5.8100128 0.56213981 0 0 0 0 19.935194
0.079665557 6.1476693 0.67522657 0 0 0 0 19.940142
-0.16211477 6.5101705 0.80122626 0 0 0 0 19.945086
0.39325938 5.7005501 0.4665246 0 0 0 0 19.950033
0.16673848 6.0301366 0.57860219 0 0 0 0 19.954981
-0.063021734 6.3907199 0.70262998 0 0 0 0 19.959929
-0.32510808 6.7940993 0.84053087 0 0 0 0 19.964876
0.26783785 5.9106908 0.4750095 0 0 0 0 19.969824
0.027040498 6.2771969 0.59800625 0 0 0 0 19.974768
-0.2208015 6.6476684 0.72998309 0 0 0 0 19.979715
-0.50112569 7.0819426 0.88080347 0 0 0 0 19.984663
0.13426124 6.1427822 0.48644722 0 0 0 0 19.989611
-0.12170338 6.5311985 0.61838239 0 0 0 0 19.994558
-0.39089647 6.9485445 0.76424998 0 0 0 0 19.999506
-0.69544375 7.4116721 0.92798024 0 0 0 0 20.00445
-0.0094080111 6.3888059 0.49784511 0 0 0 0 20.009398
-0.28542823 6.7830982 0.63873088 0 0 0 0 20.014345
-0.57612842 7.2693219 0.80045825 0 0 0 0 20.019293
-0.85996735 7.3545332 0.92575938 0 0 0 0 20.02424
-0.16631436 6.668746 0.51216871 0 0 0 0 20.029188
-0.46684819 7.1328955 0.66890669 0 0 0 0 20.034132
-0.75892723 7.3910828 0.81394976 0 0 0 0 20.03908
-1.0172205 7.2594404 0.91960657 0 0 0 0 20.044027
-0.33956972 6.9985819 0.53038943 0 0 0 0 20.048975
-0.66088873 7.4305978 0.69312966 0 0 0 0 20.053923
-0.92122293 7.3029518 0.80477673 0 0 0 0 20.058867
-1.1756042 7.1823468 0.91542637 0 0 0 0 20.063814
-0.52886689 7.3353105 0.54856795 0 0 0 0 20.068762
-0.82618743 7.3434439 0.68194902 0 0 0 0 20.073709
-1.0805362 7.2168455 0.79660714 0 0 0 0 20.078657
-1.3279459 7.0992956 0.91026706 0 0 0 0 20.083605
-0.70913941 7.3870645 0.5431627 0 0 0 0 20.088549
-0.98638701 7.2423248 0.66879845 0 0 0 0 20.093496
-1.2368879 7.1357646 0.7894367 0 0 0 0 20.098444
-1.4782431 7.009263 0.90612173 0 0 0 0 20.103392
-0.87546134 7.3039021 0.52897435 0 0 0 0 20.108339
-1.1498175 7.173193 0.65959668 0 0 0 0 20.113287
-1.3891839 7.0467134 0.78128582 0 0 0 0 20.118231
-1.6307114 6.9432216 0.90393847 0 0 0 0 20.123178
-1.0386953 7.2077641 0.51481056 0 0 0 0 20.128126
-1.3050799 7.0801167 0.64844519 0 0 0 0 20.133074
-1.5425317 6.9646587 0.77412301 0 0 0 0 20.138021
-1.7729685 6.847249 0.89881814 0 0 0 0 20.142969
-1.1979657 7.1166563 0.50064796 0 0 0 0 20.147913
-1.4593717 6.9910502 0.63729018 0 0 0 0 20.152861
-1.6908697 6.8806429 0.76797336 0 0 0 0 20.157808
-1.9183209 6.7642598 0.89567333 0 0 0 0 20.162756
-1.3563126 7.0355625 0.48947343 0 0 0 0 20.167704
-1.6107057 6.9070115 0.6291343 0 0 0 0 20.172647
-1.8402455 6.8016243 0.7628147 0 0 0 0 20.177595
-2.0617316 6.6892891 0.89352137 0 0 0 0 20.182543
-1.5136385 6.9514771 0.47730514 0 0 0 0 20.18749
-1.7600327 6.8219881 0.61998397 0 0 0 0 20.192438
-1.9866436 6.7256289 0.757658 0 0 0 0 20.197386
-2.203155 6.6153374 0.89337224 0 0 0 0 20.20233
-1.664855 6.8572268 0.46462193 0 0 0 0 19.951284
-1.9144273 6.7536974 0.61225766 0 0 0 0 19.956232
-2.1330004 6.6523752 0.75295496 0 0 0 0 19.961176
-2.3474908 6.5400782 0.89067602 0 0 0 0 19.966124
-1.8202916 6.7891459 0.45543519 0 0 0 0 19.971071
-2.0617998 6.6756778 0.6051017 0 0 0 0 19.976019
-2.2753134 6.5653944 0.746822 0 0 0 0 19.980967
-2.4858782 6.4621339 0.88953865 0 0 0 0 19.985914
-1.9736559 6.7110796 0.44426671 0 0 0 0 19.990858
-2.2051091 6.5886879 0.59696662 0 0 0 0 19.995806
-2.4136372 6.4794455 0.74169588 0 0 0 0 20.000753
-2.6324141 6.4041419 0.89235651 0 0 0 0 20.005701
-2.1158552 6.6090932 0.43315488 0 0 0 0 20.010649
-2.3504796 6.5096893 0.59081614 0 0 0 0 20.015593
-2.5540292 6.4024878 0.73855299 0 0 0 0 20.02054
-2.8511715 6.514689 0.91878909 0 0 0 0 20.025488
-2.2682843 6.5390429 0.42497721 0 0 0 0 20.030436
-2.4918103 6.4247208 0.58468246 0 0 0 0 20.035383
-2.7839437 6.5369534 0.76092911 0 0 0 0 20.040331
-2.9966435 6.4477091 0.92062193 0 0 0 0 20.045275
-2.4115953 6.4520569 0.41584215 0 0 0 0 20.050222
-2.7237349 6.5631623 0.59904897 0 0 0 0 20.05517
-2.93138 6.4659548 0.75876343 0 0 0 0 20.060118
-3.1359951 6.363771 0.92049122 0 0 0 0 20.065065
-2.6404397 6.5815096 0.42222777 0 0 0 0 20.070013
-2.8700733 6.479166 0.59290373 0 0 0 0 20.074957
-3.0737486 6.3849936 0.75662231 0 0 0 0 20.079905
-3.2723486 6.2798562 0.92036664 0 0 0 0 20.084852
-2.7917931 6.5004749 0.41306794 0 0 0 0 20.0898
-3.0144382 6.3981891 0.58875841 0 0 0 0 20.094748
-3.2150893 6.3000402 0.75348878 0 0 0 0 20.099695
-3.4178336 6.2138853 0.92319822 0 0 0 0 20.104639
-2.942173 6.422452 0.40590596 0 0 0 0 20.109587
-3.1597731 6.3132048 0.58261663 0 0 0 0 20.114534
-3.3574905 6.2230854 0.75234199 0 0 0 0 20.119482
-3.5450618 6.1120353 0.9211176 0 0 0 0 20.12443
-3.0895197 6.3394532 0.39875722 0 0 0 0 20.129374
-3.3031342 6.2312398 0.57847476 0 0 0 0 20.134321
-3.5099869 6.1590672 0.75315624 0 0 0 0 20.139269
-3.6328616 5.9504447 0.91020185 0 0 0 0 20.144217
-3.2398887 6.2594366 0.39159808 0 0 0 0 20.149164
-3.4566176 6.1662107 0.5762884 0 0 0 0 20.154112
-3.652384 6.0811176 0.75201088 0 0 0 0 20.159056
-3.7287941 5.8068047 0.90224409 0 0 0 0 20.164003
-3.391284 6.1824179 0.38643268 0 0 0 0 20.168951
-3.6070385 6.0922041 0.57312083 0 0 0 0 20.173899
-3.795778 6.0021653 0.75186491 0 0 0 0 20.178846
-3.8500724 5.7110038 0.90116721 0 0 0 0 20.183794
-3.5396581 6.1024218 0.38027766 0 0 0 0 20.188738
-3.7493811 6.0062571 0.57098669 0 0 0 0 20.193686
-3.937139 5.9182301 0.75173002 0 0 0 0 20.198633
-3.9844859 5.6331224 0.90503812 0 0 0 0 20.203581
-3.694056 6.0253892 0.3751061 0 0 0 0 20.208529
-3.8927298 5.9213042 0.56784904 0 0 0 0 20.213476
-4.0674019 5.8203697 0.74963748 0 0 0 0 20.21842
-4.1350346 5.5741363 0.91084939 0 0 0 0 20.223368
-3.8393872 5.9384203 0.36996713 0 0 0 0 20.228315
-4.0380869 5.8373404 0.56470591 0 0 0 0 20.233263
-4.19666 5.721519 0.74754834 0 0 0 0 20.238211
-4.2754874 5.5012202 0.91570091 0 0 0 0 20.243155
-3.9856997 5.8484478 0.36483032 0 0 0 0 20.248102
-4.1864767 5.7573614 0.56355095 0 0 0 0 20.25305
-4.2300062 5.4942989 0.72883588 0 0 0 0 20.257998
-4.4108839 5.4203391 0.91957402 0 0 0 0 20.262945
-4.1370773 5.7674451 0.36067054 0 0 0 0 20.267893
-4.2036247 5.5012507 0.54391193 0 0 0 0 20.272837
-4.3714204 5.4163756 0.73069239 0 0 0 0 20.277784
-4.115613 4.8302579 0.83304453 0 0 0 0 20.282732
-4.1531854 5.5043449 0.3440432 0 0 0 0 20.28768
-4.3409581 5.4123511 0.54279208 0 0 0 0 20.292627
-4.0872135 4.8302388 0.66013396 0 0 0 0 20.297575
-4.2440953 4.7604275 0.83791602 0 0 0 0 20.302519
-4.2793622 5.3935161 0.33897671 0 0 0 0 20.307467
-4.0617886 4.826201 0.48822278 0 0 0 0 20.312414
-4.2186852 4.7593865 0.6630007 0 0 0 0 20.317362
-4.3735809 4.6905937 0.84378546 0 0 0 0 20.322309
-4.0283985 4.8311992 0.30331552 0 0 0 0 20.327257
-4.1962414 4.7533245 0.48808604 0 0 0 0 20.332201
-4.3451085 4.6815681 0.66488743 0 0 0 0 20.337149
-4.508081 4.6227283 0.8496418 0 0 0 0 20.342096
-4.1648407 4.7573066 0.30117607 0 0 0 0 20.347044
-4.3306813 4.6784506 0.48795211 0 0 0 0 20.351992
-4.4745269 4.6027322 0.66676933 0 0 0 0 20.356936
-4.6304789 4.5399461 0.85454375 0 0 0 0 20.361883
-4.3032637 4.6804037 0.29903665 0 0 0 0 20.366831
-4.4681406 4.6055613 0.48980919 0 0 0 0 20.371778
-4.6009259 4.5209193 0.66866171 0 0 0 0 20.376726
-4.7699766 4.4710531 0.86139119 0 0 0 0 20.381674
-4.4497371 4.6104498 0.29787102 0 0 0 0 20.386618
-4.6075716 4.5286593 0.4906677 0 0 0 0 20.391565
-4.7555079 4.4639268 0.67646146 0 0 0 0 20.396513
-4.9094644 4.4001641 0.86924136 0 0 0 0 20.401461
-4.5871224 4.5275593 0.29574203 0 0 0 0 20.406408
-4.7500205 4.4537416 0.49251732 0 0 0 0 20.411356
-4.9019828 4.3919878 0.68129861 0 0 0 0 20.4163
-5.0388689 4.3173428 0.87512892 0 0 0 0 20.421247
-4.7244854 4.4416742 0.29362038 0 0 0 0 20.427702
-4.8904305 4.3738422 0.49338114 0 0 0 0 20.432646
-5.0363803 4.3091345 0.685179 0 0 0 0 20.437593
-5.7406359 4.7008195 0.98119354 0 0 0 0 20.442541
-4.8749247 4.3657036 0.29345486 0 0 0 0 20.447489
-5.5690379 4.748405 0.55050296 0 0 0 0 20.452436
-5.7280011 4.6786447 0.76528108 0 0 0 0 20.457384
-5.9070692 4.6207662 0.99200135 0 0 0 0 20.462328
-5.6701245 4.8334651 0.33320773 0 0 0 0 20.467276
-5.7364159 4.6623354 0.55431706 0 0 0 0 20.472223
-5.9034276 4.5985279 0.77307039 0 0 0 0 20.477171
-6.0714607 4.5347281 1.0018216 0 0 0 0 20.482119
-5.7459145 4.6629987 0.32832736 0 0 0 0 20.487062
-5.9027462 4.5692739 0.55714285 0 0 0 0 20.49201
-6.0768228 4.5134277 0.7808708 0 0 0 0 20.496958
-6.2328067 4.4417133 1.0116578 0 0 0 0 20.501905
-5.9011459 4.5560083 0.3281953 0 0 0 0 20.506853
-6.0821228 4.4821305 0.5619337 0 0 0 0 20.511801
-6.2427993 4.4175768 0.78918171 0 0 0 0 20.516745
-6.4088197 4.3557935 1.0249629 0 0 0 0 20.521692
-6.0832133 4.463068 0.33044603 0 0 0 0 20.52664
-6.2571507 4.3882346 0.56822932 0 0 0 0 20.531588
-6.4221668 4.3274517 0.79801112 0 0 0 0 20.536535
-6.5761466 4.2587547 1.036824 0 0 0 0 20.541483
-6.2343855 4.346118 0.33036312 0 0 0 0 20.546427
-6.439465 4.2910872 0.57306236 0 0 0 0 20.551374
-6.5934591 4.2263813 0.80487019 0 0 0 0 20.556322
-6.7494602 4.159678 1.0476769 0 0 0 0 20.56127
-6.4588575 4.2726908 0.33408627 0 0 0 0 20.566217
-6.6167412 4.1879759 0.57791293 0 0 0 0 20.571165
-6.7787714 4.1272254 0.81470066 0 0 0 0 20.576109
-6.9368138 4.065515 1.0614973 0 0 0 0 20.581057
-6.6420898 4.163538 0.33593357 0 0 0 0 20.586004
-6.7990103 4.0828371 0.58475691 0 0 0 0 20.590952
-6.9650726 4.0260658 0.82453221 0 0 0 0 20.5959
-7.1190953 3.9603877 1.0743418 0 0 0 0 20.600843
-6.8403654 4.0602899 0.33874524 0 0 0 0 20.605791
-7.0033069 3.9815569 0.591555 0 0 0 0 20.610739
-7.1603646 3.922852 0.8353498 0 0 0 0 20.615686
-7.3214378 3.8631368 1.0911386 0 0 0 0 20.620634
-7.0345764 3.947073 0.34157777 0 0 0 0 20.625582
-7.2045679 3.8743014 0.59936672 0 0 0 0 20.630526
-0.46014574 0.21308073 0.043788403 0 0 0 0 20.660208
-0.43806383 0.21416785 -0.0021628905 0 0 0 0 20.665155
-0.44204262 0.20716247 0.012847691 0 0 0 0 20.670103
-0.4560608 0.20609105 0.027831838 0 0 0 0 20.675051
-0.44892558 0.18416175 0.040918149 0 0 0 0 20.699785
-0.44990149 0.19310096 -0.0020863868 0 0 0 0 20.704733
-0.45990846 0.1900574 0.013907824 0 0 0 0 20.709681
-0.46992016 0.18801256 0.028900743 0 0 0 0 20.714628
-0.46178368 0.16608852 0.040988836 0 0 0 0 20.739363
-0.46976787 0.17598327 -0.0010299784 0 0 0 0 20.744307
-0.47275352 0.16998453 0.013981144 0 0 0 0 20.749254
-0.48376521 0.16793333 0.028972229 0 0 0 0 20.754202
-0.49568868 0.15388343 0.045012776 0 0 0 0 20.778936
-0.49463287 0.15883231 -0.00098280096 0 0 0 0 20.783884
-0.50664181 0.15577735 0.016007749 0 0 0 0 20.788832
-0.51765531 0.1537277 0.031998865 0 0 0 0 20.793779
-0.45342547 0.11916167 0.038207311 0 0 0 0 20.818514
-0.43632543 0.11622016 -0.003748337 0 0 0 0 20.823462
-0.441329 0.11320703 0.010255164 0 0 0 0 20.828409
-0.42729491 0.10531396 0.021300277 0 0 0 0 20.833353
-0.37212086 0.079684369 0.025479956 0 0 0 0 20.858088
-0.40511185 0.087431274 -0.0055823987 0 0 0 0 20.863035
-0.39709261 0.081500113 0.0064489781 0 0 0 0 20.867983
-0.39008266 0.077559814 0.016475921 0 0 0 0 20.872931
-0.38100377 0.064637847 0.026553623 0 0 0 0 20.897665
-0.36405408 0.059634611 -0.0078978604 0 0 0 0 20.624327
-0.37907359 0.059552222 0.0040829992 0 0 0 0 20.629271
-0.39009315 0.059496339 0.016071329 0 0 0 0 20.634218
-0.37801132 0.046594072 0.02515495 0 0 0 0 20.658953
-0.3729226 0.042587079 -0.006821577 0 0 0 0 20.6639
-0.3849403 0.042523455 0.004164916 0 0 0 0 20.668848
-0.39095154 0.041499458 0.015163887 0 0 0 0 20.673796
-0.37788332 0.030603483 0.024246667 0 0 0 0 20.69853
-0.37679002 0.025571473 -0.0067360275 0 0 0 0 20.703478
-0.38380125 0.024540959 0.0042610895 0 0 0 0 20.708426
-0.38981253 0.023517042 0.015260069 0 0 0 0 20.713373
-0.37875122 0.01360764 0.024337741 0 0 0 0 20.738108
-0.37564507 0.0065888502 -0.0066386717 0 0 0 0 20.743052
-0.37666118 0.0065964633 0.0033682929 0 0 0 0 20.747999
-0.39067417 0.0055214758 0.015352434 0 0 0 0 20.752947
-0.38062444 -0.0023960215 0.023425573 0 0 0 0 20.777681
-0.38351372 -0.010452714 -0.0065606856 0 0 0 0 20.782629
-0.38453171 -0.010443803 0.0044462765 0 0 0 0 20.787577
-0.39554945 -0.010500239 0.015434715 0 0 0 0 20.792524
-0.38450006 -0.018411368 0.023509638 0 0 0 0 20.817259
-0.38337854 -0.028440515 -0.0054666493 0 0 0 0 20.822206
-0.38539466 -0.028439412 0.0045384639 0 0 0 0 20.827154
-0.38341552 -0.027413551 0.013549676 0 0 0 0 20.832098
-0.38536987 -0.035407037 0.023600472 0 0 0 0 20.856833
-0.3742424 -0.046371095 -0.0053560827 0 0 0 0 20.86178
-0.38925359 -0.047453184 0.0056263027 0 0 0 0 20.866728
-0.39627609 -0.046484563 0.015620893 0 0 0 0 20.871675
-0.39123556 -0.053433795 0.024683295 0 0 0 0 20.89641
-0.3930887 -0.067482181 -0.0042934362 0 0 0 0 20.901358
-0.39011794 -0.065448672 0.0057183201 0 0 0 0 20.906305
-0.39613211 -0.065474719 0.014716061 0 0 0 0 20.911253
-0.38410965 -0.069380157 0.022787437 0 0 0 0 20.935987
-0.38595393 -0.085425854 -0.0041867634 0 0 0 0 20.940935
-0.3969653 -0.086481556 0.006803052 0 0 0 0 20.945879
-0.39599901 -0.08346235 0.015809836 0 0 0 0 20.950827
-0.39096376 -0.089413121 0.023870828 0 0 0 0 20.975561
-0.40577787 -0.1105411 -0.0021208951 0 0 0 0 20.980509
-0.41479391 -0.11058498 0.0078713503 0 0 0 0 20.985456
-0.41782293 -0.10859024 0.017872065 0 0 0 0 20.990404
-0.40780747 -0.11150879 0.025938362 0 0 0 0 21.015139
-0.37867528 -0.12335768 -0.0029841149 0 0 0 0 21.020086
-0.38869131 -0.12340791 0.0070063062 0 0 0 0 21.025034
-0.39671195 -0.12244655 0.015999122 0 0 0 0 21.029978
-0.37571886 -0.12129769 0.022080388 0 0 0 0 21.054716
-0.41943821 -0.15860537 5.591338e-05 0 0 0 0 21.05966
-0.43244964 -0.15967326 0.011042146 0 0 0 0 21.064608
-0.43548965 -0.15567972 0.020040322 0 0 0 0 21.069555
-0.42547476 -0.15859848 0.028106501 0 0 0 0 21.09429
-0.46497363 -0.20174782 0.004883043 0 0 0 0 21.540743
-0.4420791 -0.18659475 0.012914461 0 0 0 0 21.545687
-0.42516404 -0.17448001 0.019938836 0 0 0 0 21.550634
-0.40717897 -0.17235354 0.027012656 0 0 0 0 21.575369
-0.46179941 -0.2277156 0.0059912661 0 0 0 0 21.580317
-0.45188156 -0.21664166 0.015004292 0 0 0 0 21.585264
-0.4629097 -0.21469554 0.024990823 0 0 0 0 21.590212
-0.45689586 -0.21764134 0.033049297 0 0 0 0 21.614946
-0.46161383 -0.25570187 0.0070964512 0 0 0 0 21.619894
-0.44871429 -0.2416098 0.016111115 0 0 0 0 21.624842
-0.45874676 -0.23865862 0.025098221 0 0 0 0 21.629786
-10.114826 -5.9851508 0.6368196 0 0 0 0 21.639681
-10.269782 -5.8967957 0.86044306 0 0 0 0 21.644629
-0.45273939 -0.24060462 0.033155389 0 0 0 0 21.654524
-10.004275 -6.2483706 0.64638406 0 0 0 0 21.659468
-10.114424 -6.1257515 0.86104614 0 0 0 0 21.664415
-10.233522 -6.0042162 1.0516936 0 0 0 0 21.669363
-10.356717 -5.8686967 1.2493166 0 0 0 0 21.674311
-9.7721729 -6.4368577 0.64907414 0 0 0 0 21.679258
-9.8943119 -6.3133211 0.85571373 0 0 0 0 21.684206
-9.9735632 -6.1625581 1.033397 0 0 0 0 21.68915
-10.231292 -6.1058517 1.2378753 0 0 0 0 21.694098
-9.6377048 -6.6879373 0.65866464 0 0 0 0 21.699045
-9.7529078 -6.5513673 0.85730082 0 0 0 0 21.703993
-9.8849916 -6.4279275 1.033923 0 0 0 0 21.708941
-9.9663782 -6.2541785 1.2095746 0 0 0 0 21.713888
-9.4952917 -6.9309707 0.66825855 0 0 0 0 21.718832
-9.6234522 -6.7994866 0.86087787 0 0 0 0 21.72378
-9.7476177 -6.660007 1.0294946 0 0 0 0 21.728727
-9.8678751 -6.5064988 1.2021017 0 0 0 0 21.733675
-9.4285355 -7.233459 0.68478864 0 0 0 0 21.738623
-9.4999866 -7.050642 0.86644703 0 0 0 0 21.743567
-9.6102457 -6.8930874 1.0270668 0 0 0 0 21.748514
-9.7424841 -6.7406588 1.1936537 0 0 0 0 21.753462
-9.2562132 -7.4623175 0.69241679 0 0 0 0 21.75841
-9.4163313 -7.3350372 0.87598449 0 0 0 0 21.763357
-9.4519348 -7.1160464 1.021663 0 0 0 0 21.768305
-9.6091137 -6.9717746 1.1832156 0 0 0 0 21.773249
-9.1685066 -7.7586808 0.70997494 0 0 0 0 21.778196
-9.2569981 -7.5649829 0.87858987 0 0 0 0 21.783144
-9.4081268 -7.4256873 1.0291593 0 0 0 0 21.788092
-9.4458761 -7.1807156 1.1698027 0 0 0 0 21.793039
-9.2309828 -7.9127231 0.89509976 0 0 0 0 21.802931
-9.2607632 -7.6597142 1.0267475 0 0 0 0 21.807878
-9.4000807 -7.4873528 1.1712983 0 0 0 0 21.812826
-9.2825804 -7.7435665 1.1648594 0 0 0 0 21.832613
-9.2262468 -9.0176868 0.79252195 0 0 0 0 21.837561
-9.445137 -8.9784966 1.0961401 0 0 0 0 21.867243
-9.3934317 -8.9779348 1.2092782 0 0 0 0 21.891977
-8.4846735 -10.536723 0.88386726 0 0 0 0 21.936502
-7.6044722 -12.14389 0.99315655 0 0 0 0 21.791365
-7.5897822 -12.139604 1.0802162 0 0 0 0 21.816099
-7.5908656 -12.160463 1.125278 0 0 0 0 21.840834
-6.7257867 -12.648346 1.0274308 0 0 0 0 21.850729
-7.6179557 -12.174505 1.1502851 0 0 0 0 21.865568
-6.4022713 -12.753328 1.035164 0 0 0 0 21.870516
-6.7161608 -12.625137 1.0834558 0 0 0 0 21.875463
-6.1795726 -13.060905 1.0599629 0 0 0 0 21.890303
-6.4312601 -12.793362 1.0871964 0 0 0 0 21.89525
-6.727201 -12.646103 1.1004977 0 0 0 0 21.900198
-5.9715066 -13.432567 1.090812 0 0 0 0 21.910089
-6.195724 -13.070878 1.0999807 0 0 0 0 21.915037
-6.4305029 -12.777273 1.0922134 0 0 0 0 21.919985
-6.7553911 -12.635198 1.0944703 0 0 0 0 21.924932
-5.7643137 -13.827236 1.1236862 0 0 0 0 21.92988
-5.9867806 -13.41955 1.1198026 0 0 0 0 21.934828
-6.2038522 -13.071856 1.0960017 0 0 0 0 21.939772
-6.4339433 -12.720241 1.0711734 0 0 0 0 21.944719
-5.5480714 -14.231853 1.1585869 0 0 0 0 21.949667
-5.7716966 -13.793189 1.1406642 0 0 0 0 21.954615
-5.9870186 -13.399497 1.1048113 0 0 0 0 21.959562
-6.2122784 -13.014869 1.0649521 0 0 0 0 21.96451
-5.3167739 -14.647383 1.1945258 0 0 0 0 21.969454
-5.5613418 -14.214855 1.166574 0 0 0 0 21.974401
-5.7729549 -13.767158 1.1146629 0 0 0 0 21.979349
-6.006299 -13.36459 1.0637683 0 0 0 0 21.984297
-5.4027433 -16.051725 1.3130965 0 0 0 0 21.989244
-5.3350768 -14.622431 1.1914935 0 0 0 0 21.994192
-5.562655 -14.176841 1.1285572 0 0 0 0 21.999136
-5.7893724 -13.706249 1.0615926 0 0 0 0 22.004084
-5.4260693 -16.021816 1.2970473 0 0 0 0 22.013979
-5.3354564 -14.570428 1.1414604 0 0 0 0 22.018927
-5.5702424 -14.083899 1.061463 0 0 0 0 22.02387
-5.4392996 -15.993906 1.2340184 0 0 0 0 22.038713
-5.3519511 -14.490555 1.0633651 0 0 0 0 22.043661
-4.5882545 -17.593596 1.4544654 0 0 0 0 22.048609
-5.1572075 -16.373177 1.2459974 0 0 0 0 22.0585
-5.4835205 -15.959213 1.1429268 0 0 0 0 22.063448
-4.6284547 -17.576841 1.4013985 0 0 0 0 22.073343
-4.9080377 -16.939632 1.2701418 0 0 0 0 22.078291
-5.2583761 -16.516827 1.1530187 0 0 0 0 22.083235
-4.6270394 -17.477911 1.2913064 0 0 0 0 22.098078
-4.3407807 -18.063158 1.3165344 0 0 0 0 22.117865
-3.650656 -19.17885 1.5101055 0 0 0 0 22.132708
-4.0460186 -18.737356 1.3468821 0 0 0 0 22.137651
-2.7656536 -19.75643 1.6723706 0 0 0 0 22.147547
-3.3000381 -19.835707 1.5565274 0 0 0 0 22.152494
-3.6923656 -19.221226 1.3651026 0 0 0 0 22.157442
-2.3638828 -20.272989 1.7267115 0 0 0 0 22.167334
-2.8236091 -19.763889 1.546295 0 0 0 0 22.172281
-3.6029429 -18.406925 1.1303048 0 0 0 0 22.182177
-1.9439414 -20.821445 1.7851202 0 0 0 0 22.187124
-2.4028101 -20.106377 1.5694597 0 0 0 0 22.192072
-2.8586793 -19.736275 1.3682178 0 0 0 0 22.197016
-3.2568746 -18.958868 1.1345907 0 0 0 0 22.201963
-1.5594174 -22.176041 1.9154283 0 0 0 0 22.206911
-1.9945039 -20.713921 1.6139171 0 0 0 0 22.211859
-2.4166908 -19.932673 1.3642437 0 0 0 0 22.216806
-2.9082019 -19.617798 1.1450068 0 0 0 0 22.221754
-1.0401914 -22.076986 1.9192317 0 0 0 0 22.226698
-1.6045092 -21.970528 1.7111151 0 0 0 0 22.231646
-2.0092945 -20.551249 1.3907113 0 0 0 0 22.236593
-2.4613194 -19.791189 1.1240129 0 0 0 0 22.241541
-0.52425754 -21.815937 1.9088945 0 0 0 0 22.385992
-1.1022772 -22.112499 1.719239 0 0 0 0 22.39094
-1.6250685 -21.732817 1.4568791 0 0 0 0 22.395884
-2.0613022 -20.388691 1.1305289 0 0 0 0 22.400831
-0.021064024 -21.531044 1.8974432 0 0 0 0 22.405779
-0.58796346 -21.845551 1.6968286 0 0 0 0 22.410727
-1.1407217 -22.177004 1.4702588 0 0 0 0 22.415674
-1.6285599 -20.896187 1.1318957 0 0 0 0 22.420622
0.46421799 -21.261261 1.8879777 0 0 0 0 22.425566
-0.081740543 -21.561659 1.6733834 0 0 0 0 22.430513
-0.62251312 -21.888052 1.4368289 0 0 0 0 22.435461
-1.2094944 -22.169741 1.1711411 0 0 0 0 22.440409
0.93765318 -21.018551 1.8825231 0 0 0 0 22.445356
0.40554014 -21.287884 1.6529162 0 0 0 0 22.450304
-0.11818194 -21.620188 1.4053986 0 0 0 0 22.455248
-0.69078523 -21.965799 1.1318117 0 0 0 0 22.460196
1.4000394 -20.765915 1.8750366 0 0 0 0 22.465143
0.88102543 -21.050179 1.6364706 0 0 0 0 22.470091
0.37813318 -21.348377 1.3729491 0 0 0 0 22.475039
-0.18050751 -21.684917 1.0893761 0 0 0 0 22.479986
1.8563792 -20.504324 1.8675283 0 0 0 0 22.48493
1.3484886 -20.807531 1.6190042 0 0 0 0 22.489878
0.85755759 -21.096668 1.3464932 0 0 0 0 22.494825
0.31973392 -21.397102 1.0479141 0 0 0 0 22.499773
2.3048744 -20.269783 1.8620377 0 0 0 0 22.504721
1.8128415 -20.543913 1.5985072 0 0 0 0 22.509665
1.3340912 -20.862986 1.3190527 0 0 0 0 22.514612
0.80925339 -21.158352 1.0104904 0 0 0 0 22.51956
2.7403843 -20.037325 1.8575263 0 0 0 0 22.524508
2.2603889 -20.315393 1.5840214 0 0 0 0 22.529455
1.7984773 -20.602383 1.2905587 0 0 0 0 22.534403
1.2846637 -20.899693 0.97301811 0 0 0 0 22.539347
3.1708968 -19.804899 1.8540056 0 0 0 0 22.544294
2.6999066 -20.080927 1.5695142 0 0 0 0 22.549242
2.2520986 -20.383842 1.2670947 0 0 0 0 22.55419
1.7551112 -20.647068 0.93654358 0 0 0 0 22.559137
3.589401 -19.570551 1.8514611 0 0 0 0 22.564085
3.1396108 -19.879467 1.5580453 0 0 0 0 22.569029
2.6976562 -20.153358 1.243602 0 0 0 0 22.573977
2.2116039 -20.402531 0.90305358 0 0 0 0 22.578924
4.0030003 -19.352238 1.8489263 0 0 0 0 22.583872
3.5651786 -19.653093 1.545522 0 0 0 0 22.58882
3.1371822 -19.916914 1.2210913 0 0 0 0 22.593767
2.6601448 -20.166042 0.87055862 0 0 0 0 22.598711
4.4156079 -19.134937 1.8473904 0 0 0 0 22.603659
3.9827347 -19.423775 1.5329807 0 0 0 0 22.608606
3.5657127 -19.680542 1.1985608 0 0 0 0 22.613554
3.1046886 -19.929586 0.83905607 0 0 0 0 22.618502
4.8172178 -18.917707 1.8468348 0 0 0 0 22.623446
4.397285 -19.192482 1.5194311 0 0 0 0 22.628393
3.9932916 -19.452183 1.1770376 0 0 0 0 22.633341
3.5402749 -19.700186 0.80854565 0 0 0 0 22.638288
5.2249732 -18.726446 1.8493198 0 0 0 0 22.643236
4.809936 -18.979204 1.508899 0 0 0 0 22.648184
4.4108787 -19.224884 1.1564976 0 0 0 0 22.653128
3.9738765 -19.472809 0.77803344 0 0 0 0 22.658075
5.6135468 -18.501305 1.8487312 0 0 0 0 22.663023
5.2095337 -18.756006 1.499332 0 0 0 0 22.667971
4.8274965 -19.002602 1.1369611 0 0 0 0 22.672918
4.3934054 -19.232513 0.7494812 0 0 0 0 22.677866
6.016366 -18.320086 1.8512179 0 0 0 0 22.68281
5.6092029 -18.544817 1.4897784 0 0 0 0 22.687757
5.2310925 -18.776394 1.119397 0 0 0 0 22.692705
4.8180842 -19.018196 0.72196752 0 0 0 0 22.697653
6.393918 -18.090019 1.8516035 0 0 0 0 22.7026
6.0078802 -18.334639 1.4812237 0 0 0 0 22.707548
5.6387448 -18.559174 1.1008497 0 0 0 0 22.712492
5.2399125 -18.830902 0.69747967 0 0 0 0 22.71744
6.7846723 -17.895884 1.854053 0 0 0 0 22.722387
6.3985553 -18.123514 1.4726536 0 0 0 0 22.727335
6.0384097 -18.344006 1.0842905 0 0 0 0 22.732283
5.6444778 -18.595713 0.67190576 0 0 0 0 22.737226
7.1613283 -17.683834 1.8574569 0 0 0 0 22.742174
6.7882013 -17.906401 1.464074 0 0 0 0 22.747122
6.4350839 -18.12986 1.0677266 0 0 0 0 22.752069
6.0571761 -18.383484 0.64637184 0 0 0 0 22.757017
7.5410175 -17.476774 1.8598713 0 0 0 0 22.761965
7.1739173 -17.702314 1.4595023 0 0 0 0 22.766909
6.8327661 -17.916714 1.0521653 0 0 0 0 22.771856
6.4658542 -18.167284 0.62182581 0 0 0 0 22.776804
7.9157257 -17.272749 1.8632801 0 0 0 0 22.781752
7.5585976 -17.490244 1.4519191 0 0 0 0 22.786699
7.2234654 -17.706614 1.0385946 0 0 0 0 22.791647
6.8665404 -17.952137 0.5982666 0 0 0 0 22.796591
8.2924271 -17.066719 1.8666893 0 0 0 0 22.801538
7.9403124 -17.284193 1.4463371 0 0 0 0 22.806486
7.6222429 -17.509478 1.0240523 0 0 0 0 22.811434
7.2591772 -17.728039 0.57668275 0 0 0 0 22.816381
8.6661625 -16.866713 1.8720999 0 0 0 0 22.821329
8.3260469 -17.081129 1.4407648 0 0 0 0 22.826273
8.0089283 -17.295414 1.0104691 0 0 0 0 22.831221
7.6578493 -17.508919 0.55311424 0 0 0 0 22.836168
9.0389099 -16.668715 1.8785106 0 0 0 0 22.841116
8.7037621 -16.874115 1.4361737 0 0 0 0 22.846064
8.3955889 -17.076357 0.99687934 0 0 0 0 22.851007
6.8594718 -14.733487 0.45054364 0 0 0 0 22.855955
9.4164047 -16.466608 1.883914 0 0 0 0 22.619326
9.0913591 -16.683001 1.4356047 0 0 0 0 22.624273
8.7871685 -16.873276 0.98430103 0 0 0 0 22.629221
7.1726146 -14.494027 0.4307299 0 0 0 0 22.634165
9.7830725 -16.256618 1.8893025 0 0 0 0 22.639112
9.4669914 -16.46397 1.4299983 0 0 0 0 22.64406
9.1728268 -16.657192 0.97271544 0 0 0 0 22.649008
7.4286661 -14.163671 0.40879235 0 0 0 0 22.653955
10.15979 -16.055576 1.8967181 0 0 0 0 22.658903
9.8476753 -16.253916 1.4264103 0 0 0 0 22.663847
8.1541471 -14.033154 0.8178969 0 0 0 0 22.668795
7.7120614 -13.894162 0.38997301 0 0 0 0 22.673742
10.530489 -15.850575 1.9041183 0 0 0 0 22.67869
10.231421 -16.05485 1.4248401 0 0 0 0 22.683638
8.4466677 -13.786597 0.80411917 0 0 0 0 22.688581
7.9006367 -13.477193 0.36781836 0 0 0 0 22.693529
10.905188 -15.644559 1.9115238 0 0 0 0 22.698477
10.615161 -15.85379 1.4232669 0 0 0 0 22.703424
8.7039518 -13.497246 0.7892307 0 0 0 0 22.708372
7.0338125 -11.372176 0.29788208 0 0 0 0 22.71332
11.28493 -15.44652 1.9209465 0 0 0 0 22.718264
10.473763 -14.894751 1.3529073 0 0 0 0 22.723211
8.949151 -13.190969 0.77230167 0 0 0 0 22.728159
7.0748792 -10.859029 0.27536646 0 0 0 0 22.733107
11.668649 -15.243465 1.9303695 0 0 0 0 22.738054
9.6829948 -13.130417 1.206498 0 0 0 0 22.743002
9.1511126 -12.840939 0.75424755 0 0 0 0 22.747946
7.0818334 -10.324074 0.25276798 0 0 0 0 22.752893
12.043327 -15.032468 1.9397674 0 0 0 0 22.757841
10.003807 -12.936714 1.2048287 0 0 0 0 22.762789
9.4085588 -12.578595 0.7433908 0 0 0 0 22.767736
7.1152196 -9.8659668 0.23430541 0 0 0 0 22.772684
12.402843 -14.790567 1.9451027 0 0 0 0 22.777628
10.154493 -12.534986 1.1836257 0 0 0 0 22.782576
9.5995274 -12.227634 0.72531712 0 0 0 0 22.787523
7.1568046 -9.4418163 0.21589731 0 0 0 0 22.792471
12.792576 -14.588499 1.9565357 0 0 0 0 22.797419
10.316317 -12.157199 1.16447 0 0 0 0 22.802362
9.9053679 -12.035029 0.71762419 0 0 0 0 22.80731
5.4816103 -6.8892369 0.14808244 0 0 0 0 22.812258
13.187278 -14.380408 1.9689695 0 0 0 0 22.817205
12.932162 -14.5575 1.4207356 0 0 0 0 22.822153
7.2997274 -8.4607887 0.50202996 0 0 0 0 22.827101
5.4566126 -6.5354362 0.13464865 0 0 0 0 22.832045
12.710131 -13.261299 1.8528559 0 0 0 0 22.836992
13.362994 -14.370223 1.4262549 0 0 0 0 22.84194
7.2492528 -8.0201578 0.47844797 0 0 0 0 22.846888
5.3773723 -6.1369348 0.12107135 0 0 0 0 22.851835
12.397222 -12.370241 1.765291 0 0 0 0 22.856783
13.784741 -14.167006 1.4307393 0 0 0 0 22.861727
7.210969 -7.6134539 0.45792726 0 0 0 0 22.866674
5.288218 -5.7524877 0.10749453 0 0 0 0 22.871622
12.963094 -12.377182 1.8062681 0 0 0 0 22.87657
14.222503 -13.965707 1.4362526 0 0 0 0 22.881517
7.2039967 -7.2625742 0.44052556 0 0 0 0 22.886465
4.9145832 -5.0986094 0.090122215 0 0 0 0 22.891409
12.43352 -11.354343 1.694185 0 0 0 0 22.896357
14.570788 -13.674918 1.4325092 0 0 0 0 22.901304
7.2051449 -6.9326491 0.42416275 0 0 0 0 22.906252
5.3496094 -5.2902589 0.090106912 0 0 0 0 22.9112
12.826577 -11.205272 1.7126869 0 0 0 0 22.916147
5.6566868 -5.197341 0.31653965 0 0 0 0 22.926039
5.0235467 -4.7381105 0.075935982 0 0 0 0 22.930986
13.309957 -11.117698 1.743413 0 0 0 0 22.935934
7.0670314 -6.1935749 0.38610917 0 0 0 0 22.945826
4.9680371 -4.4674673 0.067551963 0 0 0 0 22.950773
13.316264 -10.634819 1.7108706 0 0 0 0 22.955721
7.0774941 -5.9185929 0.37382811 0 0 0 0 22.965616
4.8613634 -4.1661029 0.059046391 0 0 0 0 22.970564
16.501341 -12.59408 2.0845447 0 0 0 0 22.975508
7.0398016 -5.6138778 0.35943162 0 0 0 0 22.985403
4.7648416 -3.8916807 0.05159004 0 0 0 0 22.990351
6.978106 -5.2009835 0.59686714 0 0 0 0 23.000246
6.9921536 -5.316216 0.34502712 0 0 0 0 23.00519
4.6714067 -3.6322396 0.044157058 0 0 0 0 23.010138
6.8603339 -4.8767142 0.57331395 0 0 0 0 23.020033
6.963635 -5.0414476 0.33168224 0 0 0 0 23.024981
4.5720348 -3.3838282 0.037727538 0 0 0 0 23.029928
6.7938213 -4.6001592 0.55390352 0 0 0 0 23.03982
6.8930349 -4.7509084 0.31824863 0 0 0 0 23.044767
4.4887934 -3.1583273 0.031352468 0 0 0 0 23.049715
6.7113318 -4.3276877 0.53647155 0 0 0 0 23.059607
6.8164778 -4.4674006 0.30481392 0 0 0 0 23.064554
4.4387422 -2.9676425 0.027074235 0 0 0 0 23.069502
6.6329212 -4.0681939 0.51806223 0 0 0 0 23.079397
6.7480283 -4.2028456 0.29241547 0 0 0 0 23.084345
4.3465939 -2.7581863 0.021703886 0 0 0 0 23.089289
6.558013 -3.8210075 0.50212049 0 0 0 0 23.52873
6.634913 -3.9238732 0.27936748 0 0 0 0 23.533678
4.2722521 -2.5714777 0.017942127 0 0 0 0 23.538626
6.4777551 -3.5795016 0.48573923 0 0 0 0 23.548517
6.5796647 -3.6862307 0.26903191 0 0 0 0 23.553465
4.2053242 -2.3948672 0.013660157 0 0 0 0 23.558413
6.3724928 -3.3361256 0.46831521 0 0 0 0 23.568308
6.4783416 -3.4328289 0.25660312 0 0 0 0 23.573252
4.1214032 -2.2193427 0.010351842 0 0 0 0 23.578199
6.3093939 -3.1245244 0.45499724 0 0 0 0 23.588095
6.4011493 -3.2042978 0.24624285 0 0 0 0 23.593042
4.0605807 -2.0616982 0.0061023077 0 0 0 0 23.59799
6.1942081 -2.8941963 0.43757299 0 0 0 0 23.607882
6.2959356 -2.9709103 0.23583159 0 0 0 0 23.612829
3.9927835 -1.9090865 0.0038473653 0 0 0 0 23.617777
8.1509037 -3.5436676 0.85054851 0 0 0 0 23.622725
6.0941167 -2.6817856 0.42219439 0 0 0 0 23.627672
6.1857629 -2.7445467 0.22542077 0 0 0 0 23.632616
3.9290323 -1.7644538 0.00060851238 0 0 0 0 23.637564
9.1327305 -3.7345774 0.94140226 0 0 0 0 23.642511
6.0090938 -2.4822943 0.40785587 0 0 0 0 23.647459
6.0666308 -2.5252271 0.21500382 0 0 0 0 23.652407
9.0574007 -3.475071 0.92100805 0 0 0 0 23.662298
5.9341435 -2.2967474 0.3955501 0 0 0 0 23.667246
5.9585643 -2.3178484 0.2046192 0 0 0 0 23.672194
5.8411832 -2.1082931 0.38221207 0 0 0 0 23.687033
5.8936296 -2.1362429 0.19733502 0 0 0 0 23.69198
