# .PCD v0.7 - Point Cloud Data file format
VERSION 0.7
FIELDS x y z normal_x normal_y normal_z intensity curvature
SIZE 4 4 4 4 4 4 4 4
TYPE F F F F F F F F
COUNT 1 1 1 1 1 1 1 1
WIDTH 974
HEIGHT 1
VIEWPOINT 0 0 0 1 0 0 0
POINTS 974
DATA ascii
4.0796976 3.2385175 6.3868465 0 0 0 0 7.569293
4.3943415 3.6408305 6.4041109 0 0 0 0 7.5742397
4.6871614 4.0514193 6.4454446 0 0 0 0 7.5791869
4.5259256 4.0779696 5.8880696 0 0 0 0 7.5841336
4.0052142 3.3131292 6.3579526 0 0 0 0 7.5890808
4.3059916 3.7265978 6.3842411 0 0 0 0 7.594028
4.1497307 3.7520881 5.8228464 0 0 0 0 7.5989747
4.4947457 4.2396202 5.9816928 0 0 0 0 7.6039219
3.9388704 3.3957217 6.3449955 0 0 0 0 7.6088686
4.2287817 3.8193264 6.382298 0 0 0 0 7.6138158
4.0513058 3.8289433 5.8040504 0 0 0 0 7.618763
4.7356567 4.6751685 6.4531965 0 0 0 0 7.6237097
3.8765917 3.4813082 6.3410106 0 0 0 0 7.6286569
4.0825539 3.8483107 6.2778726 0 0 0 0 7.633604
3.9356108 3.8878636 5.7603908 0 0 0 0 7.6385508
4.6103697 4.7652888 6.441474 0 0 0 0 7.6434979
3.8062234 3.5619311 6.3270774 0 0 0 0 7.6484447
3.6863925 3.628149 5.7813849 0 0 0 0 7.6533918
4.2587986 4.3951883 6.3782902 0 0 0 0 7.658339
4.4748745 4.8394461 6.4148493 0 0 0 0 7.6632857
3.7327967 3.637569 6.310174 0 0 0 0 7.6682329
3.5785487 3.6749616 5.7277298 0 0 0 0 7.6731796
4.1463628 4.4721622 6.3585544 0 0 0 0 7.6781268
4.3373742 4.912622 6.3892365 0 0 0 0 7.683074
3.6634748 3.7202039 6.3032289 0 0 0 0 7.6880207
3.4818714 3.7317352 5.6919918 0 0 0 0 7.6929679
4.0298638 4.544157 6.3348522 0 0 0 0 7.6979146
4.2038994 4.9857802 6.3696051 0 0 0 0 7.7028618
3.5911031 3.7988544 6.2933097 0 0 0 0 7.707809
3.3882504 3.7905111 5.6652336 0 0 0 0 7.7127557
3.9174345 4.6191478 6.3211222 0 0 0 0 7.7177029
4.0673704 5.0539565 6.3480039 0 0 0 0 7.7226501
3.5075634 3.8665466 6.2674761 0 0 0 0 7.7275968
3.3139665 3.8712285 5.6713157 0 0 0 0 7.7325439
3.8050084 4.69414 6.3083911 0 0 0 0 7.7374907
3.9287927 5.1171451 6.3254275 0 0 0 0 7.7424378
3.4066982 3.91328 6.2097898 0 0 0 0 7.747385
3.2223833 3.9310071 5.6515441 0 0 0 0 7.7523317
3.6864364 4.7571535 6.2867274 0 0 0 0 7.7572789
3.7861047 5.1713428 6.2958999 0 0 0 0 7.7622256
3.3109465 3.9660144 6.1660595 0 0 0 0 7.7671728
3.1410055 4.003767 5.6526837 0 0 0 0 7.77212
3.5678856 4.8211746 6.2680597 0 0 0 0 7.7770667
3.6495075 5.2305226 6.2773275 0 0 0 0 7.7820139
3.2029309 4.0007725 6.098444 0 0 0 0 7.7869606
3.0504553 4.0645542 5.6389036 0 0 0 0 7.7919078
3.4472818 4.8802052 6.2474174 0 0 0 0 7.796855
3.5037346 5.2757387 6.2468419 0 0 0 0 7.8018017
3.1010509 4.0435262 6.045774 0 0 0 0 7.8067489
2.9558344 4.1203547 5.6191578 0 0 0 0 7.8116961
3.3236156 4.9332533 6.2248077 0 0 0 0 7.8166428
3.3681099 5.3299189 6.2322817 0 0 0 0 7.8215899
3.0409935 4.1391935 6.0747414 0 0 0 0 7.8265367
2.856086 4.1661677 5.5904675 0 0 0 0 7.8314838
3.2029967 4.9892902 6.2071753 0 0 0 0 7.836431
3.2263489 5.3731194 6.2087841 0 0 0 0 7.8413777
2.9687247 4.2208982 6.0838089 0 0 0 0 7.8463249
2.7604415 4.2179842 5.5737391 0 0 0 0 7.8512716
2.7722449 4.5408978 5.5716047 0 0 0 0 7.8562188
3.0927579 5.4273047 6.2022138 0 0 0 0 7.861166
2.916971 4.3365946 6.1426721 0 0 0 0 7.8661127
2.6852646 4.3017688 5.5998125 0 0 0 0 7.8710599
2.6666336 4.5918336 5.5649219 0 0 0 0 7.8760066
2.6585562 4.9259405 5.5688367 0 0 0 0 7.8809538
2.8315158 4.4053569 6.1358409 0 0 0 0 7.885901
2.6070559 4.3825746 5.6249084 0 0 0 0 7.8908477
2.5661566 4.6517677 5.5711861 0 0 0 0 7.8957949
2.5460949 4.9849992 5.5811567 0 0 0 0 7.9007421
2.7535133 4.4856124 6.1466479 0 0 0 0 7.6469851
2.7343645 4.8266935 6.113595 0 0 0 0 7.6519318
2.6683624 5.0940289 6.0349956 0 0 0 0 7.6568789
2.6572611 5.5014 6.1076856 0 0 0 0 7.6618257
2.6609442 4.545413 6.1308799 0 0 0 0 7.6667728
2.6277587 4.8806305 6.1019082 0 0 0 0 7.67172
2.5816398 5.2080665 6.1040201 0 0 0 0 7.6766667
2.51948 5.5366063 6.0951986 0 0 0 0 7.6816139
2.563256 4.5962267 6.1061645 0 0 0 0 7.6865606
2.5170598 4.927578 6.0832624 0 0 0 0 7.6915078
2.4588993 5.248136 6.0904508 0 0 0 0 7.696455
2.3785181 5.5568004 6.0717759 0 0 0 0 7.7014017
2.4676592 4.6530504 6.0904188 0 0 0 0 7.7063489
2.4084086 4.9765296 6.0716014 0 0 0 0 7.7112956
2.3330441 5.2792029 6.0689244 0 0 0 0 7.7162428
2.23649 5.570991 6.0453777 0 0 0 0 7.72119
2.372066 4.7088833 6.0776763 0 0 0 0 7.7261367
2.2997653 5.025486 6.0619388 0 0 0 0 7.7310839
2.1999428 5.2912698 6.0294933 0 0 0 0 7.7360311
2.1006024 5.594173 6.0329213 0 0 0 0 7.7409778
2.2775159 4.7677188 6.0689192 0 0 0 0 7.7459249
2.1807966 5.0504417 6.026403 0 0 0 0 7.7508717
2.0781789 5.3263412 6.0209355 0 0 0 0 7.7558188
1.956416 5.5943503 5.9985785 0 0 0 0 7.760766
2.176825 4.8155723 6.0502253 0 0 0 0 7.7657127
2.072192 5.1004176 6.0237365 0 0 0 0 7.7706599
1.9491606 5.3424058 5.9924722 0 0 0 0 7.7756066
1.8183571 5.6025162 5.9771819 0 0 0 0 7.7805538
2.0761549 4.8644338 6.0345283 0 0 0 0 7.785501
1.9562927 5.128377 5.9981756 0 0 0 0 7.7904477
1.8242693 5.3664761 5.9769645 0 0 0 0 7.7953949
1.6791797 5.6006651 5.9488239 0 0 0 0 7.8003416
1.972397 4.9063005 6.012867 0 0 0 0 7.8052888
1.8394196 5.1573563 5.9766159 0 0 0 0 7.810236
1.6972814 5.3825421 5.9554925 0 0 0 0 7.8151827
1.5431514 5.6088324 5.9344172 0 0 0 0 7.8201299
1.8666339 4.947186 5.992218 0 0 0 0 7.8250766
1.7256162 5.1903343 5.9630289 0 0 0 0 7.8300238
1.5733546 5.401607 5.9419956 0 0 0 0 7.834971
1.4048474 5.5949516 5.9010949 0 0 0 0 7.8399177
1.7660367 4.9990797 5.9875093 0 0 0 0 7.8448648
1.6086855 5.2133074 5.9404883 0 0 0 0 7.849812
1.4452044 5.4036479 5.9115753 0 0 0 0 7.8547587
1.2717975 5.5990987 5.8896885 0 0 0 0 7.8597059
1.6592377 5.0359712 5.9668775 0 0 0 0 7.8646526
1.4949077 5.2463017 5.9329004 0 0 0 0 7.8695998
1.3212513 5.418715 5.9000926 0 0 0 0 7.874547
1.1365203 5.585207 5.8623528 0 0 0 0 7.8794937
1.5534995 5.0758786 5.9542308 0 0 0 0 7.8844409
1.3758761 5.2602711 5.9053998 0 0 0 0 7.8893876
1.1950619 5.4157381 5.8706794 0 0 0 0 7.8943348
1.0043132 5.575315 5.8429894 0 0 0 0 7.899282
1.4436123 5.1047792 5.9296393 0 0 0 0 7.9042287
1.2599885 5.2832632 5.8928542 0 0 0 0 7.9091759
1.0710082 5.4217854 5.8542271 0 0 0 0 7.9141226
0.87301487 5.557395 5.8186488 0 0 0 0 7.9190698
1.3337772 5.1366978 5.911037 0 0 0 0 7.924017
1.1398869 5.2902312 5.8633804 0 0 0 0 7.9289637
0.9480027 5.4298449 5.8447623 0 0 0 0 7.9339108
0.74167329 5.5354657 5.7923222 0 0 0 0 7.938858
1.2228719 5.1626101 5.8884597 0 0 0 0 7.9438047
1.0218464 5.3002067 5.841888 0 0 0 0 7.9487519
0.82376146 5.4198513 5.8173642 0 0 0 0 7.9536986
0.61338019 5.5155325 5.772975 0 0 0 0 7.9586458
1.1130799 5.1955523 5.8778529 0 0 0 0 7.963593
0.9048714 5.3141947 5.8273768 0 0 0 0 7.9685402
0.69953376 5.4098654 5.7929654 0 0 0 0 7.9734869
0.48610938 5.4965982 5.7566199 0 0 0 0 7.9784336
0.99907839 5.2124743 5.8513188 0 0 0 0 7.9833813
0.78680462 5.3211665 5.8058934 0 0 0 0 7.988328
0.578363 5.4028754 5.7755427 0 0 0 0 7.9932747
0.36076495 5.4706349 5.7372799 0 0 0 0 7.9982214
0.8872205 5.2394204 5.8377409 0 0 0 0 8.0031691
0.67081654 5.3321524 5.7943878 0 0 0 0 8.0081158
0.45610976 5.3888755 5.753149 0 0 0 0 8.0130625
0.23629028 5.4346275 5.7079692 0 0 0 0 8.0180101
0.77327967 5.2593646 5.8191957 0 0 0 0 8.0229568
0.55161089 5.3261094 5.7669535 0 0 0 0 8.0279036
0.33583084 5.3718562 5.7307558 0 0 0 0 8.0328512
0.11392964 5.4056411 5.6906257 0 0 0 0 8.0377979
0.65928668 5.2743015 5.7986674 0 0 0 0 8.0427446
0.43353161 5.3290925 5.7504835 0 0 0 0 8.0476913
0.21563071 5.3598619 5.7163458 0 0 0 0 8.052639
-0.0081595005 4.8697948 5.13799 0 0 0 0 8.0575857
0.54426312 5.2862411 5.777154 0 0 0 0 8.0625324
0.31632203 5.3210378 5.7260466 0 0 0 0 8.0674801
0.097487472 5.350872 5.7089162 0 0 0 0 8.0724268
-0.11595415 4.8065634 5.0876985 0 0 0 0 8.0773735
0.4292962 5.3012028 5.762629 0 0 0 0 8.0823212
0.1992085 5.3190155 5.7115884 0 0 0 0 8.0872679
-0.020690035 4.8139195 5.1362681 0 0 0 0 8.0922146
-0.2418004 5.2644258 5.5967288 0 0 0 0 8.0971622
0.31211215 5.2991261 5.732172 0 0 0 0 8.102109
0.071125343 4.7941384 5.1359444 0 0 0 0 8.1070557
-0.12588933 4.7988067 5.1268024 0 0 0 0 8.1120024
-0.35878041 5.2605124 5.6162767 0 0 0 0 8.11695
0.19652241 5.3138785 5.7224073 0 0 0 0 7.8602347
-0.032865562 4.7767725 5.111228 0 0 0 0 7.8651819
-0.25228965 5.2665081 5.6395612 0 0 0 0 7.8701286
-0.47204238 5.2082443 5.5877337 0 0 0 0 7.8750758
0.070568517 4.8070264 5.1526828 0 0 0 0 7.880023
-0.13792655 4.775682 5.1057153 0 0 0 0 7.8849697
-0.36677808 5.2284184 5.6112142 0 0 0 0 7.8899169
-0.58543754 5.1712079 5.5783787 0 0 0 0 7.8948636
-0.034698945 4.7948518 5.1222081 0 0 0 0 7.8998108
-0.26535755 5.2676215 5.6326466 0 0 0 0 7.904758
-0.48009524 5.2023687 5.5978212 0 0 0 0 7.9097047
-0.69690192 5.1281395 5.5650344 0 0 0 0 7.9146519
-0.14078248 4.7957377 5.1076937 0 0 0 0 7.9195986
-0.38059688 5.2515821 5.6172285 0 0 0 0 7.9245458
-0.59350359 5.1683006 5.5794554 0 0 0 0 7.929493
-0.80361915 5.0659585 5.5317335 0 0 0 0 7.9344397
-0.26931807 5.2846322 5.618638 0 0 0 0 7.9393868
-0.49493626 5.2275085 5.5948329 0 0 0 0 7.944334
-0.70487195 5.1362295 5.5660739 0 0 0 0 7.9492807
-0.91110367 5.019855 5.5193825 0 0 0 0 7.9542279
-0.38623929 5.2966647 5.6201324 0 0 0 0 7.9591746
-0.60921389 5.2064605 5.5804272 0 0 0 0 7.9641218
-0.81241006 5.0910788 5.5397196 0 0 0 0 7.9690685
-0.89393556 4.3573041 4.8225532 0 0 0 0 7.9740162
-0.50444406 5.2866335 5.6007066 0 0 0 0 7.9789629
-0.72259581 5.1773744 5.558044 0 0 0 0 7.9839096
-0.92183805 5.0529804 5.5243492 0 0 0 0 7.9888573
-0.9947899 4.3573155 4.8610187 0 0 0 0 7.993804
-0.62160039 5.278616 5.5882692 0 0 0 0 7.9987507
-0.83590728 5.1523137 5.5436473 0 0 0 0 8.0036974
-1.0283222 5.0098443 5.5059834 0 0 0 0 8.0086451
-1.0786297 4.2839017 4.8196554 0 0 0 0 8.0135918
-0.73884356 5.2635756 5.5698552 0 0 0 0 8.0185385
-0.94542301 5.1111665 5.5142879 0 0 0 0 8.0234861
-1.1310277 4.9496155 5.4706583 0 0 0 0 8.0284328
-1.199446 4.3583927 4.9479585 0 0 0 0 8.0333796
-0.85516024 5.2415156 5.5484614 0 0 0 0 8.0383272
-0.92639208 4.43854 4.8014879 0 0 0 0 8.0432739
-1.1653433 4.6217675 5.1389327 0 0 0 0 8.0482206
-1.4379911 4.8164468 5.523488 0 0 0 0 8.0531673
-0.97244161 5.2214756 5.5310645 0 0 0 0 8.058115
-1.1123686 4.8086147 5.224081 0 0 0 0 8.0630617
-1.1799586 4.2716579 4.7811966 0 0 0 0 8.0680084
-1.5394055 4.7703323 5.5261106 0 0 0 0 8.0729561
-0.91039789 4.3226495 4.5798397 0 0 0 0 8.0779028
-1.1674731 4.5722733 4.9871397 0 0 0 0 8.0828495
-1.442376 4.8201971 5.4375248 0 0 0 0 8.0877972
-1.6042813 4.6174722 5.4049311 0 0 0 0 8.0927439
-1.0028801 4.2853432 4.5483928 0 0 0 0 8.0976906
-1.3831122 4.9647207 5.4447865 0 0 0 0 8.1026382
-1.5419774 4.7639856 5.4171724 0 0 0 0 8.107585
-1.6910588 4.5441241 5.3775806 0 0 0 0 8.1125317
-1.1010398 4.2711802 4.5448937 0 0 0 0 8.1174784
-1.4886239 4.9195571 5.4234223 0 0 0 0 8.122426
-1.6385911 4.7067437 5.3958111 0 0 0 0 8.1273727
-1.7835914 4.4879003 5.3721976 0 0 0 0 8.1323195
-1.4300561 5.0941262 5.4415851 0 0 0 0 8.1372671
-1.5921822 4.8693714 5.4010673 0 0 0 0 8.1422138
-1.7370859 4.6565614 5.3874335 0 0 0 0 8.1471605
-1.870275 4.4195867 5.3558297 0 0 0 0 8.1521082
-1.5415987 5.0489888 5.4132476 0 0 0 0 8.1570549
-1.701514 4.8353028 5.3986826 0 0 0 0 8.1620016
-1.8317103 4.5963087 5.3690734 0 0 0 0 8.1669493
-1.9588532 4.3583221 5.3494468 0 0 0 0 8.171896
-1.6569279 5.0189471 5.4038754 0 0 0 0 8.1768427
-1.8031052 4.7810969 5.3763328 0 0 0 0 8.1817894
-1.9214163 4.5299883 5.3437119 0 0 0 0 8.1867371
-1.856092 3.8936687 4.8395834 0 0 0 0 8.1916838
-1.7674083 4.9768243 5.383523 0 0 0 0 8.1966305
-1.9017519 4.7218528 5.350986 0 0 0 0 8.2015781
-2.0179081 4.4777975 5.3393326 0 0 0 0 8.2065248
-1.9238652 3.8191545 4.8131542 0 0 0 0 8.2114716
-1.8750305 4.9226437 5.354198 0 0 0 0 8.2164192
-2.0061805 4.6777267 5.345614 0 0 0 0 8.2213659
-2.1172521 4.435678 5.3489318 0 0 0 0 8.2263126
-1.9974506 3.7577477 4.8037066 0 0 0 0 8.2312593
-1.9874524 4.882565 5.3428478 0 0 0 0 8.236207
-2.1057727 4.6205153 5.3282652 0 0 0 0 8.2411537
-1.9918872 3.9407115 4.8050733 0 0 0 0 8.2461004
-2.2805848 4.0778708 5.2948918 0 0 0 0 8.2510481
-2.0969815 4.8334351 5.3245144 0 0 0 0 8.2559948
-1.997279 4.1297655 4.8054676 0 0 0 0 8.2609415
-2.068512 3.8783052 4.7886424 0 0 0 0 8.2658892
-2.3533483 4.0004225 5.276494 0 0 0 0 8.2708359
-2.2045357 4.7812862 5.3061829 0 0 0 0 8.2757826
-2.0789917 4.0633607 4.777072 0 0 0 0 8.2807302
-2.3626196 4.208478 5.2678399 0 0 0 0 8.285677
-2.4260671 3.9259865 5.2620864 0 0 0 0 8.2906237
-2.1058176 4.3017163 4.8113923 0 0 0 0 8.2955704
-2.1713786 4.0201464 4.7776446 0 0 0 0 8.300518
-2.4501801 4.1481996 5.2624488 0 0 0 0 8.3054647
-2.5026588 3.8596272 5.2606683 0 0 0 0 8.3104115
-2.1906474 4.2282906 4.7700338 0 0 0 0 8.3153591
-2.4862909 4.3725042 5.2598562 0 0 0 0 8.3203058
-2.5357864 4.0828996 5.2560668 0 0 0 0 8.3252525
-2.5733707 3.7841821 5.2492552 0 0 0 0 8.3302002
-2.5262918 4.6188407 5.2642913 0 0 0 0 8.4347343
-2.5848887 4.3172998 5.257585 0 0 0 0 8.439682
-2.6145763 4.0104756 5.2397695 0 0 0 0 8.4446287
-2.6421201 3.7106988 5.2409215 0 0 0 0 8.4495754
-2.6279511 4.5546231 5.2439752 0 0 0 0 8.4545231
-2.9876215 4.748816 5.8629065 0 0 0 0 8.4594698
-2.6893373 3.9330318 5.2203813 0 0 0 0 8.4644165
-2.7068737 3.6311872 5.2264972 0 0 0 0 8.4693642
-2.9163766 4.80127 5.5914216 0 0 0 0 8.4743109
-3.1049821 4.6998634 5.8816071 0 0 0 0 8.4792576
-2.7709332 3.8667009 5.2169857 0 0 0 0 8.4842052
-2.7715833 3.5546882 5.2160621 0 0 0 0 8.489152
-3.0671365 4.7997603 5.6561069 0 0 0 0 8.4940987
-3.7643204 5.4360118 6.9080157 0 0 0 0 8.4990454
-2.8466179 3.7932937 5.2065883 0 0 0 0 8.503993
-2.8362782 3.4781985 5.2086272 0 0 0 0 8.5089397
-3.172905 4.7225709 5.6358523 0 0 0 0 8.5138865
-2.9582083 4.0643473 5.2371631 0 0 0 0 8.5188341
-2.9173837 3.7138195 5.1891899 0 0 0 0 8.5237808
-2.8950195 3.3986397 5.196177 0 0 0 0 8.5287275
-3.3512421 4.7484436 5.744566 0 0 0 0 8.5336752
-3.0154393 3.9526036 5.1758151 0 0 0 0 8.5386219
-2.9861517 3.6333306 5.1727858 0 0 0 0 8.5435686
-2.9606259 3.3271904 5.1987295 0 0 0 0 8.5485163
-3.1262424 4.2165298 5.17241 0 0 0 0 8.553463
-3.1011183 3.8792808 5.166461 0 0 0 0 8.5584097
-3.0627511 3.563966 5.1733789 0 0 0 0 8.5633564
-3.0134292 3.2425625 5.1812711 0 0 0 0 8.5683041
-3.6816783 4.7387638 5.9060855 0 0 0 0 8.5732508
-3.1788864 3.7988653 5.1500964 0 0 0 0 8.5781975
-3.1334393 3.4875259 5.1669707 0 0 0 0 8.5831451
-3.0711145 3.16502 5.1768098 0 0 0 0 8.5880919
-3.701004 4.5443764 5.7538519 0 0 0 0 8.5930386
-3.2546828 3.7154286 5.1327338 0 0 0 0 8.5979862
-3.1942675 3.4009562 5.1475534 0 0 0 0 8.6029329
-3.1258247 3.0854445 5.1703424 0 0 0 0 8.6078796
-3.3739531 3.9482608 5.0834703 0 0 0 0 8.6128263
-3.3373404 3.6410971 5.1293702 0 0 0 0 8.617774
-3.2599874 3.321465 5.1391339 0 0 0 0 8.6227207
-3.1736155 3.0007784 5.1548624 0 0 0 0 8.6276674
-3.4922431 3.9003463 5.114172 0 0 0 0 8.6326151
-3.4101467 3.5556359 5.1130018 0 0 0 0 8.6375618
-3.3227313 3.2399406 5.1287084 0 0 0 0 8.6425085
-3.2282796 2.9232216 5.1543884 0 0 0 0 8.6474562
-3.5750933 3.8119538 5.0938573 0 0 0 0 8.6524029
-3.4829259 3.4711871 5.1006298 0 0 0 0 8.6573496
-3.3874395 3.1594527 5.1242886 0 0 0 0 8.6622972
-3.2750244 2.8405662 5.1448979 0 0 0 0 8.667244
-3.6520054 3.7174997 5.0705376 0 0 0 0 8.6721907
-3.5576472 3.3897779 5.0952559 0 0 0 0 8.6771374
-3.4471891 3.0759082 5.1158571 0 0 0 0 8.682085
-3.310914 2.7487628 5.1193905 0 0 0 0 8.6870317
-3.7367961 3.6311522 5.0592241 0 0 0 0 8.6919785
-3.6225047 3.2982428 5.0778737 0 0 0 0 8.6969261
-3.500989 2.9892917 5.1014104 0 0 0 0 8.7018728
-3.3635359 2.6732039 5.1239014 0 0 0 0 8.7068195
-3.8146665 3.5377274 5.0429053 0 0 0 0 8.7117672
-3.6912875 3.2117643 5.0674925 0 0 0 0 8.7167139
-3.5636542 2.9098082 5.1039782 0 0 0 0 8.7216606
-3.4082465 2.5915465 5.1193986 0 0 0 0 8.7266083
-3.8944838 3.4473391 5.0325842 0 0 0 0 8.731555
-3.7580853 3.1222744 5.0591121 0 0 0 0 8.7365017
-3.6144593 2.8211718 5.0915256 0 0 0 0 8.7414484
-3.4549046 2.5129259 5.1208944 0 0 0 0 8.7463961
-3.9733036 3.3559444 5.0232635 0 0 0 0 8.7513428
-3.8258522 3.0348024 5.0537295 0 0 0 0 8.7562895
-3.6672246 2.7345686 5.084075 0 0 0 0 8.7612371
-3.4995823 2.4322841 5.1213889 0 0 0 0 8.7661839
-4.0412459 3.2554188 5.0029259 0 0 0 0 8.7711306
-3.8906341 2.9453042 5.0483413 0 0 0 0 8.7760782
-3.7179968 2.6469476 5.0766196 0 0 0 0 8.7810249
-3.5274391 2.3414245 5.099844 0 0 0 0 8.7859716
-4.116087 3.1599951 4.9956012 0 0 0 0 8.7909184
-3.9445343 2.847672 5.0309334 0 0 0 0 8.795866
-3.7677588 2.5593243 5.0711598 0 0 0 0 8.8008127
-3.5651534 2.2587056 5.0953155 0 0 0 0 8.8057594
-4.1849742 3.0615032 4.9832621 0 0 0 0 8.8107071
-4.0033555 2.7541151 5.0235333 0 0 0 0 8.8156538
-3.8125622 2.4686451 5.0616884 0 0 0 0 8.8206005
-3.6028445 2.1769967 5.0937834 0 0 0 0 8.8255482
-4.253859 2.961024 4.9749289 0 0 0 0 8.8304949
-4.0591888 2.6595287 5.0151234 0 0 0 0 8.8354416
-3.8563597 2.3779602 5.0532141 0 0 0 0 8.8403893
-3.6326201 2.0901866 5.0822339 0 0 0 0 8.845336
-4.3138108 2.8564413 4.9585719 0 0 0 0 8.8502827
-4.1130238 2.5639286 5.007709 0 0 0 0 8.8552294
-3.8902416 2.2821569 5.0347133 0 0 0 0 8.860177
-3.596082 1.9675084 4.9805174 0 0 0 0 8.8651237
-4.3806872 2.7549536 4.9532342 0 0 0 0 8.8700705
-4.1618958 2.4652753 4.9972835 0 0 0 0 8.8750181
-3.9300363 2.1914372 5.0262213 0 0 0 0 8.8799648
-3.566397 1.8539437 4.8948002 0 0 0 0 8.8849115
-4.4425879 2.6514168 4.9458818 0 0 0 0 8.8898592
-4.2097697 2.3656166 4.9878578 0 0 0 0 8.8948059
-3.9717951 2.1017544 5.0237346 0 0 0 0 8.8997526
-3.590126 1.7710893 4.8852119 0 0 0 0 8.9047003
-4.4956641 2.5422587 4.9309735 0 0 0 0 9.3908186
-4.2596526 2.2675211 4.9839149 0 0 0 0 9.3957663
-3.9848101 1.9973001 4.9886708 0 0 0 0 9.400713
-3.615762 1.6889157 4.8801484 0 0 0 0 9.4056597
-4.5565357 2.4367168 4.9286284 0 0 0 0 9.4106064
-4.3025126 2.1668108 4.9744749 0 0 0 0 9.415554
-3.9016843 1.8480569 4.8338504 0 0 0 0 9.4205008
-3.6453874 1.6101462 4.882576 0 0 0 0 9.4254475
-4.5945954 2.3199079 4.9032226 0 0 0 0 9.4303951
-4.3641882 2.0753407 4.9900842 0 0 0 0 9.4353418
-3.9334383 1.7582697 4.8273249 0 0 0 0 9.4402885
-3.6720366 1.5293448 4.882997 0 0 0 0 9.4452362
-4.6355939 2.2061501 4.8858194 0 0 0 0 9.4501829
-4.3177938 1.9335624 4.883399 0 0 0 0 9.4551296
-3.9651654 1.6694961 4.8247957 0 0 0 0 9.4600773
-3.6966844 1.448527 4.8834095 0 0 0 0 9.465024
-4.261415 1.7926826 4.7706666 0 0 0 0 9.4749174
-3.9958868 1.5807173 4.8232622 0 0 0 0 9.4798651
-3.7223144 1.3687238 4.8858232 0 0 0 0 9.4848118
-4.2982259 1.693943 4.7671947 0 0 0 0 9.4947062
-4.027606 1.4909532 4.8237367 0 0 0 0 9.4996529
-3.7370234 1.284793 4.8772044 0 0 0 0 9.5045996
-4.6384025 1.8185304 4.7282515 0 0 0 0 9.5095472
-4.3409796 1.5972826 4.7727418 0 0 0 0 9.5144939
-4.0553331 1.4011494 4.8221951 0 0 0 0 9.5194407
-3.7566721 1.2039303 4.876596 0 0 0 0 9.5243874
-4.6663938 1.7046659 4.7107935 0 0 0 0 9.529335
-4.360889 1.4933559 4.7552142 0 0 0 0 9.5342817
-4.0751128 1.3082561 4.8136292 0 0 0 0 9.5392284
-3.7733319 1.1220396 4.8749785 0 0 0 0 9.5441761
-4.7211876 1.5991236 4.723424 0 0 0 0 9.5491228
-4.3698516 1.3863157 4.7306509 0 0 0 0 9.5540695
-4.0998363 1.2174345 4.8140783 0 0 0 0 9.5590172
-3.7850204 1.0390909 4.8683438 0 0 0 0 9.5639639
-4.7431912 1.4832098 4.7059479 0 0 0 0 9.5689106
-4.3450427 1.2698759 4.6699734 0 0 0 0 9.5738583
-4.1185884 1.1255466 4.809505 0 0 0 0 9.578805
-3.7996733 0.95718718 4.8677187 0 0 0 0 9.5837517
-4.7820616 1.3725061 4.709528 0 0 0 0 9.5886984
-4.4224873 1.1846669 4.7246327 0 0 0 0 9.593646
-4.1413121 1.0337117 4.8109493 0 0 0 0 9.5985928
-3.8192739 0.87735146 4.8751078 0 0 0 0 9.6035395
-4.8139682 1.259728 4.7080851 0 0 0 0 9.6084871
-4.1471214 0.93968374 4.7963281 0 0 0 0 9.6183805
-3.8289421 0.79539305 4.8704615 0 0 0 0 9.6233282
-4.1717997 0.84889239 4.805778 0 0 0 0 9.6381693
-3.8356125 0.71241403 4.866806 0 0 0 0 9.643116
-4.54954 0.89183378 4.7882833 0 0 0 0 9.6530094
-4.1805673 0.75591272 4.7981668 0 0 0 0 9.6579571
-3.8452523 0.63146943 4.8661566 0 0 0 0 9.6629038
-4.8668499 0.91196591 4.6806054 0 0 0 0 9.6678505
-4.5484881 0.78372222 4.7666826 0 0 0 0 9.6727982
-4.1942859 0.66400462 4.7995734 0 0 0 0 9.6777449
-3.8538904 0.54952377 4.8675065 0 0 0 0 9.6826916
-4.8897567 0.79712135 4.6811323 0 0 0 0 9.6876392
-4.5662928 0.67985052 4.7701488 0 0 0 0 9.6925859
-4.2050195 0.57106537 4.7989712 0 0 0 0 9.6975327
-3.8495927 0.4674212 4.8538013 0 0 0 0 9.7024794
-4.9036794 0.68219042 4.6776204 0 0 0 0 9.707427
-4.2137523 0.4781099 4.7983603 0 0 0 0 9.7173204
-3.8651679 0.38657355 4.867178 0 0 0 0 9.7222681
-0.58030474 0.051015552 0.55205345 0 0 0 0 9.7321615
-4.2174921 0.38510743 4.7957282 0 0 0 0 9.7371092
-3.8668237 0.3045541 4.8634987 0 0 0 0 9.7420559
-0.52980554 0.040257707 0.45189109 0 0 0 0 9.7470026
-0.56248391 0.0368043 0.53205311 0 0 0 0 9.7519503
-3.8654709 0.22351068 4.8598032 0 0 0 0 9.7618437
-0.52888548 0.028249178 0.45095664 0 0 0 0 9.7667904
-0.54664177 0.023619747 0.51505786 0 0 0 0 9.7717381
-3.8661034 0.1424938 4.8591166 0 0 0 0 9.7816315
-0.52398694 0.016191166 0.44500515 0 0 0 0 9.7865791
-0.55667335 0.01173756 0.52517068 0 0 0 0 9.7915258
-3.8677208 0.0605026 4.8634381 0 0 0 0 9.8014202
-0.51211029 0.0040599164 0.43402356 0 0 0 0 9.8063669
-0.52091038 -0.00067642285 0.48808613 0 0 0 0 9.8113136
-3.865335 -0.018538177 4.8627319 0 0 0 0 9.821208
-0.5081948 -0.0069829528 0.43007284 0 0 0 0 9.8261547
-0.5120132 -0.01078022 0.4781104 0 0 0 0 9.8311014
-3.8639464 -0.099556744 4.8660374 0 0 0 0 9.8409958
-0.50627041 -0.018002834 0.42813075 0 0 0 0 9.8459425
-0.50908881 -0.021807967 0.47616404 0 0 0 0 9.8508902
-3.8516133 -0.18070848 4.8562961 0 0 0 0 9.8607836
-0.5135898 -0.029951939 0.43585753 0 0 0 0 9.5933189
-0.51740366 -0.033746313 0.48489502 0 0 0 0 9.5982656
-3.8434963 -0.26058355 4.8522305 0 0 0 0 9.60816
-0.51964289 -0.042876039 0.44295672 0 0 0 0 9.6131067
-0.54037344 -0.046467107 0.51106733 0 0 0 0 9.6180534
-3.8311398 -0.34071851 4.8474836 0 0 0 0 9.6279478
-0.51871037 -0.053881045 0.44301873 0 0 0 0 9.6328945
-0.53944898 -0.058472119 0.5111329 0 0 0 0 9.6378422
-3.8317158 -0.42168921 4.859797 0 0 0 0 9.6477356
-0.53174031 -0.067724496 0.45715168 0 0 0 0 9.6526833
-0.54450601 -0.071407907 0.51722783 0 0 0 0 9.65763
-3.9666846 -0.52096188 5.0477614 0 0 0 0 9.6675234
-0.53379798 -0.079691418 0.46123022 0 0 0 0 9.672471
-0.55354023 -0.085287027 0.53034359 0 0 0 0 9.6774178
-3.9553266 -0.60407144 5.0480309 0 0 0 0 9.6873121
-0.57276142 -0.099235408 0.50149632 0 0 0 0 9.6922588
-0.55559772 -0.097254008 0.53442216 0 0 0 0 9.6972055
-3.9409595 -0.68620473 5.0482836 0 0 0 0 9.7070999
-0.57383466 -0.1132105 0.50557774 0 0 0 0 9.7120466
-0.56164902 -0.11117136 0.5435251 0 0 0 0 9.7169943
-3.9245994 -0.76836091 5.0465288 0 0 0 0 9.7268877
-0.59485191 -0.13095532 0.52975941 0 0 0 0 9.7318344
-0.58066642 -0.12893197 0.56769812 0 0 0 0 9.7367821
-4.1695399 -0.91408324 4.8641233 0 0 0 0 9.7417288
-3.9152019 -0.85241848 5.0568109 0 0 0 0 9.7466755
-4.791307 -1.1687638 4.6957326 0 0 0 0 9.7516232
-4.4443197 -1.085272 4.7659388 0 0 0 0 9.7565699
-4.1691661 -1.0100144 4.8904872 0 0 0 0 9.7615166
-3.9048076 -0.93648738 5.0660892 0 0 0 0 9.7664642
-4.7651529 -1.2829698 4.7040486 0 0 0 0 9.7714109
-4.416081 -1.18452 4.7661934 0 0 0 0 9.7763577
-4.1608176 -1.1060302 4.9108167 0 0 0 0 9.7813044
-3.8784509 -1.0157472 5.0572815 0 0 0 0 9.786252
-4.7369809 -1.3951916 4.7123494 0 0 0 0 9.7911987
-4.3838501 -1.2838063 4.764431 0 0 0 0 9.7961454
-4.160439 -1.2039468 4.9411883 0 0 0 0 9.8010931
-3.864054 -1.0998474 5.0665426 0 0 0 0 9.8060398
-4.7028079 -1.5064676 4.7186217 0 0 0 0 9.8109865
-4.3595772 -1.3849826 4.7757101 0 0 0 0 9.8159342
-4.1530733 -1.3009367 4.966527 0 0 0 0 9.8208809
-3.8436663 -1.1820163 5.0697718 0 0 0 0 9.8258276
-4.6626353 -1.6158047 4.7208614 0 0 0 0 9.8307753
-4.3283129 -1.4842354 4.7809529 0 0 0 0 9.835722
-4.1417146 -1.3979651 4.9898481 0 0 0 0 9.8406687
-3.8212736 -1.2632042 5.0719891 0 0 0 0 9.8456154
-4.6254425 -1.7260962 4.7291179 0 0 0 0 9.850563
-4.2920523 -1.5825378 4.7831707 0 0 0 0 9.8555098
-4.1243691 -1.4940584 5.0081406 0 0 0 0 9.8604565
-3.8028693 -1.3463389 5.0802307 0 0 0 0 9.8654041
-4.5812426 -1.8334568 4.7333336 0 0 0 0 9.8703508
-4.2517786 -1.678875 4.7843652 0 0 0 0 9.8752975
-4.0990243 -1.5872362 5.0203886 0 0 0 0 9.8802452
-3.7784736 -1.4285347 5.0844436 0 0 0 0 9.8851919
-4.535028 -1.9398289 4.7385383 0 0 0 0 9.8901386
-4.2164807 -1.776147 4.7925844 0 0 0 0 9.8950863
-4.0716872 -1.6804364 5.0306277 0 0 0 0 9.900033
-3.7530649 -1.5087417 5.0876451 0 0 0 0 9.9049797
-4.4908061 -2.0481668 4.7487588 0 0 0 0 9.9099264
-4.1771784 -1.8724537 4.7997837 0 0 0 0 9.9148741
-4.0263638 -1.7658424 5.0227618 0 0 0 0 9.9198208
-3.7256587 -1.5899606 5.0918422 0 0 0 0 9.9247675
-4.4515557 -2.1574359 4.7670045 0 0 0 0 9.9297152
-4.1328716 -1.9668099 4.8039541 0 0 0 0 9.9346619
-3.9960067 -1.8580582 5.0349855 0 0 0 0 9.9396086
-3.6972432 -1.6701869 5.0960312 0 0 0 0 9.9445562
-4.3913155 -2.2579374 4.7661285 0 0 0 0 9.9495029
-4.1015363 -2.0670021 4.8252029 0 0 0 0 9.9544497
-3.9566562 -1.9463764 5.0381565 0 0 0 0 9.9593964
-3.6648397 -1.7504549 5.0972037 0 0 0 0 9.964344
-4.34304 -2.3622904 4.7803187 0 0 0 0 9.9692907
-4.0771952 -2.1730959 4.8585033 0 0 0 0 9.9742374
-3.9192944 -2.0366569 5.0473442 0 0 0 0 9.9791851
-3.6354134 -1.830681 5.1033897 0 0 0 0 9.9841318
-4.2867684 -2.4647233 4.7894678 0 0 0 0 9.9890785
-4.085813 -2.297776 4.9350133 0 0 0 0 9.9940262
-3.8789196 -2.124964 5.0555115 0 0 0 0 9.9989729
-3.5999961 -1.9089751 5.1035428 0 0 0 0 10.00392
-4.2144833 -2.5573347 4.7835131 0 0 0 0 10.008867
-4.0894418 -2.4234984 5.0105062 0 0 0 0 10.013814
-3.8395348 -2.2132556 5.0656834 0 0 0 0 10.018761
-3.5635734 -1.987273 5.104692 0 0 0 0 10.023707
-4.1521707 -2.65382 4.7906156 0 0 0 0 10.028655
-4.0550957 -2.5296695 5.0437646 0 0 0 0 10.033602
-3.7951505 -2.2995999 5.0718274 0 0 0 0 10.038548
-3.5301347 -2.067522 5.1128616 0 0 0 0 10.043496
-4.0968518 -2.7562065 4.8097706 0 0 0 0 10.048443
-3.995753 -2.6201437 5.0468588 0 0 0 0 10.05339
-3.7457657 -2.3849897 5.0759468 0 0 0 0 10.058337
-3.4936998 -2.1468043 5.1180148 0 0 0 0 10.063284
-4.0412579 -2.8577027 4.8311124 0 0 0 0 10.198652
-3.9431438 -2.7156248 5.0631909 0 0 0 0 10.203599
-3.6971285 -2.4694607 5.0822554 0 0 0 0 10.208546
-3.4530396 -2.2242119 5.1203313 0 0 0 0 10.213492
-4.0619569 -3.0191293 4.9518104 0 0 0 0 10.21844
-3.881773 -2.8050988 5.0692754 0 0 0 0 10.223387
-3.6467159 -2.5538435 5.0893683 0 0 0 0 10.228333
-3.4145777 -2.302496 5.1284738 0 0 0 0 10.233281
-4.0466375 -3.1569762 5.0332689 0 0 0 0 10.238228
-3.8163898 -2.8926063 5.0743356 0 0 0 0 10.243175
-3.599288 -2.6391842 5.1014986 0 0 0 0 10.248122
-3.3801193 -2.3847268 5.1426487 0 0 0 0 10.253069
-3.967267 -3.2465932 5.0382771 0 0 0 0 10.258016
-3.7609899 -2.9869776 5.0954647 0 0 0 0 10.262962
-3.5508616 -2.726521 5.116632 0 0 0 0 10.26791
-3.3336587 -2.4591002 5.1427436 0 0 0 0 10.272857
-3.8948894 -3.3421113 5.0553374 0 0 0 0 10.277803
-3.6925764 -3.0715027 5.1015019 0 0 0 0 10.282751
-3.492424 -2.8059778 5.1196942 0 0 0 0 10.287698
-3.2961929 -2.5423422 5.1599102 0 0 0 0 10.292645
-3.8194957 -3.434659 5.0703745 0 0 0 0 10.297592
-3.6241531 -3.1560197 5.10954 0 0 0 0 10.302539
-3.435971 -2.8864002 5.127769 0 0 0 0 10.307486
-3.2517185 -2.6196704 5.168025 0 0 0 0 10.312433
-3.7340772 -3.5203078 5.0783434 0 0 0 0 10.31738
-3.5567067 -3.2405095 5.1225824 0 0 0 0 10.322327
-3.3845122 -2.9717469 5.1458831 0 0 0 0 10.327273
-3.2012422 -2.6930692 5.1691003 0 0 0 0 10.332221
-3.6546459 -3.60888 5.0943503 0 0 0 0 10.337168
-3.4862635 -3.3250253 5.134613 0 0 0 0 10.342114
-3.3240452 -3.0511949 5.1549382 0 0 0 0 10.347062
-3.1567559 -2.7713811 5.1812196 0 0 0 0 10.352009
-3.5712023 -3.6954856 5.1093326 0 0 0 0 10.356956
-3.4107866 -3.4025967 5.1415968 0 0 0 0 10.361903
-3.266566 -3.1325972 5.170013 0 0 0 0 10.36685
-3.1107249 -2.8510072 5.1917658 0 0 0 0 10.371797
-3.4822276 -3.7734149 5.1143308 0 0 0 0 10.376744
-3.3418133 -3.4873586 5.1568198 0 0 0 0 10.381691
-3.2045641 -3.2103543 5.1763515 0 0 0 0 10.386638
-3.0582457 -2.9254131 5.1978202 0 0 0 0 10.391584
-3.3997815 -3.862 5.13731 0 0 0 0 10.396532
-3.2663364 -3.5659249 5.1687946 0 0 0 0 10.401479
-3.140089 -3.2878404 5.1863675 0 0 0 0 10.406425
-3.0067568 -3.0007973 5.2078819 0 0 0 0 10.411373
-3.3072748 -3.936702 5.1482024 0 0 0 0 10.41632
-3.1868396 -3.6405313 5.1777396 0 0 0 0 10.421267
-3.0766003 -3.3663015 5.2013907 0 0 0 0 10.426214
-2.9542704 -3.0771849 5.2189436 0 0 0 0 10.431161
-3.21276 -4.0094247 5.1570807 0 0 0 0 10.436108
-3.1093366 -3.7180977 5.1937037 0 0 0 0 10.441054
-3.0070965 -3.4388347 5.2083702 0 0 0 0 10.446002
-2.8977685 -3.1496162 5.225976 0 0 0 0 10.450949
-3.1282554 -4.0940022 5.1860394 0 0 0 0 10.455895
-3.0298209 -3.7936819 5.2086525 0 0 0 0 10.460843
-2.9395826 -3.5143249 5.2233682 0 0 0 0 10.46579
-2.842272 -3.2260189 5.2390261 0 0 0 0 10.470737
-3.0296917 -4.1607533 5.1948824 0 0 0 0 10.475684
-2.9452784 -3.8633201 5.2185621 0 0 0 0 10.480631
-2.8690605 -3.5868504 5.2343445 0 0 0 0 10.485578
-2.7837598 -3.2984574 5.2480507 0 0 0 0 10.490525
-2.9351368 -4.2344351 5.2147651 0 0 0 0 10.495472
-2.8627334 -3.9359217 5.2344899 0 0 0 0 10.500419
-2.797533 -3.6603727 5.2483201 0 0 0 0 10.505365
-2.7232423 -3.3709071 5.2580676 0 0 0 0 10.510313
-2.8385577 -4.3041377 5.2326264 0 0 0 0 10.51526
-2.777169 -4.0045552 5.2473931 0 0 0 0 10.520206
-2.7199719 -3.7249703 5.2532425 0 0 0 0 10.525154
-2.6657302 -3.4483061 5.2761135 0 0 0 0 10.530101
-2.7389441 -4.3678727 5.2474566 0 0 0 0 10.535048
-2.6875737 -4.0672317 5.2562599 0 0 0 0 10.539995
-2.6454196 -3.7955136 5.2671967 0 0 0 0 10.544942
-2.602195 -3.5197706 5.2881155 0 0 0 0 10.549889
-2.6352994 -4.4256496 5.2582507 0 0 0 0 10.554836
-2.6039891 -4.1398077 5.2811852 0 0 0 0 10.559783
-2.5728645 -3.8690207 5.2871695 0 0 0 0 10.56473
-2.5326576 -3.5853167 5.2890739 0 0 0 0 10.569676
-2.507515 -4.439774 5.2198029 0 0 0 0 10.574624
-2.5133686 -4.2004824 5.2920423 0 0 0 0 10.579571
-2.4882591 -3.9266789 5.2890406 0 0 0 0 10.584517
-2.4691114 -3.6587594 5.3070836 0 0 0 0 10.589465
-2.3615932 -4.4151692 5.1411533 0 0 0 0 10.594412
-2.4207354 -4.2601686 5.3038883 0 0 0 0 10.599359
-2.4106727 -3.9942355 5.3049741 0 0 0 0 10.604306
-2.4015653 -3.7302451 5.3210702 0 0 0 0 10.609253
-2.2437973 -4.4351664 5.116766 0 0 0 0 10.6142
-2.3300955 -4.3238077 5.3247566 0 0 0 0 10.619146
-2.329078 -4.0598283 5.3188853 0 0 0 0 10.624094
-2.3289895 -3.7937949 5.3270106 0 0 0 0 10.629041
-2.1390505 -4.4799452 5.1275148 0 0 0 0 10.633987
-2.2334194 -4.3755379 5.3315606 0 0 0 0 10.638935
-2.2434454 -4.1174703 5.3267536 0 0 0 0 10.643882
-2.2594285 -3.8662772 5.3459935 0 0 0 0 10.648829
-2.0383201 -4.5316615 5.1473036 0 0 0 0 10.653776
-2.1256635 -4.4054255 5.3162479 0 0 0 0 10.658723
-2.1618288 -4.1830444 5.3456655 0 0 0 0 10.66367
-2.1828396 -3.9278591 5.3509121 0 0 0 0 10.668617
-1.9360781 -4.5813046 5.1687889 0 0 0 0 10.447444
-1.9992598 -4.3895445 5.2484198 0 0 0 0 10.452391
-2.0766642 -4.2425723 5.3592567 0 0 0 0 10.457337
-2.1067095 -3.9913349 5.3585548 0 0 0 0 10.462285
-1.8333155 -4.6290388 5.1895542 0 0 0 0 10.467232
-1.8783675 -4.380672 5.1929235 0 0 0 0 10.472178
-1.9890132 -4.3012104 5.3741193 0 0 0 0 10.477126
-2.0331283 -4.0618448 5.3795137 0 0 0 0 10.482073
-1.7285178 -4.6717911 5.2092957 0 0 0 0 10.48702
-1.7786022 -4.417448 5.193665 0 0 0 0 10.491967
-1.9003534 -4.3598485 5.3909783 0 0 0 0 10.496914
-1.9525138 -4.1224442 5.3894119 0 0 0 0 10.501861
-1.6206858 -4.707581 5.2240024 0 0 0 0 10.506808
-1.6848663 -4.4700999 5.2174845 0 0 0 0 10.511755
-1.7995998 -4.3886914 5.3736897 0 0 0 0 10.516702
-1.8708953 -4.1810594 5.3962998 0 0 0 0 10.521648
-1.5148593 -4.7483277 5.2467337 0 0 0 0 10.526596
-1.5870892 -4.5128112 5.2322545 0 0 0 0 10.531543
-1.677675 -4.3599219 5.2881241 0 0 0 0 10.536489
-1.7912883 -4.2486124 5.4172254 0 0 0 0 10.541437
-1.4059848 -4.777132 5.2584133 0 0 0 0 10.546384
-1.4882962 -4.5535293 5.2470145 0 0 0 0 10.551331
-1.5688152 -4.35992 5.2417073 0 0 0 0 10.556278
-1.7046373 -4.3032646 5.4240804 0 0 0 0 10.561225
-1.2960752 -4.8009467 5.269073 0 0 0 0 10.566172
-1.3915231 -4.6031895 5.2738128 0 0 0 0 10.571118
-1.4750557 -4.3996315 5.2464848 0 0 0 0 10.576066
-1.617985 -4.3589087 5.4329386 0 0 0 0 10.581013
-1.1902219 -4.8446484 5.3038158 0 0 0 0 10.585959
-1.2927086 -4.6438875 5.2935739 0 0 0 0 10.590907
-1.3823129 -4.4463034 5.2602897 0 0 0 0 10.595854
-1.5131836 -4.3648834 5.3835592 0 0 0 0 10.600801
-1.0792841 -4.8664575 5.3174653 0 0 0 0 10.605748
-1.1878244 -4.666687 5.2962513 0 0 0 0 10.610695
-1.2895496 -4.4919639 5.277092 0 0 0 0 10.615642
-1.3982757 -4.3350739 5.2920198 0 0 0 0 10.620589
-0.97033393 -4.8882394 5.3341241 0 0 0 0 10.625536
-1.0890027 -4.7123456 5.3270292 0 0 0 0 10.630483
-1.1978134 -4.5485687 5.3079348 0 0 0 0 10.635429
-1.3045334 -4.3708215 5.2847853 0 0 0 0 10.640377
-0.86038947 -4.9150004 5.3587947 0 0 0 0 10.645324
-0.98511565 -4.7401009 5.3397284 0 0 0 0 10.65027
-1.1000046 -4.5842919 5.3166838 0 0 0 0 10.655218
-1.2148216 -4.4184866 5.2926064 0 0 0 0 10.660165
-0.75039685 -4.9307899 5.3744302 0 0 0 0 10.665112
-0.88122356 -4.7688456 5.3554301 0 0 0 0 10.670059
-1.0032158 -4.6289654 5.3374677 0 0 0 0 10.675006
-1.1241143 -4.4731178 5.3124471 0 0 0 0 10.679953
-0.63938111 -4.9435859 5.3900514 0 0 0 0 10.6849
-0.77732587 -4.8005643 5.3781428 0 0 0 0 10.689847
-0.90540379 -4.6696525 5.3562346 0 0 0 0 10.694794
-1.0323918 -4.5237694 5.3282714 0 0 0 0 10.69974
-0.52834582 -4.9543767 5.4066668 0 0 0 0 10.704688
-0.671381 -4.8193407 5.387805 0 0 0 0 10.709635
-0.804555 -4.7013874 5.3669596 0 0 0 0 10.714581
-0.94067675 -4.5833693 5.3591261 0 0 0 0 10.719529
-0.41730604 -4.966156 5.4262857 0 0 0 0 10.724476
-0.56542009 -4.8371091 5.3994641 0 0 0 0 10.729423
-0.70472187 -4.7420697 5.3907189 0 0 0 0 10.73437
-0.84491926 -4.628058 5.3719149 0 0 0 0 10.739317
-0.30725041 -4.9769197 5.447906 0 0 0 0 10.744264
-0.46050701 -4.8737874 5.4351902 0 0 0 0 10.74921
-0.60285914 -4.7757864 5.4084477 0 0 0 0 10.754158
-0.74715269 -4.6737475 5.3886991 0 0 0 0 10.759105
-0.19617543 -4.9856853 5.4705162 0 0 0 0 10.764051
-0.3535147 -4.8885531 5.4488363 0 0 0 0 10.768999
-0.49895567 -4.80054 5.4191389 0 0 0 0 10.773946
-0.64737082 -4.7164574 5.4034657 0 0 0 0 10.778893
-0.085049339 -4.9824829 5.4830866 0 0 0 0 10.78384
-0.24649628 -4.8983283 5.459466 0 0 0 0 10.788787
-0.395051 -4.8272786 5.4338365 0 0 0 0 10.793734
-0.54657626 -4.7591639 5.4212294 0 0 0 0 10.798681
0.024077624 -4.9812508 5.4996715 0 0 0 0 10.803628
-0.13849021 -4.9160681 5.4821186 0 0 0 0 10.808575
-0.29017326 -4.8649769 5.4625683 0 0 0 0 10.813521
-0.44374147 -4.791914 5.4299512 0 0 0 0 10.818469
0.13422057 -4.980011 5.5202532 0 0 0 0 10.823416
-0.031469218 -4.9308062 5.5027657 0 0 0 0 10.828362
-0.1832228 -4.8847413 5.4752312 0 0 0 0 10.83331
-0.33893344 -4.8356309 5.452703 0 0 0 0 10.838257
0.2443853 -4.973783 5.536819 0 0 0 0 10.843204
0.077592447 -4.9375744 5.5183783 0 0 0 0 10.848151
-0.076277837 -4.9094787 5.4959121 0 0 0 0 10.853098
-0.23409495 -4.8743529 5.4734383 0 0 0 0 10.858045
0.35356909 -4.9655423 5.5543828 0 0 0 0 10.862992
0.18568005 -4.9393435 5.5309787 0 0 0 0 10.867939
0.030699892 -4.9262376 5.5095663 0 0 0 0 10.872886
-0.12721999 -4.9041152 5.486136 0 0 0 0 10.877832
0.46277899 -4.9533038 5.5709329 0 0 0 0 10.88278
0.2947588 -4.9480824 5.5545993 0 0 0 0 10.887727
0.13969955 -4.9380226 5.5191965 0 0 0 0 10.892673
-0.019346794 -4.9378605 5.5058432 0 0 0 0 10.897621
0.57100075 -4.9410458 5.5904875 0 0 0 0 10.902568
0.40386644 -4.9498391 5.5721965 0 0 0 0 10.907515
0.2496773 -4.9627514 5.5478668 0 0 0 0 10.912462
0.090548493 -4.9666328 5.5215263 0 0 0 0 10.917409
0.67931706 -4.9224997 5.6047339 0 0 0 0 11.378901
0.51406807 -4.9493246 5.590487 0 0 0 0 11.383849
0.36178523 -4.9732924 5.5621791 0 0 0 0 11.388796
0.20354193 -4.9961901 5.5418911 0 0 0 0 11.393743
0.78852487 -4.9201736 5.6403236 0 0 0 0 11.39869
0.62420511 -4.9480596 5.610076 0 0 0 0 11.403637
0.47283342 -4.9830422 5.5798011 0 0 0 0 11.408584
0.31745234 -5.0289359 5.5675778 0 0 0 0 11.41353
0.89581031 -4.8939147 5.6508417 0 0 0 0 11.418478
0.73338068 -4.9378095 5.6226397 0 0 0 0 11.423425
0.5848788 -4.9947877 5.6004262 0 0 0 0 11.428371
0.43141189 -5.0497131 5.5832248 0 0 0 0 11.433319
1.0010936 -4.8716154 5.6683812 0 0 0 0 11.438266
0.84354073 -4.9355278 5.6462264 0 0 0 0 11.443213
0.69794631 -5.0035391 5.6210375 0 0 0 0 11.44816
0.54739028 -5.0685005 5.5998583 0 0 0 0 11.453107
1.1063925 -4.8493018 5.6899219 0 0 0 0 11.458054
0.95273578 -4.9252577 5.6637912 0 0 0 0 11.463001
0.81104892 -5.0043087 5.6356225 0 0 0 0 11.467948
0.66435933 -5.0912766 5.621501 0 0 0 0 11.472895
1.2107114 -4.8209991 5.7054458 0 0 0 0 11.477841
1.059965 -4.9059973 5.6733332 0 0 0 0 11.482789
0.92613626 -5.0130544 5.6612272 0 0 0 0 11.487736
0.78336799 -5.1070757 5.6401134 0 0 0 0 11.492682
1.3130579 -4.7866936 5.7169585 0 0 0 0 11.49763
1.1701765 -4.8977046 5.6989012 0 0 0 0 11.502577
1.0402761 -5.0098209 5.6777964 0 0 0 0 11.507524
0.90239155 -5.120873 5.6587191 0 0 0 0 11.512471
1.4173892 -4.7613578 5.7414937 0 0 0 0 11.517418
1.2774419 -4.8734412 5.7084279 0 0 0 0 11.522365
1.1554203 -5.0075841 5.6973648 0 0 0 0 11.527312
1.0224507 -5.1276894 5.6732984 0 0 0 0 11.532259
1.5187618 -4.7260256 5.758007 0 0 0 0 11.537206
1.3857052 -4.8531609 5.7249641 0 0 0 0 11.542152
1.2705824 -5.0023479 5.7159243 0 0 0 0 11.5471
1.1435318 -5.1315117 5.6878638 0 0 0 0 11.552047
1.6171541 -4.6846895 5.7685132 0 0 0 0 11.556993
1.4929829 -4.8308716 5.7414985 0 0 0 0 11.561941
1.383796 -4.9841328 5.7234478 0 0 0 0 11.566888
1.2646338 -5.1303453 5.6984129 0 0 0 0 11.571835
1.7185373 -4.6493444 5.7880278 0 0 0 0 11.576782
1.6012725 -4.8095703 5.7630324 0 0 0 0 11.581729
1.5009813 -4.9788885 5.7480001 0 0 0 0 11.586676
1.3857687 -5.1251736 5.7099495 0 0 0 0 11.591622
1.8169453 -4.6099787 5.8065414 0 0 0 0 11.59657
1.7085892 -4.7812815 5.7785473 0 0 0 0 11.601517
1.6191823 -4.9736362 5.7765484 0 0 0 0 11.606463
1.5019668 -5.1000352 5.700439 0 0 0 0 11.611411
1.9133627 -4.5676069 5.8220525 0 0 0 0 11.616358
1.8149233 -4.7499862 5.7930565 0 0 0 0 11.621305
1.7364205 -4.958405 5.7960677 0 0 0 0 11.626252
1.6281081 -5.0998592 5.7229733 0 0 0 0 11.631199
2.0097947 -4.5242271 5.839561 0 0 0 0 11.636146
1.9242425 -4.7276683 5.8205838 0 0 0 0 11.641093
1.8516932 -4.9351773 5.8095689 0 0 0 0 11.64604
1.7522876 -5.0906916 5.7384858 0 0 0 0 11.650987
2.1022561 -4.4718471 5.8480558 0 0 0 0 11.655933
2.0276184 -4.6883612 5.831079 0 0 0 0 11.660881
1.9699612 -4.9179363 5.8330789 0 0 0 0 11.665828
1.8844328 -5.0975094 5.7750211 0 0 0 0 11.670774
2.1996927 -4.4324412 5.8745742 0 0 0 0 11.675722
2.1349823 -4.6570425 5.8535848 0 0 0 0 11.680669
2.0852697 -4.8906994 5.848567 0 0 0 0 11.685616
2.0036976 -5.067358 5.7734842 0 0 0 0 11.690563
2.2891784 -4.3770337 5.8840709 0 0 0 0 11.69551
2.2393737 -4.6197133 5.8720832 0 0 0 0 11.700457
2.2025831 -4.865458 5.8690553 0 0 0 0 11.705404
2.1309357 -5.0521932 5.7929664 0 0 0 0 11.710351
2.3786604 -4.3236141 5.8965745 0 0 0 0 11.715298
2.3447764 -4.5823798 5.8935785 0 0 0 0 11.720244
2.3219018 -4.8432059 5.8965454 0 0 0 0 11.725192
2.2591884 -5.0360265 5.8144412 0 0 0 0 11.730139
2.4641654 -4.2641811 5.9040742 0 0 0 0 11.735085
2.4432101 -4.533041 5.9010606 0 0 0 0 11.740033
2.4322894 -4.798964 5.9009976 0 0 0 0 11.74498
2.3914397 -5.0248566 5.8449183 0 0 0 0 11.749927
2.5566599 -4.2147436 5.9275804 0 0 0 0 11.754874
2.5526257 -4.4996967 5.9335537 0 0 0 0 11.759821
2.5546339 -4.7757134 5.9334741 0 0 0 0 11.764768
2.5336757 -5.0276837 5.8974032 0 0 0 0 11.769714
2.6411791 -4.1552877 5.9390845 0 0 0 0 11.774662
2.6510916 -4.4473448 5.9440265 0 0 0 0 11.779609
2.671032 -4.7384577 5.953927 0 0 0 0 11.784555
2.6669869 -5.0065279 5.9248438 0 0 0 0 11.789503
2.7247078 -4.0938258 5.9495864 0 0 0 0 11.79445
2.7535565 -4.4009833 5.9655046 0 0 0 0 11.799397
2.7844565 -4.6941996 5.9683685 0 0 0 0 11.804344
2.805305 -4.9903693 5.9632816 0 0 0 0 11.809291
2.8102419 -4.0363479 5.9690938 0 0 0 0 11.814238
2.8510394 -4.3466182 5.9769759 0 0 0 0 11.819185
2.9008791 -4.6539369 5.9898124 0 0 0 0 11.824132
2.9396667 -4.9632096 5.9926996 0 0 0 0 11.829079
2.8877957 -3.9678605 5.9735956 0 0 0 0 11.834025
2.9465504 -4.2882371 5.988441 0 0 0 0 11.838973
3.0143359 -4.6066651 6.0072451 0 0 0 0 11.84392
3.0760427 -4.9350557 6.024106 0 0 0 0 11.848866
2.9648314 -3.90078 5.9806232 0 0 0 0 11.581985
3.0435021 -4.2332783 6.004427 0 0 0 0 11.586932
3.1292107 -4.5608277 6.0281873 0 0 0 0 11.591879
3.2068458 -4.8953381 6.0460024 0 0 0 0 11.596826
3.055378 -3.8522801 6.0191393 0 0 0 0 11.601773
3.1410267 -4.176899 6.0218902 0 0 0 0 11.60672
3.2377207 -4.5035477 6.0396037 0 0 0 0 11.611667
3.3462768 -4.8622036 6.081378 0 0 0 0 11.616613
3.1319599 -3.7837701 6.0296445 0 0 0 0 11.621561
3.232585 -4.1124945 6.03335 0 0 0 0 11.626508
3.3582172 -4.4592834 6.0720172 0 0 0 0 11.631454
3.4697766 -4.8060336 6.0917397 0 0 0 0 11.636402
3.2055545 -3.7122436 6.0381513 0 0 0 0 11.641349
3.331135 -4.0560956 6.0578089 0 0 0 0 11.646296
3.4677629 -4.398994 6.0874209 0 0 0 0 11.651243
3.6002781 -4.7548795 6.1120915 0 0 0 0 11.65619
3.2831407 -3.6477084 6.0576668 0 0 0 0 11.661137
3.4247038 -3.992686 6.0742655 0 0 0 0 11.666084
3.578316 -4.3387041 6.1048207 0 0 0 0 11.671031
3.7328062 -4.7027211 6.1374321 0 0 0 0 11.675978
3.3557417 -3.5771592 6.0701814 0 0 0 0 11.680924
3.5113018 -3.9202542 6.0817189 0 0 0 0 11.685872
3.6908879 -4.2794032 6.1292162 0 0 0 0 11.690819
3.8623617 -4.645546 6.160769 0 0 0 0 11.695765
3.4243546 -3.5015998 6.0766954 0 0 0 0 11.700713
3.6068964 -3.8578262 6.1071711 0 0 0 0 11.70566
3.7954803 -4.2100859 6.1406102 0 0 0 0 11.710607
3.9849527 -4.5773554 6.1730962 0 0 0 0 11.715554
3.4949684 -3.4300272 6.0912147 0 0 0 0 11.720501
3.6915107 -3.7833741 6.1156263 0 0 0 0 11.725448
3.8961105 -4.1327553 6.1469936 0 0 0 0 11.730394
4.1185412 -4.5191817 6.2034144 0 0 0 0 11.735342
3.5635848 -3.3574424 6.1047392 0 0 0 0 11.740289
3.7701361 -3.7029037 6.1160855 0 0 0 0 11.745235
3.9997382 -4.0604143 6.1623821 0 0 0 0 11.750183
4.2441792 -4.4479856 6.2227211 0 0 0 0 11.75513
3.6262121 -3.2788398 6.1102672 0 0 0 0 11.760077
3.8557723 -3.6294296 6.1325407 0 0 0 0 11.765024
4.1153708 -3.9970989 6.1957541 0 0 0 0 11.769971
4.3638401 -4.3697672 6.2350278 0 0 0 0 11.774918
3.6888494 -3.1992331 6.1167922 0 0 0 0 11.779865
4.0343843 -3.6371458 6.2929034 0 0 0 0 11.784812
4.2709866 -3.9688671 6.2900867 0 0 0 0 11.789759
4.4905171 -4.2955575 6.2593212 0 0 0 0 11.794705
3.7484856 -3.1196036 6.1233287 0 0 0 0 11.799653
4.1810532 -3.6097951 6.4032745 0 0 0 0 11.8046
4.4446311 -3.9506762 6.4103837 0 0 0 0 11.809546
4.6082268 -4.2113147 6.2736168 0 0 0 0 11.814494
3.8081284 -3.0399663 6.1318655 0 0 0 0 11.819441
4.262742 -3.5253072 6.4137096 0 0 0 0 11.824388
4.5803413 -3.8923991 6.4736953 0 0 0 0 11.829335
4.721962 -4.1210551 6.2839079 0 0 0 0 11.834282
3.8907886 -2.9783673 6.1783733 0 0 0 0 11.839229
4.3444457 -3.4408045 6.4281454 0 0 0 0 11.844176
4.6820798 -3.8050282 6.4910436 0 0 0 0 11.849123
4.8447042 -4.0378079 6.3091879 0 0 0 0 11.85407
4.0535398 -2.9729197 6.3517551 0 0 0 0 11.859016
4.425169 -3.3532934 6.4425745 0 0 0 0 11.863964
4.7788377 -3.7126336 6.5043945 0 0 0 0 11.868911
4.9674711 -3.9515557 6.3354583 0 0 0 0 11.873857
4.1282411 -2.8992968 6.3872538 0 0 0 0 11.878805
4.501894 -3.2637625 6.4540133 0 0 0 0 11.883752
4.8756194 -3.617234 6.5187364 0 0 0 0 11.888699
5.1682267 -3.9215252 6.4626117 0 0 0 0 11.893646
4.1899247 -2.8176425 6.4037776 0 0 0 0 11.898593
4.5786366 -3.1732204 6.4684491 0 0 0 0 11.90354
4.9684095 -3.5188143 6.5300832 0 0 0 0 11.908486
5.3610349 -3.8764813 6.575747 0 0 0 0 11.913434
4.2426152 -2.7299528 6.4113159 0 0 0 0 11.918381
4.643373 -3.0746443 6.4669051 0 0 0 0 11.923327
5.0672231 -3.4233963 6.5534177 0 0 0 0 11.928275
5.5058994 -3.7922804 6.6319399 0 0 0 0 11.933222
4.294301 -2.6422589 6.4178586 0 0 0 0 11.938169
4.7231402 -2.9840984 6.4883289 0 0 0 0 11.943116
5.1570544 -3.3199456 6.5667601 0 0 0 0 11.948063
5.6087952 -3.6769402 6.6391926 0 0 0 0 11.95301
4.3480043 -2.5545614 6.4293933 0 0 0 0 11.957957
4.7899094 -2.8864977 6.4977808 0 0 0 0 11.962904
5.2458911 -3.2164798 6.5821075 0 0 0 0 11.967851
5.7217112 -3.5666196 6.6614237 0 0 0 0 11.972797
4.3976989 -2.466841 6.4389443 0 0 0 0 11.977745
4.8566799 -2.7878997 6.5062294 0 0 0 0 11.982692
5.3357458 -3.1120098 6.6004467 0 0 0 0 11.987638
5.8276496 -3.450264 6.6786618 0 0 0 0 11.992586
4.4444013 -2.3751154 6.4434929 0 0 0 0 11.997533
4.9244618 -2.6902909 6.5196776 0 0 0 0 12.00248
5.4206157 -3.0035126 6.6157932 0 0 0 0 12.007427
5.9276056 -3.3288777 6.6919079 0 0 0 0 12.012374
4.4941082 -2.2873802 6.4570441 0 0 0 0 12.017321
4.9872546 -2.588659 6.5291319 0 0 0 0 12.022267
5.494494 -2.886976 6.6191554 0 0 0 0 12.027215
6.0255818 -3.2044754 6.7051511 0 0 0 0 12.032162
4.5378156 -2.1956251 6.4636049 0 0 0 0 12.037108
5.0510621 -2.4870198 6.5425825 0 0 0 0 12.042056
5.5784011 -2.7754526 6.6394963 0 0 0 0 12.047003
6.1255827 -3.0790694 6.7233834 0 0 0 0 12.05195
4.5731988 -2.1014047 6.4596982 0 0 0 0 11.798485
5.1085353 -2.3829694 6.5495424 0 0 0 0 11.803432
5.6499505 -2.6575525 6.6463408 0 0 0 0 11.808379
6.2212205 -2.9513569 6.741086 0 0 0 0 11.813326
4.6209445 -2.010648 6.4762464 0 0 0 0 11.818273
5.1593533 -2.274281 6.5510197 0 0 0 0 11.82322
5.7228818 -2.5399792 6.6597028 0 0 0 0 11.828167
6.3112617 -2.8189023 6.754333 0 0 0 0 11.833114
4.663672 -1.9188745 6.4868102 0 0 0 0 11.83806
5.2161846 -2.1695981 6.5634871 0 0 0 0 11.843008
5.7898207 -2.4183781 6.6680751 0 0 0 0 11.847955
6.3973227 -2.6844108 6.7695885 0 0 0 0 11.852901
4.6973815 -1.8240689 6.4874001 0 0 0 0 11.857849
5.2710242 -2.0629034 6.5749555 0 0 0 0 11.862796
5.8507671 -2.2927494 6.6714578 0 0 0 0 11.867743
6.4764013 -2.5438879 6.778852 0 0 0 0 11.87269
4.7301006 -1.7282523 6.4889903 0 0 0 0 11.877637
5.3218684 -1.954186 6.5844331 0 0 0 0 11.882584
5.917737 -2.1701233 6.6868267 0 0 0 0 11.887531
6.5595021 -2.4043658 6.7961025 0 0 0 0 11.892478
4.7668343 -1.633444 6.4965682 0 0 0 0 11.897425
5.3647022 -1.8424368 6.5859318 0 0 0 0 11.902371
5.9897323 -2.0475085 6.709177 0 0 0 0 11.907319
6.6316061 -2.2597902 6.8053803 0 0 0 0 11.912266
4.803575 -1.5396216 6.5081496 0 0 0 0 11.917212
5.4105687 -1.7296852 6.5944152 0 0 0 0 11.92216
6.0447135 -1.917824 6.71557 0 0 0 0 11.927107
6.7097421 -2.1152263 6.8236346 0 0 0 0 11.932054
4.8363018 -1.4447867 6.5147433 0 0 0 0 11.937001
5.4504104 -1.6169097 6.5969229 0 0 0 0 11.941948
6.0967002 -1.787117 6.721971 0 0 0 0 11.946895
6.7738662 -1.9665942 6.8319302 0 0 0 0 11.951841
4.8650374 -1.3469326 6.518343 0 0 0 0 11.956789
5.4832554 -1.501097 6.5954475 0 0 0 0 11.961736
6.1517119 -1.6564075 6.7353606 0 0 0 0 11.966682
6.8490391 -1.8189901 6.855186 0 0 0 0 11.97163
4.8927717 -1.2500643 6.5239487 0 0 0 0 11.976577
5.5261326 -1.3883085 6.6079431 0 0 0 0 11.981524
6.1987128 -1.5236599 6.742775 0 0 0 0 11.986471
6.8921623 -1.6622525 6.8495369 0 0 0 0 11.991418
4.9164929 -1.1521837 6.5245681 0 0 0 0 11.996365
5.5559855 -1.2714698 6.6074762 0 0 0 0 12.001312
6.2316937 -1.3868514 6.7382307 0 0 0 0 12.006259
6.9533467 -1.5085696 6.865828 0 0 0 0 12.011206
4.9412279 -1.0542964 6.5291824 0 0 0 0 12.016152
5.5888605 -1.1546322 6.6129971 0 0 0 0 12.0211
6.2827373 -1.2530979 6.7556262 0 0 0 0 12.026047
7.000515 -1.3518159 6.8731627 0 0 0 0 12.030993
4.9629641 -0.95439732 6.5308027 0 0 0 0 12.035941
5.6237531 -1.0377916 6.6235108 0 0 0 0 12.040888
6.3157592 -1.1142615 6.7590747 0 0 0 0 12.045835
7.0326633 -1.1909943 6.8685431 0 0 0 0 12.050782
4.9937391 -0.85750878 6.5483975 0 0 0 0 12.055729
5.6476126 -0.9199053 6.6240635 0 0 0 0 12.060676
6.3417563 -0.97539496 6.7565513 0 0 0 0 12.065623
7.0878887 -1.0332496 6.8898435 0 0 0 0 12.07057
5.0084534 -0.75757575 6.5450449 0 0 0 0 12.075517
5.6745005 -0.80102009 6.6306014 0 0 0 0 12.080463
6.3767948 -0.83754861 6.766995 0 0 0 0 12.085411
7.1180596 -0.87238926 6.8922319 0 0 0 0 12.090358
5.026196 -0.65664393 6.5476766 0 0 0 0 12.095304
5.7064099 -0.68314332 6.6451235 0 0 0 0 12.100252
6.4008183 -0.69764686 6.7704759 0 0 0 0 12.105199
