# .PCD v0.7 - Point Cloud Data file format
VERSION 0.7
FIELDS x y z normal_x normal_y normal_z intensity curvature
SIZE 4 4 4 4 4 4 4 4
TYPE F F F F F F F F
COUNT 1 1 1 1 1 1 1 1
WIDTH 967
HEIGHT 1
VIEWPOINT 0 0 0 1 0 0 0
POINTS 967
DATA ascii
11.044492 -5.3431602 0.74561656 0 0 0 0 24.422314
10.240188 -5.1277113 0.49018103 0 0 0 0 24.427261
8.0442266 -4.1431103 0.22280121 0 0 0 0 24.432209
8.1323404 -4.3098931 0.054146808 0 0 0 0 24.437155
11.01195 -5.027904 0.75079936 0 0 0 0 24.442102
10.191606 -4.8193746 0.48935342 0 0 0 0 24.44705
8.0343256 -3.9049656 0.22068334 0 0 0 0 24.451996
8.1284828 -4.061769 0.050058268 0 0 0 0 24.456944
10.973366 -4.7206221 0.75595522 0 0 0 0 24.461891
10.148989 -4.5180726 0.49049032 0 0 0 0 24.466837
7.9555235 -3.6425138 0.2167141 0 0 0 0 24.471785
8.0627069 -3.7933707 0.045097254 0 0 0 0 24.476732
10.908787 -4.4102206 0.75914258 0 0 0 0 24.481678
10.091342 -4.2216988 0.48962006 0 0 0 0 24.486626
7.8996434 -3.3971705 0.21465862 0 0 0 0 24.491571
7.99789 -3.5329785 0.040103186 0 0 0 0 24.496519
10.870115 -4.119936 0.76322967 0 0 0 0 24.501467
10.074581 -3.9505107 0.49061745 0 0 0 0 24.506413
7.9016323 -3.181083 0.21344072 0 0 0 0 24.51136
7.9869347 -3.3038285 0.036943696 0 0 0 0 24.516308
10.820443 -3.828609 0.76832634 0 0 0 0 24.521254
10.054803 -3.6823134 0.49260306 0 0 0 0 24.526201
7.8586593 -2.9547973 0.21129897 0 0 0 0 24.531149
7.962986 -3.071619 0.032803737 0 0 0 0 24.536095
10.811671 -3.5594664 0.77530134 0 0 0 0 24.541042
10.001054 -3.4059663 0.49364582 0 0 0 0 24.54599
7.7807126 -2.7213616 0.20921275 0 0 0 0 24.550936
7.893064 -2.8322117 0.028730359 0 0 0 0 24.555883
10.767925 -3.2821627 0.77933449 0 0 0 0 24.560831
9.9442625 -3.137604 0.49365965 0 0 0 0 24.565777
7.7167177 -2.4979877 0.20707436 0 0 0 0 24.570724
7.7841678 -2.5856419 0.025716262 0 0 0 0 24.575672
10.72514 -3.0128672 0.78433472 0 0 0 0 24.580618
9.9014282 -2.8783062 0.4946242 0 0 0 0 24.585566
7.6197257 -2.27247 0.20397241 0 0 0 0 24.590513
7.72018 -2.359267 0.022584479 0 0 0 0 24.595459
10.720282 -2.7597458 0.79223764 0 0 0 0 24.600407
9.8655491 -2.6280391 0.49554673 0 0 0 0 24.605354
7.4887328 -2.0458055 0.19990452 0 0 0 0 24.6103
7.6221881 -2.1327479 0.019483345 0 0 0 0 24.615248
10.71241 -2.5086081 0.79913241 0 0 0 0 24.620193
9.7796965 -2.3695524 0.49454278 0 0 0 0 24.625141
7.3487058 -1.8261085 0.19681828 0 0 0 0 24.630089
7.499187 -1.907124 0.016400343 0 0 0 0 24.635035
10.676553 -2.2523441 0.80406827 0 0 0 0 24.639982
9.7367687 -2.1282575 0.49543348 0 0 0 0 24.64493
7.2126441 -1.6134315 0.19370064 0 0 0 0 24.649876
7.3431783 -1.6823657 0.014343622 0 0 0 0 24.654823
10.669644 -2.0072143 0.81193322 0 0 0 0 24.659771
9.6518755 -1.8777848 0.49639291 0 0 0 0 24.664717
7.0565519 -1.4066689 0.18957956 0 0 0 0 24.669664
7.2121177 -1.4687169 0.012220775 0 0 0 0 24.674612
10.64574 -1.7600089 0.81881803 0 0 0 0 24.679558
9.5849142 -1.6413869 0.49628291 0 0 0 0 24.684505
6.9893513 -1.2252971 0.18828085 0 0 0 0 24.689453
6.9590912 -1.2455502 0.009248239 0 0 0 0 24.694399
10.631812 -1.5168463 0.82567507 0 0 0 0 24.699347
9.5119324 -1.4089648 0.49616155 0 0 0 0 24.704294
6.5453644 -0.98929465 0.17653881 0 0 0 0 24.70924
6.5740914 -1.0148337 0.0074292379 0 0 0 0 24.714188
10.624859 -1.2787168 0.83350414 0 0 0 0 24.719135
9.4119482 -1.1754268 0.495067 0 0 0 0 24.724081
6.2709594 -0.81447119 0.005423178 0 0 0 0 24.733974
10.600897 -1.0415121 0.84034312 0 0 0 0 24.738922
9.3828897 -0.95919997 0.49683985 0 0 0 0 24.74387
6.0607085 -0.64150625 0.0032296409 0 0 0 0 24.753763
10.590229 -0.80585605 0.84741223 0 0 0 0 25.002424
9.1801748 -0.72893161 0.49107495 0 0 0 0 25.00737
5.8636847 -0.47780859 0.003210363 0 0 0 0 25.017263
10.615209 -0.57386655 0.85815233 0 0 0 0 25.022211
9.0400782 -0.51124132 0.48693341 0 0 0 0 25.027159
5.6913228 -0.32503745 0.0018902973 0 0 0 0 25.037052
10.591192 -0.33866802 0.86594784 0 0 0 0 25.042
8.8489561 -0.29834419 0.48182392 0 0 0 0 25.046946
8.9157276 -0.29784873 0.24976136 0 0 0 0 25.051893
5.5289097 -0.1843103 0.00051919342 0 0 0 0 25.056841
10.572167 -0.1044901 0.87373108 0 0 0 0 25.061787
8.6627827 -0.096468106 0.4756707 0 0 0 0 25.066734
8.7085857 -0.088896058 0.24565127 0 0 0 0 25.071682
5.3494744 -0.048521146 0.00014701973 0 0 0 0 25.076628
10.574121 0.12559971 0.88247627 0 0 0 0 25.081575
8.4695749 0.097432263 0.46949568 0 0 0 0 25.086523
8.4923935 0.10909171 0.24051185 0 0 0 0 25.091469
5.2069917 0.076115385 -0.00029991331 0 0 0 0 25.096416
10.552074 0.35678944 0.89024502 0 0 0 0 25.101364
8.220315 0.28056321 0.46033931 0 0 0 0 25.10631
8.2941704 0.29999626 0.23732857 0 0 0 0 25.111258
10.545028 0.58891541 0.89899778 0 0 0 0 25.121151
8.0020113 0.45356137 0.45211679 0 0 0 0 25.126099
8.0378942 0.47913539 0.232163 0 0 0 0 25.131046
10.53297 0.82006145 0.90774852 0 0 0 0 25.14094
7.7486553 0.61470115 0.44188905 0 0 0 0 25.145885
7.7975702 0.64720517 0.22694349 0 0 0 0 25.150833
10.528911 1.0511724 0.9174872 0 0 0 0 25.160727
7.5642915 0.77354443 0.43658218 0 0 0 0 25.165674
7.5031776 0.79948831 0.22072566 0 0 0 0 25.170622
10.524861 1.2862833 0.92723447 0 0 0 0 25.180515
10.266534 1.2873633 0.60149556 0 0 0 0 25.185463
7.2607598 0.94555223 0.21643364 0 0 0 0 25.190409
7.2867122 0.98814589 0.00054141419 0 0 0 0 25.195356
10.537809 1.5213205 0.93896043 0 0 0 0 25.200304
10.233454 1.5176027 0.60525209 0 0 0 0 25.20525
7.0413156 1.0855198 0.21209708 0 0 0 0 25.210197
7.0342636 1.1262264 0.0012313883 0 0 0 0 25.215145
10.475718 1.7496769 0.94373667 0 0 0 0 25.220091
10.245408 1.7566507 0.61298716 0 0 0 0 25.225039
6.8508444 1.2193649 0.20871 0 0 0 0 25.229986
6.8027797 1.2562219 0.00087280344 0 0 0 0 25.234932
10.462646 1.9828234 0.95347482 0 0 0 0 25.23988
10.254374 1.9997078 0.62173349 0 0 0 0 25.244827
6.6563392 1.3452218 0.20529985 0 0 0 0 25.249773
6.6143012 1.3880397 0.0014745904 0 0 0 0 25.254721
10.456582 2.2189386 0.96421123 0 0 0 0 25.259666
10.212283 2.2309785 0.62649029 0 0 0 0 25.264614
6.4758162 1.4670163 0.20286094 0 0 0 0 25.269562
6.4648161 1.5187004 0.002031473 0 0 0 0 25.274508
10.449533 2.460058 0.97496003 0 0 0 0 25.279455
10.223246 2.4760311 0.63423264 0 0 0 0 25.284403
6.2852507 1.5788494 0.19939922 0 0 0 0 25.289349
6.3003006 1.6424167 0.002579727 0 0 0 0 25.294296
10.432474 2.7002163 0.98571181 0 0 0 0 25.299244
10.207199 2.7201896 0.64199507 0 0 0 0 25.30419
6.1086721 1.6876208 0.19691212 0 0 0 0 25.309137
6.1157327 1.7532048 0.0041061202 0 0 0 0 25.314085
10.427422 2.9433279 0.99645662 0 0 0 0 25.319031
5.9640956 1.7972602 0.19539382 0 0 0 0 25.328926
5.8540297 1.8302927 0.0046043205 0 0 0 0 25.333872
10.437407 3.1963716 1.0102127 0 0 0 0 25.33882
5.6623783 1.9211028 0.005073085 0 0 0 0 25.353661
13.827094 4.5672708 1.3570036 0 0 0 0 25.358608
5.4777021 2.0058818 0.0055148802 0 0 0 0 25.373447
13.791331 4.8915343 1.3700047 0 0 0 0 25.378395
5.2849832 2.0796845 0.0069298423 0 0 0 0 25.393236
13.804656 5.2385869 1.3900205 0 0 0 0 25.398184
5.1242929 2.1613598 0.0083353864 0 0 0 0 25.413025
12.070083 4.8859153 1.2306558 0 0 0 0 25.417971
4.9816041 2.2439628 0.0097243134 0 0 0 0 25.432812
13.769281 5.9329472 1.4250973 0 0 0 0 25.437759
4.8559217 2.3284974 0.01110063 0 0 0 0 25.4526
12.754745 5.8302603 1.3377665 0 0 0 0 25.457548
4.6981683 2.3951519 0.012453759 0 0 0 0 25.472389
13.725555 6.6464539 1.459106 0 0 0 0 25.984131
4.5772138 2.4739735 0.013620309 0 0 0 0 25.998972
13.719835 7.0175834 1.4791021 0 0 0 0 26.00392
13.696104 7.3887787 1.4981102 0 0 0 0 26.023706
11.209194 6.3723822 1.2447425 0 0 0 0 26.043495
10.702204 6.4013968 1.2072905 0 0 0 0 26.063284
13.482762 8.4748831 1.5471631 0 0 0 0 26.083071
12.41258 8.1880445 1.4473916 0 0 0 0 26.102859
11.70312 8.0948219 1.3867923 0 0 0 0 26.122648
11.627594 8.363306 0.95258576 0 0 0 0 26.127594
11.55101 8.3704767 1.3916407 0 0 0 0 26.142435
11.568787 8.7246084 0.96657079 0 0 0 0 26.147383
11.421966 8.6660385 1.4005152 0 0 0 0 26.162224
11.031656 8.7176666 0.9410302 0 0 0 0 26.16717
10.870737 8.6351881 1.3579245 0 0 0 0 26.182011
10.494445 8.6867123 0.91542488 0 0 0 0 26.186958
10.374579 8.6231232 1.3203298 0 0 0 0 26.201799
9.9892511 8.6606331 0.89080113 0 0 0 0 26.206747
9.9274883 8.6288643 1.287734 0 0 0 0 26.221588
9.5020361 8.6274767 0.86814076 0 0 0 0 26.226534
9.4733067 8.6086245 1.2540755 0 0 0 0 26.241375
9.0317812 8.5822515 0.84543163 0 0 0 0 26.246323
9.022069 8.5723677 1.2183716 0 0 0 0 26.261164
8.6326876 8.5827608 0.82777405 0 0 0 0 26.266109
8.6269493 8.5678892 1.1906968 0 0 0 0 26.280951
8.2345543 8.5712557 0.8110835 0 0 0 0 26.285898
5.93398 6.4802718 0.35181326 0 0 0 0 26.290846
5.5262704 6.353363 0.089873858 0 0 0 0 26.295792
8.2417974 8.5543728 1.161988 0 0 0 0 26.300739
5.9491982 6.4816117 0.60077131 0 0 0 0 26.305687
7.4951339 8.579793 0.46377301 0 0 0 0 26.310633
5.1607885 6.2256513 0.091862038 0 0 0 0 26.31558
5.9383006 6.4470267 0.8556605 0 0 0 0 26.320528
5.8016067 6.6181736 0.60323942 0 0 0 0 26.325474
5.4159484 6.5041637 0.34731361 0 0 0 0 26.330421
7.5115037 8.5281601 1.1105335 0 0 0 0 26.340315
5.1810575 6.1884532 0.55368638 0 0 0 0 26.345263
5.2703428 6.6367073 0.35076743 0 0 0 0 26.35021
4.7751479 6.3600326 0.10252462 0 0 0 0 26.355156
5.1690903 6.1399374 0.78254241 0 0 0 0 26.360104
5.590786 6.9989839 0.61736685 0 0 0 0 26.365051
4.8474951 6.4042172 0.33653858 0 0 0 0 26.369997
5.4453435 7.6227913 0.12812531 0 0 0 0 26.374945
5.8710413 7.2983298 0.91183704 0 0 0 0 26.37989
5.4532495 7.1545019 0.62086654 0 0 0 0 26.384838
6.1265421 8.4997444 0.44569981 0 0 0 0 26.389786
5.7812638 8.5126867 0.14906467 0 0 0 0 26.394732
5.7636542 7.4987411 0.91942024 0 0 0 0 26.399679
4.6405568 6.3864589 0.54562938 0 0 0 0 26.404627
5.8214097 8.4838381 0.44190601 0 0 0 0 26.409573
5.0268073 7.7982712 0.14090079 0 0 0 0 26.41452
6.3425088 8.6425867 1.0407691 0 0 0 0 26.419468
4.5410872 6.5598273 0.55313998 0 0 0 0 26.424414
5.5262952 8.4728909 0.43911529 0 0 0 0 26.429361
5.1829977 8.4747686 0.15944935 0 0 0 0 26.434309
5.5670533 7.9544854 0.93970078 0 0 0 0 26.439255
4.4235311 6.70926 0.55760366 0 0 0 0 26.444202
5.2381616 8.4559145 0.43630219 0 0 0 0 26.44915
4.1264515 7.1263566 0.13795924 0 0 0 0 26.454096
5.3149242 7.966526 0.9266603 0 0 0 0 26.19313
4.9413247 7.8795757 0.64878589 0 0 0 0 26.198078
4.9630289 8.4440975 0.43527341 0 0 0 0 26.203026
3.423161 6.2492104 0.12488461 0 0 0 0 26.207972
4.275455 6.7305708 0.76831865 0 0 0 0 26.212919
4.7194128 7.9264064 0.64508128 0 0 0 0 26.217867
3.4843612 6.2605042 0.32082474 0 0 0 0 26.222813
2.8908527 5.5920892 0.11561313 0 0 0 0 26.22776
4.7936225 7.9295359 0.89097577 0 0 0 0 26.232708
4.4038787 7.795589 0.62699306 0 0 0 0 26.237654
3.2429702 6.1623826 0.31576443 0 0 0 0 26.242601
2.7731509 5.6905084 0.12196127 0 0 0 0 26.247549
4.4901562 7.8206997 0.86493504 0 0 0 0 26.252495
3.2920721 6.1517849 0.48765841 0 0 0 0 26.257442
2.7870038 5.608048 0.28570157 0 0 0 0 26.26239
2.9033093 6.333055 0.14051232 0 0 0 0 26.267336
3.3471959 6.1451492 0.66755706 0 0 0 0 26.272284
2.8250394 5.5825396 0.43757048 0 0 0 0 26.277231
2.9614165 6.3213997 0.32239351 0 0 0 0 26.282177
2.3472934 5.4630075 0.12471391 0 0 0 0 26.287125
2.9053376 5.6308594 0.60159373 0 0 0 0 26.292072
2.6992421 5.6549983 0.43885571 0 0 0 0 26.297018
2.7823536 6.3180408 0.32252434 0 0 0 0 26.301966
2.1760871 5.4136057 0.12772205 0 0 0 0 26.306911
2.7321889 5.6035132 0.58966094 0 0 0 0 26.311859
2.8052182 6.2415714 0.48026934 0 0 0 0 26.316807
2.1958945 5.3221774 0.27143645 0 0 0 0 26.321753
2.0381501 5.4430833 0.13290633 0 0 0 0 26.3267
2.8834364 6.2658844 0.65122622 0 0 0 0 26.331648
2.2812836 5.4045429 0.41154519 0 0 0 0 26.336594
2.0710366 5.375617 0.27467141 0 0 0 0 26.341541
2.7150803 7.7986846 0.19840573 0 0 0 0 26.346489
2.3807299 5.5008349 0.56267542 0 0 0 0 26.351435
2.0928535 5.2922354 0.39940649 0 0 0 0 26.356382
1.9411129 5.4100733 0.27686062 0 0 0 0 26.36133
1.854177 5.7697043 0.15088466 0 0 0 0 26.366276
2.1741514 5.3476171 0.53944743 0 0 0 0 26.371223
1.9911629 5.3955922 0.40374866 0 0 0 0 26.376171
2.0617144 6.1895957 0.31775129 0 0 0 0 26.381117
1.5867882 5.3686309 0.14506717 0 0 0 0 26.386065
2.0199845 5.3131895 0.52848041 0 0 0 0 26.391012
2.2147019 6.4476838 0.4802441 0 0 0 0 26.395958
2.4699066 8.0360231 0.41612822 0 0 0 0 26.400906
1.4568325 5.3930731 0.14922971 0 0 0 0 26.405853
1.9475478 5.4914298 0.53998685 0 0 0 0 26.410799
2.5388699 7.9863586 0.59288907 0 0 0 0 26.415747
1.5189224 5.3895431 0.27913457 0 0 0 0 26.420692
1.3248652 5.4135132 0.15538342 0 0 0 0 26.42564
2.6340032 7.9855914 0.77675152 0 0 0 0 26.430588
1.841863 7.1702647 0.37440178 0 0 0 0 26.440481
1.6749297 7.2078319 0.37761945 0 0 0 0 26.46027
1.7590549 8.4614115 0.44672081 0 0 0 0 26.480057
1.4610881 8.531848 0.27118644 0 0 0 0 26.485004
1.1364024 7.7389688 0.25341716 0 0 0 0 26.504793
1.6764998 8.5832806 0.62001479 0 0 0 0 26.514687
0.95030594 7.7275739 0.2605229 0 0 0 0 26.52458
1.7531139 8.4336548 0.77451116 0 0 0 0 26.529528
0.041210584 8.4033928 0.32987785 0 0 0 0 26.62352
-0.1574557 8.5259962 0.34532738 0 0 0 0 26.643309
-0.037835099 8.382287 0.4768039 0 0 0 0 26.65815
-0.35559902 8.5016079 0.35440677 0 0 0 0 26.663095
-0.23358425 8.4988384 0.48898453 0 0 0 0 26.42436
-0.123893 8.3892002 0.59554607 0 0 0 0 26.439199
-0.43160433 8.5134802 0.4951629 0 0 0 0 26.444147
-0.0077172443 8.4225178 0.71347284 0 0 0 0 26.454041
-0.20164284 8.4681683 0.71172762 0 0 0 0 26.473829
-1.9317882 8.3094845 0.44078499 0 0 0 0 26.567822
-1.8244197 8.4098835 0.53688926 0 0 0 0 26.582663
-1.8888034 8.3088999 0.60359865 0 0 0 0 26.617292
-1.9619188 8.2929602 0.66353285 0 0 0 0 26.651922
-2.9293997 7.6094522 0.48270348 0 0 0 0 26.68655
-3.0967469 7.5169311 0.49259126 0 0 0 0 26.706339
-2.983629 7.5534334 0.54153049 0 0 0 0 26.72118
-3.3017941 7.5175133 0.50774884 0 0 0 0 26.726126
-2.9093165 7.6560926 0.57767159 0 0 0 0 26.736021
-3.164849 7.5019631 0.54753536 0 0 0 0 26.740967
-3.5217717 7.5391316 0.5259732 0 0 0 0 26.745914
-3.0588279 7.5155492 0.57242483 0 0 0 0 26.755808
-3.3679259 7.4945478 0.55767143 0 0 0 0 26.760756
-3.7099776 7.4896574 0.53899074 0 0 0 0 26.765703
-2.9616594 7.5761652 0.5974384 0 0 0 0 26.770649
-3.2589295 7.5021391 0.57654309 0 0 0 0 26.775597
-3.6028359 7.5392179 0.57196718 0 0 0 0 26.780544
-3.9230502 7.4812479 0.55613458 0 0 0 0 26.78549
-3.1369653 7.5007019 0.59137952 0 0 0 0 26.790438
-3.4650235 7.4907408 0.58167249 0 0 0 0 26.795383
-3.7860873 7.4767394 0.57894868 0 0 0 0 26.800331
-4.1411214 7.4728465 0.57428366 0 0 0 0 26.805279
-3.3519795 7.5163407 0.59258389 0 0 0 0 26.810225
-3.6880255 7.5083861 0.58888984 0 0 0 0 26.815172
-4.0081429 7.4753656 0.59111893 0 0 0 0 26.82012
-4.3582215 7.4554405 0.59141004 0 0 0 0 26.825066
-3.5859175 7.5560293 0.59586543 0 0 0 0 26.830013
-3.8921721 7.4799728 0.5939762 0 0 0 0 26.834961
-4.2222543 7.4559627 0.60323751 0 0 0 0 26.839907
-4.6061931 7.4781137 0.61366487 0 0 0 0 26.844854
-3.7692106 7.4835753 0.59082401 0 0 0 0 26.849802
-4.1082869 7.4615927 0.59909934 0 0 0 0 26.854748
-4.4433475 7.4425793 0.61437804 0 0 0 0 26.859695
-4.84026 7.4707465 0.63283283 0 0 0 0 26.864643
-3.9922895 7.4782257 0.59198564 0 0 0 0 26.869589
-4.3303843 7.4482212 0.60624093 0 0 0 0 26.874537
-4.7092605 7.4853091 0.63369894 0 0 0 0 26.879484
-5.0574355 7.4283247 0.65089965 0 0 0 0 26.88443
-4.2096071 7.4613357 0.59274775 0 0 0 0 26.636299
-4.578578 7.4684477 0.61612415 0 0 0 0 26.641245
-4.9266396 7.4454765 0.6454041 0 0 0 0 26.646193
-4.4426765 7.4590387 0.59392673 0 0 0 0 26.656086
-4.8186502 7.4631515 0.62430263 0 0 0 0 26.661034
-5.173717 7.4361806 0.66057986 0 0 0 0 26.665981
-4.7135978 7.5018444 0.60025626 0 0 0 0 26.675875
-5.0438256 7.4258051 0.63138634 0 0 0 0 26.68082
-6.388494 8.1226568 0.79044783 0 0 0 0 26.690716
-4.9288359 7.4474883 0.59828764 0 0 0 0 26.695662
-5.1649909 7.4181857 0.59940302 0 0 0 0 26.71545
-6.3787942 8.1036425 0.72425312 0 0 0 0 26.740185
-7.2748542 8.0490589 0.87299252 0 0 0 0 26.75008
-7.2544188 8.2170401 0.83434355 0 0 0 0 26.764921
-7.4539795 8.0575743 0.842098 0 0 0 0 26.784708
-7.505455 8.2618265 0.78360724 0 0 0 0 26.799549
-8.3060732 8.0138168 0.97278035 0 0 0 0 26.809443
-7.6940899 8.0803404 0.78329909 0 0 0 0 26.819338
-8.0721111 8.0903912 0.80164891 0 0 0 0 26.839125
-8.0040054 8.1733608 0.70373958 0 0 0 0 26.853966
-8.2634792 8.0430861 0.70163113 0 0 0 0 26.873755
-9.5574017 7.3249588 1.0921192 0 0 0 0 26.908382
-9.4803467 7.3969383 0.974177 0 0 0 0 26.923223
-9.8527994 7.2046957 1.1220813 0 0 0 0 26.928171
-9.4084063 7.4369683 0.84116298 0 0 0 0 26.938065
-9.7089348 7.2195077 0.98793602 0 0 0 0 26.943012
-10.037472 6.9971189 1.1397265 0 0 0 0 26.94796
-9.6220541 7.2425146 0.84486729 0 0 0 0 26.957853
-10.015349 7.0952916 1.0089025 0 0 0 0 26.962801
-10.031549 6.6600108 1.1368768 0 0 0 0 26.967747
-9.5251608 7.2735167 0.69080704 0 0 0 0 26.972694
-10.004319 7.168529 0.86402941 0 0 0 0 26.977642
-10.009464 6.7471938 1.0010281 0 0 0 0 26.982588
-10.010616 6.3248615 1.1320223 0 0 0 0 26.987535
-9.9493628 7.2236753 0.70106846 0 0 0 0 26.992483
-9.9765043 6.7993855 0.847085 0 0 0 0 26.997429
-9.9965467 6.4080801 0.9911738 0 0 0 0 27.002377
-10.010609 6.010767 1.1312441 0 0 0 0 27.007324
-9.9398298 6.8585339 0.67764699 0 0 0 0 27.01227
-9.9649611 6.4512239 0.82969058 0 0 0 0 27.017218
-9.9720049 6.0738697 0.97779477 0 0 0 0 27.022165
-9.9970341 5.700572 1.1249216 0 0 0 0 27.027111
-9.9259682 6.4994364 0.65873867 0 0 0 0 27.032059
-9.9560146 6.1181278 0.81685078 0 0 0 0 27.037004
-9.9749823 5.762794 0.97201806 0 0 0 0 27.041952
-9.912055 6.1553359 0.64087164 0 0 0 0 27.051846
-9.9560137 5.8000536 0.80605745 0 0 0 0 27.056793
-0.42403871 0.21349548 0.042849291 0 0 0 0 27.066687
-9.9230585 5.8363051 0.625085 0 0 0 0 27.071634
-0.42402348 0.21651042 0.035865113 0 0 0 0 27.081528
-0.42101714 0.21651645 0.028871989 0 0 0 0 27.096369
-0.4410525 0.19853739 0.044849139 0 0 0 0 27.106264
-0.41640076 0.21544203 0.021372583 0 0 0 0 27.94759
-0.43542868 0.19745715 0.037354704 0 0 0 0 27.957485
-0.42742983 0.19445147 0.029353032 0 0 0 0 27.972326
-0.44445688 0.1764596 0.0463342 0 0 0 0 27.98222
-0.41843152 0.19144525 0.020350818 0 0 0 0 27.987165
-0.44744301 0.17948096 0.038350828 0 0 0 0 27.997061
-0.43844697 0.17547466 0.029346814 0 0 0 0 28.011902
-0.47445455 0.16452339 0.049353033 0 0 0 0 28.021795
-0.44043863 0.17649528 0.02035898 0 0 0 0 28.026743
-0.46345654 0.16151401 0.039349876 0 0 0 0 28.036636
-0.46245292 0.16052708 0.030356506 0 0 0 0 28.051477
-0.41952473 0.12439509 0.044268627 0 0 0 0 28.061371
-0.45745233 0.15853229 0.020358888 0 0 0 0 28.066319
-0.41452083 0.12339879 0.035273187 0 0 0 0 28.076212
-0.40552416 0.11939283 0.026269738 0 0 0 0 28.091053
-0.37257385 0.092288159 0.039205652 0 0 0 0 28.100946
-0.40951774 0.11941811 0.017281538 0 0 0 0 28.105894
-0.38355887 0.095326737 0.032227401 0 0 0 0 28.115788
-0.36856666 0.089306712 0.023216981 0 0 0 0 28.130629
-0.35759115 0.072253689 0.037185166 0 0 0 0 28.140524
-0.37555701 0.090337306 0.015232617 0 0 0 0 28.14547
-0.36258319 0.072277769 0.030197879 0 0 0 0 28.155365
-0.35558292 0.069275141 0.022198005 0 0 0 0 28.170206
-0.36259633 0.056261469 0.038184509 0 0 0 0 28.180099
-0.35758021 0.067293763 0.014205282 0 0 0 0 28.185047
-0.36159119 0.055273015 0.030191967 0 0 0 0 28.194941
-0.35859066 0.052279793 0.022194596 0 0 0 0 28.209782
-0.34760675 0.038225912 0.03716908 0 0 0 0 28.219675
-0.36058834 0.050300039 0.013202008 0 0 0 0 28.224623
-0.36159843 0.038270626 0.030187216 0 0 0 0 28.234516
-0.35360062 0.034267534 0.021185296 0 0 0 0 28.249357
-0.35860756 0.023245819 0.039174832 0 0 0 0 28.259251
-0.35659748 0.032288115 0.013193431 0 0 0 0 28.264198
-0.34960496 0.021240491 0.030176111 0 0 0 0 28.274092
-0.35560402 0.018267956 0.022184275 0 0 0 0 28.288933
-0.35860896 0.0082436372 0.039174709 0 0 0 0 28.298828
-0.35460362 0.015280949 0.013188438 0 0 0 0 28.303774
-0.34960848 0.0052383514 0.030174341 0 0 0 0 28.313669
-0.35360962 0.00126099 0.022179708 0 0 0 0 28.32851
-0.34960976 -0.0067790477 0.039169926 0 0 0 0 28.338404
-0.35460669 -0.00072158815 0.01318696 0 0 0 0 28.343349
-0.35761073 -0.010747411 0.0311777 0 0 0 0 28.353245
-0.34761053 -0.013753178 0.021176983 0 0 0 0 28.368086
-0.34861159 -0.022785062 0.040168505 0 0 0 0 28.377979
-0.35261193 -0.017726865 0.012183122 0 0 0 0 28.382927
-0.34861064 -0.025769951 0.031173624 0 0 0 0 28.39282
-0.34961411 -0.030752702 0.022175841 0 0 0 0 28.407661
-0.35961214 -0.038765933 0.042174455 0 0 0 0 28.417555
-0.35585538 -0.035706248 0.012988138 0 0 0 0 28.149006
-0.35585237 -0.042742271 0.031982049 0 0 0 0 28.158901
-0.35085708 -0.04773638 0.021980384 0 0 0 0 28.173742
-0.36385512 -0.05574514 0.042980153 0 0 0 0 28.183636
-0.35786343 -0.053704087 0.012983935 0 0 0 0 28.188581
-0.35985729 -0.059736934 0.032981046 0 0 0 0 28.198477
-0.35786405 -0.065724097 0.02297949 0 0 0 0 28.213318
-0.36485955 -0.072746851 0.043977782 0 0 0 0 28.223211
-0.3598707 -0.071702003 0.012980335 0 0 0 0 28.228159
-0.35986149 -0.076741062 0.033978287 0 0 0 0 28.238052
-0.35686794 -0.082730666 0.023976365 0 0 0 0 28.252893
-0.36286095 -0.088755533 0.044976071 0 0 0 0 28.262787
-0.35687721 -0.089711599 0.012974447 0 0 0 0 28.267735
-0.37687588 -0.098707676 0.035976868 0 0 0 0 28.277628
-0.38389122 -0.10867447 0.02597373 0 0 0 0 28.292469
-0.38387829 -0.11271663 0.048973761 0 0 0 0 28.302362
-0.38290241 -0.11665807 0.014969698 0 0 0 0 28.30731
-0.38388711 -0.11969784 0.03797216 0 0 0 0 28.317204
-0.37188956 -0.12370479 0.025969114 0 0 0 0 28.332045
-0.35986629 -0.12277026 0.046971317 0 0 0 0 28.34194
-0.35288739 -0.12572762 0.013965692 0 0 0 0 28.346886
-0.3648811 -0.13274191 0.036967453 0 0 0 0 28.356781
-0.39391708 -0.15266302 0.028959729 0 0 0 0 28.371622
-0.41291282 -0.16166864 0.055962097 0 0 0 0 28.381516
-0.39493316 -0.16263898 0.015953861 0 0 0 0 28.386463
-0.39991814 -0.16667435 0.041957125 0 0 0 0 28.396357
-0.40093565 -0.17765218 0.029949693 0 0 0 0 28.411198
-0.4009116 -0.17769851 0.055957202 0 0 0 0 28.421091
-0.45400968 -0.21451758 0.019926554 0 0 0 0 28.426039
-0.44797489 -0.21058264 0.048937745 0 0 0 0 28.435932
-0.44499514 -0.22256644 0.034926731 0 0 0 0 28.450773
-0.44897085 -0.22361061 0.064934939 0 0 0 0 28.460667
-0.43801129 -0.23255746 0.019917078 0 0 0 0 28.465614
-0.43397656 -0.22861743 0.048929434 0 0 0 0 28.475508
-0.43800676 -0.2455876 0.035914119 0 0 0 0 28.490349
-0.44998842 -0.24961548 0.0669218 0 0 0 0 28.500244
-0.42702034 -0.25458741 0.02090426 0 0 0 0 28.50519
-0.42998996 -0.25263146 0.04991718 0 0 0 0 28.515085
-0.43802771 -0.27359489 0.037897747 0 0 0 0 28.529926
-11.775571 -7.3374777 1.5042185 0 0 0 0 28.534872
-10.952567 -7.2505674 1.0469534 0 0 0 0 28.549713
-11.143428 -7.3008609 1.4489909 0 0 0 0 28.554661
-11.278226 -7.3252954 1.8630412 0 0 0 0 28.559607
-10.208613 -7.1925182 0.61268401 0 0 0 0 28.564554
-10.396469 -7.240818 1.0157236 0 0 0 0 28.569502
-10.557296 -7.271143 1.3997785 0 0 0 0 28.574448
-10.695091 -7.2895389 1.7968405 0 0 0 0 28.579395
-9.6574717 -7.1657729 0.59548634 0 0 0 0 28.584343
-9.8573389 -7.2160211 0.98452955 0 0 0 0 28.589289
-10.017165 -7.242322 1.3545907 0 0 0 0 28.594236
-10.192011 -7.28162 1.7426385 0 0 0 0 28.599184
-9.4227734 -7.3513727 0.59711003 0 0 0 0 28.60413
-9.4824114 -7.2898893 0.9692626 0 0 0 0 28.609077
-9.5551004 -7.2463384 1.3183923 0 0 0 0 28.614025
-9.6748695 -7.2447176 1.6864779 0 0 0 0 28.618971
-9.4126673 -7.7163696 0.61370897 0 0 0 0 28.378298
-9.4922991 -7.6598821 0.9928717 0 0 0 0 28.383245
-9.5469131 -7.5884018 1.3450464 0 0 0 0 28.388193
-9.6025457 -7.5269327 1.7052038 0 0 0 0 28.393139
-9.4094353 -8.1075048 0.63308775 0 0 0 0 28.398087
-9.4719944 -8.0190601 1.0162973 0 0 0 0 28.403034
-9.5376034 -7.9465618 1.3734801 0 0 0 0 28.40798
-9.5982065 -7.8730855 1.7376615 0 0 0 0 28.412928
-9.3891878 -8.4946775 0.65247053 0 0 0 0 28.417875
-9.447711 -8.3922501 1.0417023 0 0 0 0 28.422821
-9.5273037 -8.3137264 1.4039036 0 0 0 0 28.427769
-9.5848789 -8.2282619 1.7721043 0 0 0 0 28.432714
-9.3930254 -8.9248018 0.67479867 0 0 0 0 28.437662
-9.4585114 -8.8073673 1.0710604 0 0 0 0 28.44261
-9.5230494 -8.7048836 1.438295 0 0 0 0 28.447556
-9.5946093 -8.6143961 1.8125124 0 0 0 0 28.452503
-9.37885 -9.3539667 0.69812566 0 0 0 0 28.457451
-9.4483013 -9.2215309 1.1004155 0 0 0 0 28.462397
-9.5107965 -9.1010571 1.47168 0 0 0 0 28.467344
-9.5823288 -8.9985733 1.849918 0 0 0 0 28.472292
-9.3727293 -9.8121166 0.72341448 0 0 0 0 28.477238
-9.4321098 -9.6487112 1.1317518 0 0 0 0 28.482185
-9.5035839 -9.5202246 1.509035 0 0 0 0 28.487133
-9.575078 -9.4007454 1.8913021 0 0 0 0 28.492079
-9.3566208 -10.28029 0.74968833 0 0 0 0 28.497026
-9.427989 -10.113873 1.1680371 0 0 0 0 28.501974
-9.5044203 -9.9663792 1.5493555 0 0 0 0 28.50692
-9.5658512 -9.8189249 1.9346647 0 0 0 0 28.511868
-9.3295422 -10.767491 0.77893162 0 0 0 0 28.516815
-9.411869 -10.583055 1.2023169 0 0 0 0 28.521761
-9.4842539 -10.415578 1.5896666 0 0 0 0 28.526709
-9.5406189 -10.238137 1.9780236 0 0 0 0 28.531656
-9.3085117 -11.282681 0.81013906 0 0 0 0 28.536602
-9.4068203 -11.091224 1.2425444 0 0 0 0 28.54155
-9.4811573 -10.90275 1.6359305 0 0 0 0 28.546495
-9.536478 -10.705316 2.0283203 0 0 0 0 28.551443
-9.29356 -11.839863 0.84428763 0 0 0 0 28.556391
-9.4088469 -11.641387 1.2887138 0 0 0 0 28.561337
-9.4680929 -11.409946 1.6841635 0 0 0 0 28.566284
-9.5203419 -11.17952 2.0796065 0 0 0 0 28.571232
-9.1512985 -12.256303 0.86961192 0 0 0 0 28.576178
-9.4039145 -12.215565 1.3358483 0 0 0 0 28.581125
-9.4470415 -11.929161 1.7343805 0 0 0 0 28.586073
-9.5072603 -11.685724 2.135849 0 0 0 0 28.591019
-8.7121859 -12.272326 0.86744934 0 0 0 0 28.595966
-8.9908762 -12.263516 1.3256464 0 0 0 0 28.600914
-9.2495594 -12.243698 1.7528505 0 0 0 0 28.60586
-9.4801807 -12.196955 2.1900837 0 0 0 0 28.610807
-8.6811047 -12.441267 1.3312875 0 0 0 0 28.620701
-8.881609 -12.33254 1.740607 0 0 0 0 28.625648
-9.1573439 -12.339703 2.1797752 0 0 0 0 28.630596
-7.9863424 -12.488048 0.87790799 0 0 0 0 28.635542
-8.8364954 -12.478441 2.1704779 0 0 0 0 28.650383
-7.5581536 -12.469021 0.87581456 0 0 0 0 28.655331
-7.1580129 -12.472929 0.87469965 0 0 0 0 28.675117
-7.706594 -12.891566 1.344344 0 0 0 0 28.680065
-6.7678843 -12.483814 0.87757987 0 0 0 0 28.694906
-7.3275323 -12.934416 1.3391812 0 0 0 0 28.699854
-6.4038067 -12.519638 0.88143498 0 0 0 0 28.714695
-6.9283786 -12.932295 1.331082 0 0 0 0 28.719641
-6.060782 -12.582417 0.8892594 0 0 0 0 28.734482
-6.3002615 -12.450558 1.274632 0 0 0 0 28.739429
-5.7780185 -12.775079 0.90591007 0 0 0 0 28.754271
-5.931078 -12.431354 1.2655745 0 0 0 0 28.759218
-5.4379749 -12.830838 0.91375226 0 0 0 0 28.774059
-5.5668802 -12.405135 1.2585313 0 0 0 0 28.779005
-5.0888605 -12.851606 0.92064679 0 0 0 0 28.793846
-5.2137055 -12.39089 1.2534755 0 0 0 0 28.798794
-5.7174349 -12.875511 1.6520096 0 0 0 0 28.80374
-4.4481649 -12.075865 0.8706435 0 0 0 0 28.813635
-4.8755546 -12.38861 1.2504097 0 0 0 0 28.818581
-5.3662934 -12.878246 1.6409324 0 0 0 0 28.823528
-4.1189828 -12.05857 0.87460458 0 0 0 0 28.833422
-4.4368463 -12.10148 1.2187375 0 0 0 0 28.838369
-4.7407408 -12.152377 1.5368501 0 0 0 0 28.843317
-3.77739 -11.976927 0.8733238 0 0 0 0 28.61659
-4.1143823 -12.078784 1.2133691 0 0 0 0 28.621538
-4.4152746 -12.125666 1.5224862 0 0 0 0 28.626484
-4.7000666 -12.126589 1.8356705 0 0 0 0 28.631432
-3.461226 -11.96964 0.88127309 0 0 0 0 28.636379
-3.7710328 -11.979524 1.2034562 0 0 0 0 28.641325
-4.0800033 -12.061378 1.5055197 0 0 0 0 28.646273
-4.3929491 -12.135242 1.8195989 0 0 0 0 28.651218
-3.1520543 -11.958329 0.88823342 0 0 0 0 28.656166
-3.4638865 -11.978197 1.203401 0 0 0 0 28.661114
-3.7567446 -12.003059 1.4905498 0 0 0 0 28.666059
-4.0586581 -12.057925 1.7916542 0 0 0 0 28.671007
-2.8609853 -11.996982 0.89912236 0 0 0 0 28.675955
-3.1627252 -11.969851 1.2033613 0 0 0 0 28.680901
-3.4545956 -11.998705 1.4835029 0 0 0 0 28.685848
-3.7464392 -12.016569 1.7706624 0 0 0 0 28.690796
-2.5487328 -11.946662 0.90514612 0 0 0 0 28.695742
-2.8716512 -12.004487 1.2082577 0 0 0 0 28.700689
-3.1604648 -12.003328 1.4774466 0 0 0 0 28.705637
-3.4462752 -12.002187 1.7536335 0 0 0 0 28.710583
-2.2788455 -12.07527 0.92390257 0 0 0 0 28.71553
-2.5663981 -11.951133 1.2052901 0 0 0 0 28.720478
-2.8743796 -12.030935 1.4753581 0 0 0 0 28.725424
-3.1692379 -12.051769 1.7475142 0 0 0 0 28.730371
-2.3105893 -12.118707 1.2249933 0 0 0 0 28.740265
-2.5731514 -11.987556 1.4663768 0 0 0 0 28.745213
-2.8800983 -12.05036 1.7344719 0 0 0 0 28.75016
-2.3183224 -12.145115 1.4810989 0 0 0 0 28.765001
-2.5889058 -12.021941 1.7174722 0 0 0 0 28.769947
-2.1283135 -12.72062 1.5481938 0 0 0 0 28.784788
-2.3381157 -12.199486 1.7321671 0 0 0 0 28.789736
-1.8301574 -12.717227 1.5451576 0 0 0 0 28.804577
-2.066107 -12.267043 1.7320281 0 0 0 0 28.809523
-0.8641988 -12.637369 1.0308199 0 0 0 0 28.81447
-1.5340569 -12.74283 1.5470773 0 0 0 0 28.824364
-1.7910802 -12.325599 1.7299035 0 0 0 0 28.829311
-0.56396681 -12.599988 1.0418372 0 0 0 0 28.834259
-1.2388856 -12.73242 1.5450552 0 0 0 0 28.844152
-1.5110319 -12.374158 1.7277933 0 0 0 0 28.8491
-0.2688075 -12.599596 1.0567995 0 0 0 0 28.854046
-1.2595017 -12.693716 1.7642783 0 0 0 0 28.868887
0.028273383 -12.640211 1.0776978 0 0 0 0 28.873835
-0.96625733 -12.642269 1.7493211 0 0 0 0 28.888676
0.32437378 -12.670815 1.0966133 0 0 0 0 28.893621
-0.68013084 -12.652819 1.7442722 0 0 0 0 28.908463
0.61574858 -12.559384 1.104751 0 0 0 0 28.91341
-0.39314339 -12.73738 1.7501103 0 0 0 0 28.928251
0.83823389 -12.551152 1.3529193 0 0 0 0 28.957933
1.1304325 -12.52871 1.36392 0 0 0 0 28.977722
0.47054061 -12.608958 1.7192113 0 0 0 0 28.987616
1.4225818 -12.532266 1.3768817 0 0 0 0 28.997509
0.76738656 -12.772534 1.7379311 0 0 0 0 29.007402
1.7186906 -12.557826 1.3928093 0 0 0 0 29.017298
2.0267446 -12.614413 1.4156857 0 0 0 0 29.037085
2.3060906 -12.511911 1.4198138 0 0 0 0 29.056873
1.9621876 -12.519459 1.5610148 0 0 0 0 29.061821
2.2513995 -12.486971 1.5650334 0 0 0 0 29.081608
3.1637614 -11.93907 1.2468116 0 0 0 0 29.984591
2.5572119 -12.500565 1.5815558 0 0 0 0 29.994484
2.2192256 -12.562227 1.7136801 0 0 0 0 29.999432
3.4131315 -11.777376 1.2549864 0 0 0 0 30.004379
3.0869482 -11.991087 1.4169419 0 0 0 0 30.009325
2.8712995 -12.550973 1.5994781 0 0 0 0 30.014273
3.6993334 -11.740744 1.2780092 0 0 0 0 30.024166
3.3283474 -11.802364 1.4131479 0 0 0 0 30.029114
3.0660181 -12.118145 1.5549676 0 0 0 0 30.03406
3.9845405 -11.700104 1.3020366 0 0 0 0 30.043955
3.6115453 -11.765716 1.4281723 0 0 0 0 30.048901
3.2845297 -11.838366 1.530279 0 0 0 0 30.053848
3.0918329 -12.440275 1.7047704 0 0 0 0 30.058796
4.2757325 -11.670466 1.3270501 0 0 0 0 30.063742
3.8927677 -11.710055 1.4422174 0 0 0 0 30.068689
3.5597596 -11.773689 1.5343364 0 0 0 0 30.073637
3.2417011 -11.87735 1.6314073 0 0 0 0 30.078583
4.5789084 -11.653843 1.3560444 0 0 0 0 30.08353
4.1779695 -11.669396 1.4582449 0 0 0 0 30.088478
3.8429689 -11.725022 1.5423733 0 0 0 0 30.093424
3.5049725 -11.77664 1.6225073 0 0 0 0 30.098372
4.8790936 -11.629209 1.3850489 0 0 0 0 30.103319
4.4791398 -11.653759 1.4802395 0 0 0 0 30.108265
4.126173 -11.679346 1.549407 0 0 0 0 30.113213
3.7841961 -11.712953 1.6205611 0 0 0 0 30.11816
5.1842771 -11.606574 1.4150492 0 0 0 0 30.123106
4.7843027 -11.644119 1.5022264 0 0 0 0 30.128054
4.4173622 -11.64568 1.5614246 0 0 0 0 30.132999
4.0783548 -11.700286 1.6255561 0 0 0 0 30.137947
5.521399 -11.632983 1.4529858 0 0 0 0 30.142895
5.0914726 -11.628476 1.5252191 0 0 0 0 30.14784
4.7275109 -11.644037 1.5774015 0 0 0 0 30.152788
4.3705368 -11.668608 1.6275715 0 0 0 0 30.157736
5.8695078 -11.671401 1.4939064 0 0 0 0 30.162682
5.4245996 -11.64887 1.5561643 0 0 0 0 30.167629
5.0396624 -11.641393 1.595379 0 0 0 0 30.172577
4.6776934 -11.657948 1.6355592 0 0 0 0 30.177523
5.739778 -11.627223 1.5801604 0 0 0 0 30.187418
5.3598113 -11.63975 1.6133527 0 0 0 0 30.192364
4.9878483 -11.649287 1.6445441 0 0 0 0 30.197311
5.7089109 -11.680144 1.6392727 0 0 0 0 30.212152
5.3049984 -11.643628 1.6535236 0 0 0 0 30.2171
5.6491108 -11.671003 1.6704594 0 0 0 0 30.236887
8.6203995 -12.187325 1.9013383 0 0 0 0 30.350668
8.614502 -12.245158 1.8784486 0 0 0 0 30.375402
11.151566 -11.724109 2.173069 0 0 0 0 30.419926
11.389032 -11.445259 2.193336 0 0 0 0 30.439714
11.832891 -11.376281 2.2531202 0 0 0 0 30.110506
11.331709 -11.504482 2.1552532 0 0 0 0 30.115454
12.335106 -11.340864 2.324048 0 0 0 0 30.130295
11.733021 -11.384907 2.1953137 0 0 0 0 30.135241
11.346788 -11.54825 2.0813587 0 0 0 0 30.140188
13.036144 -11.454737 2.4347351 0 0 0 0 30.150082
12.265201 -11.374516 2.2592034 0 0 0 0 30.155029
11.70516 -11.374595 2.1014929 0 0 0 0 30.159977
11.313937 -11.526922 1.9725527 0 0 0 0 30.164923
13.693265 -11.502523 2.5355115 0 0 0 0 30.16987
12.843362 -11.380181 2.3310566 0 0 0 0 30.174818
12.268309 -11.38523 2.1583481 0 0 0 0 30.179764
11.705272 -11.378299 1.9866453 0 0 0 0 30.184711
14.170595 -11.376032 2.6035452 0 0 0 0 30.189659
13.615366 -11.521116 2.4386892 0 0 0 0 30.194605
12.828494 -11.366848 2.2142344 0 0 0 0 30.199553
12.241455 -11.354875 2.0245469 0 0 0 0 30.2045
14.145395 -10.843801 2.5802057 0 0 0 0 30.209446
14.177617 -11.456728 2.5076227 0 0 0 0 30.214394
13.614491 -11.510776 2.30686 0 0 0 0 30.219341
12.801641 -11.329472 2.0654407 0 0 0 0 30.224287
14.12815 -10.340584 2.5608251 0 0 0 0 30.229235
14.181388 -10.940528 2.4772494 0 0 0 0 30.23418
14.201718 -11.4584 2.3637705 0 0 0 0 30.239128
13.625606 -11.496428 2.1480291 0 0 0 0 30.244076
14.28873 -9.9806232 2.575217 0 0 0 0 30.249022
14.138175 -10.401265 2.4429109 0 0 0 0 30.253969
14.190504 -10.921173 2.3234186 0 0 0 0 30.258917
14.234818 -11.45206 2.1919219 0 0 0 0 30.263863
14.284426 -9.5104265 2.5607834 0 0 0 0 30.26881
14.307751 -10.037303 2.4452994 0 0 0 0 30.273758
14.210238 -10.419992 2.2910094 0 0 0 0 30.278704
14.222608 -10.902824 2.1425762 0 0 0 0 30.283651
14.119202 -8.956007 2.5184944 0 0 0 0 30.288599
14.294451 -9.5550852 2.4188766 0 0 0 0 30.293545
14.352839 -10.025981 2.278435 0 0 0 0 30.298492
14.208363 -10.37359 2.0952032 0 0 0 0 30.30344
14.10584 -8.5168037 2.5060189 0 0 0 0 30.308386
14.15122 -8.999692 2.3735728 0 0 0 0 30.313334
14.342539 -9.5357618 2.2450132 0 0 0 0 30.318281
14.368958 -9.9775963 2.0786183 0 0 0 0 30.323227
14.089457 -8.0885992 2.4945269 0 0 0 0 30.328175
14.097888 -8.5254269 2.3451436 0 0 0 0 30.333122
14.177324 -8.9573364 2.1897345 0 0 0 0 30.338068
12.023355 -7.9372625 1.704672 0 0 0 0 30.343016
14.066057 -7.6653848 2.4820261 0 0 0 0 30.347961
14.066514 -8.079196 2.3216701 0 0 0 0 30.352909
12.762869 -7.659256 1.9466658 0 0 0 0 30.357857
11.993937 -7.5160503 1.6701658 0 0 0 0 30.362803
14.059624 -7.2651963 2.4744897 0 0 0 0 30.36775
14.09009 -7.6730394 2.3091283 0 0 0 0 30.372698
12.742431 -7.2540512 1.9191368 0 0 0 0 30.377644
12.688033 -7.5417833 1.7359235 0 0 0 0 30.382591
14.027184 -6.8609748 2.4639616 0 0 0 0 30.387539
14.086656 -7.2648482 2.2935936 0 0 0 0 30.392485
14.127188 -7.6126842 2.1052859 0 0 0 0 30.397432
12.833494 -7.2247925 1.7272359 0 0 0 0 30.40238
14.01372 -6.4737811 2.4584026 0 0 0 0 30.407326
14.056216 -6.8536234 2.2740664 0 0 0 0 30.412273
14.123755 -7.1964889 2.0827532 0 0 0 0 30.417221
14.177284 -7.5443263 1.8774436 0 0 0 0 30.422167
14.014227 -6.1046052 2.4548151 0 0 0 0 30.427114
14.044754 -6.457427 2.2615106 0 0 0 0 30.432062
14.087319 -6.7742534 2.0572338 0 0 0 0 30.437008
14.14187 -7.1030874 1.8449423 0 0 0 0 30.441956
13.995729 -5.7324071 2.4502325 0 0 0 0 30.446903
14.044262 -6.0792432 2.2489274 0 0 0 0 30.451849
14.085853 -6.3750658 2.0396709 0 0 0 0 30.456797
14.127424 -6.6828766 1.8164059 0 0 0 0 30.461744
13.980211 -5.3712134 2.4466324 0 0 0 0 30.46669
14.019771 -5.6940336 2.2363544 0 0 0 0 30.471638
14.076365 -5.984868 2.0200975 0 0 0 0 30.476583
14.126958 -6.2756867 1.7928447 0 0 0 0 30.481531
13.969676 -5.0190268 2.4440162 0 0 0 0 30.486479
14.020248 -5.3308554 2.2277446 0 0 0 0 30.491425
14.066869 -5.5976729 2.0035145 0 0 0 0 30.496372
14.113473 -5.8754811 1.7672764 0 0 0 0 30.50132
13.945134 -4.6658244 2.441401 0 0 0 0 30.506266
14.001719 -4.9666553 2.218138 0 0 0 0 30.511213
14.053351 -5.2214742 1.9869175 0 0 0 0 30.516161
14.107975 -5.4822898 1.7466918 0 0 0 0 30.521107
13.936571 -4.3266435 2.441761 0 0 0 0 30.526054
13.987176 -4.6074615 2.2095194 0 0 0 0 30.531002
14.046819 -4.8532863 1.9733044 0 0 0 0 30.535948
14.09046 -5.0960836 1.7240999 0 0 0 0 30.540895
13.922997 -3.9914567 2.4421139 0 0 0 0 30.545843
13.973615 -4.2582698 2.2018857 0 0 0 0 30.550789
14.026273 -4.4880819 1.9576885 0 0 0 0 30.555737
14.083928 -4.7198935 1.7054884 0 0 0 0 30.560684
13.923407 -3.6652882 2.4454477 0 0 0 0 30.56563
13.97104 -3.9170933 2.1982348 0 0 0 0 30.570578
14.021712 -4.1328993 1.947051 0 0 0 0 30.575525
14.07938 -4.3507061 1.6868638 0 0 0 0 30.580471
13.913152 -3.3393927 2.4489956 0 0 0 0 30.321882
13.948759 -3.5781536 2.1907723 0 0 0 0 30.326828
14.004416 -3.7779422 1.9355773 0 0 0 0 30.331776
14.03607 -3.9756896 1.6663957 0 0 0 0 30.336721
13.898591 -3.0152056 2.45136 0 0 0 0 30.341669
13.95321 -3.2449882 2.1901379 0 0 0 0 30.346617
14.008881 -3.4317729 1.9289558 0 0 0 0 30.351562
14.06854 -3.6265531 1.6567652 0 0 0 0 30.35651
13.881019 -2.6960161 2.4547157 0 0 0 0 30.361458
13.931655 -2.9087892 2.1865122 0 0 0 0 30.366404
13.993334 -3.088577 1.9193347 0 0 0 0 30.371351
11.265627 -2.6187649 1.315999 0 0 0 0 30.376299
13.881431 -2.3848515 2.4620504 0 0 0 0 30.381245
13.932082 -2.58462 2.1868601 0 0 0 0 30.386192
13.97778 -2.7453837 1.9117078 0 0 0 0 30.39114
11.233001 -2.3315811 1.3033215 0 0 0 0 30.396086
13.855841 -2.0686529 2.4653962 0 0 0 0 30.401033
13.9145 -2.2604275 2.1842103 0 0 0 0 30.405981
13.968207 -2.4131987 1.9050623 0 0 0 0 30.410927
11.201362 -2.0493999 1.2906339 0 0 0 0 30.415874
13.842236 -1.7604715 2.471724 0 0 0 0 30.420822
13.877911 -1.9362123 2.1805637 0 0 0 0 30.425768
13.956631 -2.0780134 1.9004148 0 0 0 0 30.430716
11.182714 -1.7722377 1.2819313 0 0 0 0 30.435663
13.830622 -1.4552943 2.4800432 0 0 0 0 30.440609
13.884308 -1.6210543 2.1848843 0 0 0 0 30.445557
13.939043 -1.7478225 1.89676 0 0 0 0 30.450504
11.141061 -1.4930481 1.2712361 0 0 0 0 30.45545
13.823999 -1.1521235 2.4893527 0 0 0 0 30.460398
13.876701 -1.30288 2.1892083 0 0 0 0 30.465343
13.933447 -1.4186473 1.8950932 0 0 0 0 30.470291
11.129392 -1.223897 1.2645137 0 0 0 0 30.475239
13.806373 -0.84694058 2.4986641 0 0 0 0 30.480185
13.862087 -0.98569727 2.1925292 0 0 0 0 30.485132
13.929839 -1.0944754 1.8944155 0 0 0 0 30.49008
11.121719 -0.95375228 1.259786 0 0 0 0 30.495026
13.792733 -0.54676133 2.5069642 0 0 0 0 30.499973
13.85446 -0.67452341 2.1968365 0 0 0 0 30.504921
13.909224 -0.77028298 1.89174 0 0 0 0 30.509867
11.126039 -0.68762285 1.2570451 0 0 0 0 30.514814
13.788092 -0.24459647 2.5202568 0 0 0 0 30.519762
13.843824 -0.36434716 2.2021391 0 0 0 0 30.524708
13.897604 -0.44510344 1.8920556 0 0 0 0 30.529655
11.115351 -0.4214761 1.2533062 0 0 0 0 30.534603
13.775439 0.052578114 2.5325432 0 0 0 0 30.539549
13.832188 -0.051171601 2.209439 0 0 0 0 30.544497
13.871972 -0.12390891 1.8923686 0 0 0 0 30.549444
11.104659 -0.15433049 1.2505634 0 0 0 0 30.55439
13.748779 0.35076946 2.5428317 0 0 0 0 30.559338
13.800536 0.25702789 2.2137384 0 0 0 0 30.564285
13.872334 0.19525373 1.896663 0 0 0 0 30.569231
11.079958 0.10883074 1.2468191 0 0 0 0 30.574179
13.732116 0.64994723 2.5561116 0 0 0 0 30.579124
13.806883 0.56618124 2.2240164 0 0 0 0 30.584072
13.849692 0.51844269 1.8989652 0 0 0 0 30.58902
11.041252 0.37400624 1.2430778 0 0 0 0 30.593966
13.724444 0.94711453 2.5703807 0 0 0 0 30.598913
13.796226 0.87835288 2.2342992 0 0 0 0 30.603861
13.530005 0.82197618 1.8623751 0 0 0 0 30.608807
11.017539 0.63716346 1.2413238 0 0 0 0 30.613754
13.713771 1.2472826 2.5876489 0 0 0 0 30.618702
13.782557 1.1875285 2.2435758 0 0 0 0 30.623648
13.857391 1.1637548 1.9145292 0 0 0 0 30.628595
10.97082 0.89934415 1.2395746 0 0 0 0 30.633543
13.691085 1.5434656 2.6019135 0 0 0 0 30.638489
13.769889 1.4997005 2.2558489 0 0 0 0 30.643436
13.825725 1.4829508 1.9188155 0 0 0 0 30.648384
10.939095 1.1595083 1.2378126 0 0 0 0 30.65333
13.690403 1.8466219 2.6211691 0 0 0 0 30.658278
13.755211 1.8108745 2.2681165 0 0 0 0 30.663225
13.119925 1.7179092 1.8303213 0 0 0 0 30.668171
10.848352 1.4127358 1.2310661 0 0 0 0 30.673119
13.676705 2.1427932 2.6384196 0 0 0 0 30.678066
13.753531 2.1240337 2.2823749 0 0 0 0 30.683012
12.969203 2.0002298 1.8176193 0 0 0 0 30.68796
10.79061 1.6679242 1.2293025 0 0 0 0 30.692905
13.663012 2.4469631 2.6576712 0 0 0 0 30.697853
13.72584 2.4352214 2.2936375 0 0 0 0 30.702801
12.025287 2.1434247 1.6971461 0 0 0 0 30.707747
10.796875 1.9330413 1.2355146 0 0 0 0 30.712694
13.639305 2.7471442 2.6749189 0 0 0 0 30.717642
13.708151 2.7523949 2.309895 0 0 0 0 30.722588
13.781033 2.7886298 1.9588927 0 0 0 0 30.727535
10.752132 2.1962111 1.2387425 0 0 0 0 30.732483
13.624602 3.0543127 2.6971626 0 0 0 0 30.737429
13.697457 3.072561 2.3271463 0 0 0 0 30.742376
13.768346 3.1187994 1.9711514 0 0 0 0 30.747324
10.739387 2.4623475 1.2439543 0 0 0 0 30.75227
13.617893 3.3624728 2.7203987 0 0 0 0 30.757217
13.695761 3.3957167 2.3463905 0 0 0 0 30.762165
13.764662 3.4569569 1.9874066 0 0 0 0 30.767111
10.693628 2.7215168 1.2471704 0 0 0 0 30.772058
13.613187 3.677629 2.7466338 0 0 0 0 30.777006
13.670054 3.7158971 2.3636372 0 0 0 0 30.781952
13.741966 3.7911353 2.0006614 0 0 0 0 30.7869
13.805876 3.8703899 1.6236912 0 0 0 0 30.791847
13.59685 3.9875495 2.7699161 0 0 0 0 30.536173
13.670733 4.0428333 2.3849287 0 0 0 0 30.541121
13.73166 4.1301146 2.0179737 0 0 0 0 30.546068
13.795583 4.2204046 1.6360193 0 0 0 0 30.551014
13.587176 4.3047094 2.7961798 0 0 0 0 30.555962
13.651073 4.3750048 2.4072082 0 0 0 0 30.560909
13.714007 4.4722867 2.0342591 0 0 0 0 30.565855
13.786951 4.5835648 1.6513165 0 0 0 0 30.570803
13.551489 4.6168995 2.8194451 0 0 0 0 30.575748
13.633407 4.7081738 2.4294817 0 0 0 0 30.580696
13.692355 4.8214598 2.0535457 0 0 0 0 30.585644
13.765306 4.9447412 1.6636117 0 0 0 0 30.59059
13.540815 4.9450579 2.8487072 0 0 0 0 30.595537
12.53023 4.6456509 2.2579012 0 0 0 0 30.600485
12.401109 4.6951313 1.8809944 0 0 0 0 30.605431
12.581129 4.8652558 1.5380505 0 0 0 0 30.610378
13.527138 5.2762189 2.8799672 0 0 0 0 30.615326
13.594069 5.3885145 2.4770246 0 0 0 0 30.620272
11.857161 4.8049006 1.8193071 0 0 0 0 30.625219
11.675026 4.8414254 1.4454117 0 0 0 0 30.630167
13.50145 5.604394 2.9082248 0 0 0 0 30.635113
13.572402 5.7386837 2.5042961 0 0 0 0 30.64006
13.64639 5.8999534 2.1193867 0 0 0 0 30.645008
11.802404 5.227407 1.4786479 0 0 0 0 30.649954
13.482768 5.9445581 2.9414828 0 0 0 0 30.654902
13.565737 6.0968342 2.5355613 0 0 0 0 30.659849
12.569163 5.7863345 1.9787425 0 0 0 0 30.664795
13.709749 6.4693913 1.7417787 0 0 0 0 30.669743
13.478084 6.2887077 2.9757321 0 0 0 0 30.67469
13.554067 6.4589915 2.5658257 0 0 0 0 30.679636
10.519327 5.1378016 1.6781018 0 0 0 0 30.684584
10.607366 5.318985 1.3661995 0 0 0 0 30.689529
13.452397 6.6378784 3.0099885 0 0 0 0 30.694477
13.517383 6.8161755 2.5940907 0 0 0 0 30.699425
10.407539 5.3870378 1.6843234 0 0 0 0 30.70437
13.677465 7.2737141 1.7893572 0 0 0 0 30.709318
13.435711 6.9940391 3.0472403 0 0 0 0 30.714266
13.451682 7.1653914 2.618356 0 0 0 0 30.719212
11.31738 6.1981282 1.8605288 0 0 0 0 30.724159
11.36442 6.4023795 1.5116565 0 0 0 0 30.729107
13.417028 7.360199 3.0864944 0 0 0 0 30.734053
13.491056 7.586484 2.6676242 0 0 0 0 30.739
13.5301 7.8247914 2.2617774 0 0 0 0 30.743948
13.645197 8.1230297 1.8469417 0 0 0 0 30.748894
13.390342 7.7293668 3.1267478 0 0 0 0 30.753841
13.467381 7.9736495 2.7028873 0 0 0 0 30.758789
13.54747 8.2589111 2.3020546 0 0 0 0 30.763735
13.375399 8.4054575 1.8442259 0 0 0 0 30.768682
13.366653 8.1055307 3.1689987 0 0 0 0 30.77363
13.443715 8.3758106 2.7441542 0 0 0 0 30.778576
13.043485 8.3715954 2.2553108 0 0 0 0 30.783524
12.192949 8.0748482 1.7124443 0 0 0 0 30.788471
13.148834 8.371912 3.1672456 0 0 0 0 30.793417
12.748568 8.3447151 2.6453848 0 0 0 0 30.798365
11.946054 8.0669098 2.1045129 0 0 0 0 30.803312
11.55984 8.0596352 1.6566607 0 0 0 0 30.808258
12.055357 8.0462732 2.9494319 0 0 0 0 30.813206
11.705132 8.0419855 2.4705663 0 0 0 0 30.818151
11.331928 8.0406857 2.0337126 0 0 0 0 30.823099
10.932709 8.0214033 1.6008569 0 0 0 0 30.828047
11.480227 8.0270319 2.8566203 0 0 0 0 30.832993
11.061958 7.9737983 2.3787482 0 0 0 0 30.83794
10.833861 8.0693254 1.9829015 0 0 0 0 30.842888
10.72387 8.2697277 1.6040782 0 0 0 0 30.847834
10.879055 7.9658089 2.7547891 0 0 0 0 30.852781
10.703979 8.090291 2.3469393 0 0 0 0 30.857729
10.560959 8.2567167 1.9741048 0 0 0 0 30.862675
10.618113 8.6039391 1.6263113 0 0 0 0 30.867622
10.587107 8.1122351 2.728972 0 0 0 0 30.87257
10.453073 8.2756624 2.3371303 0 0 0 0 30.877516
10.085996 8.5795813 1.5824704 0 0 0 0 30.887411
11.317999 9.0675468 2.9722781 0 0 0 0 30.892357
9.6299229 8.6001339 1.5506272 0 0 0 0 30.907198
9.6561136 8.6999426 1.9326477 0 0 0 0 30.922039
9.1347933 8.5587177 1.5097575 0 0 0 0 30.926987
8.7177134 8.5682135 1.4808887 0 0 0 0 30.946774
9.5032845 8.689786 2.6486316 0 0 0 0 30.951721
8.36868 8.6266336 1.4640225 0 0 0 0 30.966562
8.0216436 8.682044 1.4481517 0 0 0 0 30.986351
7.7583103 8.8305883 1.7749978 0 0 0 0 31.882566
7.689332 8.7606134 2.0729656 0 0 0 0 31.897408
7.64537 8.7126274 2.3919311 0 0 0 0 31.912249
5.4574876 7.9428859 1.218393 0 0 0 0 31.966667
5.99681 8.6766815 1.6193258 0 0 0 0 31.981508
5.1694074 7.9250503 1.2034435 0 0 0 0 31.986454
5.9598083 8.5726995 1.8722774 0 0 0 0 31.996347
5.2204533 7.9440317 1.464394 0 0 0 0 32.001297
4.8553061 7.8442183 1.1804899 0 0 0 0 32.006241
5.9838424 8.5466967 2.1552246 0 0 0 0 32.011189
5.2654915 7.9540205 1.7133446 0 0 0 0 32.016136
4.8923383 7.8332062 1.4284395 0 0 0 0 32.021084
4.6492639 7.9303422 1.1835319 0 0 0 0 32.026031
4.9503784 7.8561926 1.6703883 0 0 0 0 32.035927
4.6782846 7.8903346 1.4234781 0 0 0 0 32.040871
4.3321514 7.8094983 1.1575717 0 0 0 0 32.045818
5.0284295 7.896174 1.9323332 0 0 0 0 32.050766
4.7002988 7.8463354 1.6474266 0 0 0 0 32.05571
4.4011903 7.8294797 1.3975158 0 0 0 0 32.060661
3.1775172 6.0629182 0.8926121 0 0 0 0 32.065605
4.7473283 7.8333297 1.8913724 0 0 0 0 32.070553
4.4662256 7.8514676 1.6294614 0 0 0 0 32.0755
3.2415538 6.0969019 1.0785704 0 0 0 0 32.080448
2.7112863 5.4860992 0.80264109 0 0 0 0 32.085396
4.5322604 7.8614573 1.8724046 0 0 0 0 32.09034
4.1871223 7.7666087 1.5934962 0 0 0 0 32.095291
2.9044025 5.781044 1.0146008 0 0 0 0 32.100235
2.6042793 5.607161 0.81766826 0 0 0 0 32.105183
4.2731652 7.8075938 1.8354377 0 0 0 0 32.11013
3.1835675 6.2409668 1.2665535 0 0 0 0 32.115074
2.627284 5.5511603 0.96662855 0 0 0 0 32.120026
3.4158807 7.8369546 1.1377016 0 0 0 0 32.124969
4.0250726 7.7567215 1.8014679 0 0 0 0 32.129917
2.745347 5.697135 1.1445872 0 0 0 0 32.134865
3.4598846 7.7699504 1.3436401 0 0 0 0 32.139809
2.2321522 5.4743247 0.79171515 0 0 0 0 32.14476
3.8180025 7.7728314 1.7834939 0 0 0 0 32.149704
2.6253231 5.7812023 1.1516088 0 0 0 0 32.154652
3.2508173 7.7810483 1.3366652 0 0 0 0 32.159599
2.0350766 5.3524032 0.77273577 0 0 0 0 32.164547
3.6159339 7.7939353 1.768518 0 0 0 0 32.169495
3.3378441 7.8150387 1.5426036 0 0 0 0 32.174438
2.1251173 5.4383869 0.92869449 0 0 0 0 32.17939
1.9030433 5.3844609 0.7757557 0 0 0 0 32.184334
3.3888464 7.7480416 1.7395413 0 0 0 0 32.189281
3.1177626 7.7811365 1.5236256 0 0 0 0 32.194229
2.0140972 5.5304408 0.9397136 0 0 0 0 32.199173
2.5966303 7.9383092 1.142797 0 0 0 0 32.204124
3.1987801 7.7761331 1.7275611 0 0 0 0 32.209068
2.8946779 7.7312303 1.5026468 0 0 0 0 32.214016
1.9070792 5.6384907 0.95373136 0 0 0 0 32.218964
2.9896989 7.7502251 1.7035804 0 0 0 0 32.228859
1.9470785 5.5864935 1.0776883 0 0 0 0 32.233803
2.4785755 7.9373794 1.3387482 0 0 0 0 32.23875
2.7836215 7.7303114 1.6845993 0 0 0 0 32.248646
2.5505743 7.8923798 1.5126815 0 0 0 0 32.253593
2.6085606 7.7803869 1.6796141 0 0 0 0 32.268433
2.3775196 7.969449 1.5186963 0 0 0 0 32.27338
2.4595194 7.9204526 1.6966264 0 0 0 0 32.288223
1.5923119 8.4206858 1.4058186 0 0 0 0 32.337692
1.5053496 8.4552736 1.5765818 0 0 0 0 32.0802
