# .PCD v0.7 - Point Cloud Data file format
VERSION 0.7
FIELDS x y z normal_x normal_y normal_z intensity curvature
SIZE 4 4 4 4 4 4 4 4
TYPE F F F F F F F F
COUNT 1 1 1 1 1 1 1 1
WIDTH 945
HEIGHT 1
VIEWPOINT 0 0 0 1 0 0 0
POINTS 945
DATA ascii
9.6044636 -9.3077154 1.0144856 0 0 0 0 73.620117
9.9322042 -9.2117748 1.02995 0 0 0 0 73.639908
10.246982 -9.0893126 1.0445271 0 0 0 0 73.659691
10.55225 -8.9544735 1.0581305 0 0 0 0 73.679482
8.5464239 -6.9298983 0.85323852 0 0 0 0 73.699272
7.5195222 -5.8281097 0.74583817 0 0 0 0 73.719055
6.1586924 -4.8730674 0.38249141 0 0 0 0 73.724007
6.7888975 -5.026372 0.66841888 0 0 0 0 73.738846
6.2904582 -4.7522731 0.38357374 0 0 0 0 73.74379
6.0915713 -4.3901873 0.36692163 0 0 0 0 73.76358
5.7078743 -3.9196894 0.34164438 0 0 0 0 73.783371
5.9827471 -4.1729646 0.13582283 0 0 0 0 73.788315
4.8266311 -3.4283659 -0.0665593 0 0 0 0 73.793266
6.7449813 -4.336288 0.63875842 0 0 0 0 73.79821
5.3160172 -3.4788857 0.31706011 0 0 0 0 73.803154
5.2872682 -3.5101807 0.12356701 0 0 0 0 73.808105
4.7814035 -3.2285392 -0.066274442 0 0 0 0 73.813049
6.8263693 -4.2461805 0.38562855 0 0 0 0 73.516113
4.8150139 -3.0376608 0.11408515 0 0 0 0 73.521065
4.9805336 -3.1926999 -0.071829371 0 0 0 0 73.526009
4.5744839 -2.7391129 0.10857783 0 0 0 0 73.540848
4.7589374 -2.8939841 -0.066181175 0 0 0 0 73.545799
4.3253393 -2.4562383 0.10387466 0 0 0 0 73.560638
4.3418531 -2.5006065 -0.055351939 0 0 0 0 73.56559
4.2646298 -2.2938194 0.10172659 0 0 0 0 73.580429
4.0363321 -2.1986041 -0.048356779 0 0 0 0 73.585373
9.086132 -4.5185208 0.79391074 0 0 0 0 73.590324
5.6441083 -2.8693101 0.11529825 0 0 0 0 73.600212
3.854538 -1.9834728 -0.04306021 0 0 0 0 73.605164
8.74895 -4.1129165 0.75649446 0 0 0 0 73.610107
5.5855365 -2.6779687 0.11240568 0 0 0 0 73.620003
3.7341256 -1.8117414 -0.040616348 0 0 0 0 73.624954
8.3144503 -3.6894364 0.71343303 0 0 0 0 73.629898
5.5531611 -2.5076735 0.11055666 0 0 0 0 73.639793
3.6763489 -1.676474 -0.038958568 0 0 0 0 73.644737
7.8975983 -3.3006802 0.67323399 0 0 0 0 73.649689
5.5344687 -2.3459184 0.10875072 0 0 0 0 73.659576
4.7820129 -2.0448337 -0.065926977 0 0 0 0 73.664528
7.5882254 -2.9772298 0.64137977 0 0 0 0 73.669472
5.4920058 -2.1782186 0.10580081 0 0 0 0 73.679367
4.7644954 -1.9041402 -0.06589435 0 0 0 0 73.684311
7.1804619 -2.6378505 0.60285449 0 0 0 0 73.689262
5.5281863 -2.0466332 0.10419881 0 0 0 0 73.699158
4.7704945 -1.776377 -0.065774262 0 0 0 0 73.704102
6.9346576 -2.3769691 0.57801062 0 0 0 0 73.709053
5.4883723 -1.8880502 0.10219872 0 0 0 0 73.718941
4.7625799 -1.6460749 -0.064745687 0 0 0 0 73.723892
6.7287803 -2.143697 0.55726814 0 0 0 0 73.728836
6.7521729 -2.1537468 0.33037293 0 0 0 0 73.733788
5.5165224 -1.7571597 0.10152823 0 0 0 0 73.738731
4.7565985 -1.5178411 -0.064717285 0 0 0 0 73.743675
6.5174937 -1.9212039 0.53539437 0 0 0 0 73.748627
6.5766916 -1.9347522 0.31976303 0 0 0 0 73.753571
5.4882407 -1.6110361 0.099522993 0 0 0 0 73.758522
4.7603788 -1.3959948 -0.064660214 0 0 0 0 73.763466
6.323597 -1.7144129 0.51553494 0 0 0 0 73.76841
6.4125819 -1.7322088 0.30911255 0 0 0 0 73.773361
5.4490438 -1.4624891 0.098449461 0 0 0 0 73.778305
4.7532039 -1.2727256 -0.063679829 0 0 0 0 73.783257
6.1529593 -1.5265667 0.49871159 0 0 0 0 73.7882
6.2342954 -1.5341052 0.29831082 0 0 0 0 73.793152
5.4205379 -1.3223584 0.09639553 0 0 0 0 73.798096
4.7539568 -1.1517606 -0.063652709 0 0 0 0 73.80304
6.035634 -1.3568467 0.48517594 0 0 0 0 73.807991
5.9950342 -1.3345889 0.28602341 0 0 0 0 73.812935
5.4575062 -1.1968182 0.095757894 0 0 0 0 73.817886
4.7437153 -1.0303715 -0.062710777 0 0 0 0 73.82283
5.7742476 -1.1488079 0.27477488 0 0 0 0 73.832726
5.4924016 -1.0731993 0.095088996 0 0 0 0 73.837669
4.761189 -0.91706938 -0.062607646 0 0 0 0 73.842621
5.5976386 -0.98478007 0.26470974 0 0 0 0 73.852516
5.4995689 -0.94247723 0.093252711 0 0 0 0 73.85746
4.7488408 -0.79859889 -0.061704855 0 0 0 0 73.862404
5.4525223 -0.83401102 0.25679392 0 0 0 0 73.872299
5.4668827 -0.80719173 0.092129238 0 0 0 0 73.877251
4.7404623 -0.68127656 -0.061778214 0 0 0 0 73.882195
5.289238 -0.68751556 0.24769488 0 0 0 0 73.89209
5.3594193 -0.66495526 0.090452172 0 0 0 0 73.897034
4.7559118 -0.56889564 -0.061696246 0 0 0 0 73.901985
5.1703959 -0.55579185 0.24083874 0 0 0 0 73.911873
5.1998382 -0.5246712 0.089333527 0 0 0 0 73.916824
4.7734032 -0.45559493 -0.061589114 0 0 0 0 73.921768
5.0523925 -0.42810792 0.23495673 0 0 0 0 73.931664
5.0250072 -0.39077598 0.087037869 0 0 0 0 73.936615
4.7649121 -0.34127825 -0.060685117 0 0 0 0 73.941559
4.9551492 -0.30723426 0.22818905 0 0 0 0 73.951454
4.896781 -0.26772806 0.086034827 0 0 0 0 73.956398
4.8343787 -0.2300209 -0.061167423 0 0 0 0 73.961349
4.8646131 -0.19364353 0.22341718 0 0 0 0 73.971237
4.7903137 -0.15153009 0.084153943 0 0 0 0 73.976189
4.7838826 -0.11505531 -0.059600051 0 0 0 0 73.981133
4.6933932 -0.039422296 0.081767753 0 0 0 0 73.745438
4.7551126 0.00035606069 -0.059405759 0 0 0 0 73.750389
4.5794725 0.066033073 0.080738887 0 0 0 0 73.765228
4.6282811 0.10927865 -0.055510949 0 0 0 0 73.770172
4.4804659 0.16890556 0.079810455 0 0 0 0 73.785011
4.4540834 0.21004349 -0.050068345 0 0 0 0 73.789963
6.1663475 0.3193385 0.25881603 0 0 0 0 73.799858
4.3832345 0.26571617 0.077847242 0 0 0 0 73.804802
4.3208022 0.30723023 -0.047322035 0 0 0 0 73.809746
6.1588306 0.45763922 0.25592858 0 0 0 0 73.819641
4.28688 0.35948557 0.076866522 0 0 0 0 73.824593
4.2163844 0.40028453 -0.044374183 0 0 0 0 73.829536
6.1293054 0.59581411 0.25186148 0 0 0 0 73.839432
4.2255011 0.45188245 0.076159962 0 0 0 0 73.844376
4.1218047 0.48895282 -0.041381795 0 0 0 0 73.849327
6.1107302 0.73255014 0.248873 0 0 0 0 73.859222
4.030108 0.5745092 -0.038391273 0 0 0 0 73.86911
6.0610271 0.86651021 0.2456086 0 0 0 0 73.879005
3.9514124 0.65956545 -0.036298722 0 0 0 0 73.888901
6.0434608 1.003209 0.24262975 0 0 0 0 73.898796
5.3273735 0.95766306 0.080410413 0 0 0 0 73.90374
3.8937426 0.74479681 -0.034032881 0 0 0 0 73.908691
5.9926596 1.1342224 0.23833379 0 0 0 0 73.918587
5.3173494 1.0830464 0.080399267 0 0 0 0 73.923531
3.8118117 0.8239736 -0.031014474 0 0 0 0 73.928474
5.9862523 1.2744864 0.2354769 0 0 0 0 73.93837
5.2841129 1.2033415 0.08015769 0 0 0 0 73.943321
3.7428422 0.90164995 -0.02890235 0 0 0 0 73.948265
5.9788823 1.4157811 0.23362166 0 0 0 0 73.95816
5.2894092 1.3361362 0.079333916 0 0 0 0 73.963104
3.6616888 0.97480637 -0.026926732 0 0 0 0 73.968056
5.9634542 1.5554016 0.23068778 0 0 0 0 73.977951
5.2876377 1.4672084 0.078439325 0 0 0 0 73.982895
3.6340544 1.0598712 -0.025415918 0 0 0 0 73.987839
5.9562216 1.6997029 0.22786014 0 0 0 0 73.997734
5.2545338 1.5905037 0.078225687 0 0 0 0 74.002686
4.7645993 1.5258144 -0.049311105 0 0 0 0 74.007629
5.6885304 1.7602624 0.21821555 0 0 0 0 74.017525
5.2619619 1.7262172 0.077446207 0 0 0 0 74.022469
4.7321277 1.6400726 -0.047594629 0 0 0 0 74.02742
5.6318865 1.772215 0.35989913 0 0 0 0 74.032364
5.9549913 1.9937798 0.22336136 0 0 0 0 74.037308
5.2583961 1.8623569 0.077581264 0 0 0 0 74.042259
4.7403464 1.7707447 -0.046409871 0 0 0 0 74.047203
5.9721646 2.0267503 0.37482396 0 0 0 0 74.052155
5.9073744 2.1286716 0.22012889 0 0 0 0 74.057098
5.2904472 2.0131083 0.077128835 0 0 0 0 74.06205
4.7293882 1.8971719 -0.045416042 0 0 0 0 74.066994
5.3861613 2.0782347 0.20249526 0 0 0 0 74.076889
5.2383075 2.1351674 0.075752296 0 0 0 0 74.081833
4.7286639 2.0291989 -0.044291526 0 0 0 0 74.086784
5.7409344 2.3682826 0.20983438 0 0 0 0 74.096672
5.2604961 2.2893112 0.075249039 0 0 0 0 74.101624
4.7097135 2.155935 -0.042358898 0 0 0 0 74.106567
5.7262483 2.3775992 0.34884208 0 0 0 0 74.111519
5.8694468 2.5792408 0.21167281 0 0 0 0 74.116463
5.2206254 2.4178836 0.075028166 0 0 0 0 74.121414
4.7459741 2.311533 -0.042735822 0 0 0 0 74.126358
5.8433876 2.7272949 0.20872851 0 0 0 0 74.136253
5.2205586 2.5658958 0.075294226 0 0 0 0 74.141197
4.6986141 2.4283795 -0.040115602 0 0 0 0 74.146149
5.826683 2.8839865 0.20593278 0 0 0 0 74.156036
5.1398997 2.6750734 0.074580699 0 0 0 0 74.160988
4.6911926 2.5676789 -0.038982648 0 0 0 0 74.165932
4.9830956 2.6022267 0.18174314 0 0 0 0 74.175827
5.2046208 2.8665597 0.074737765 0 0 0 0 74.180771
4.7279367 2.7352571 -0.038253572 0 0 0 0 74.185722
5.5940418 3.0932217 0.19485101 0 0 0 0 74.195618
5.2102089 3.0303688 0.074183233 0 0 0 0 74.200562
4.7476225 2.9015098 -0.037674204 0 0 0 0 74.205513
5.7453923 3.3528438 0.19550605 0 0 0 0 73.961906
5.1790676 3.179013 0.07246156 0 0 0 0 73.966858
4.7192826 3.0449045 -0.03638766 0 0 0 0 73.971802
5.7650628 3.5441236 0.19328746 0 0 0 0 73.981697
5.1757054 3.3451691 0.072846927 0 0 0 0 73.986641
4.723865 3.2097471 -0.034950066 0 0 0 0 73.991592
6.1821103 3.7915866 0.33677727 0 0 0 0 73.996536
5.7037954 3.6875629 0.19001724 0 0 0 0 74.001488
5.1829491 3.5259349 0.071439527 0 0 0 0 74.006432
4.7266126 3.3786652 -0.033492949 0 0 0 0 74.011375
6.8884068 4.4459167 0.36397031 0 0 0 0 74.016327
5.6858082 3.8623271 0.18635793 0 0 0 0 74.021271
5.1831098 3.7049623 0.071961492 0 0 0 0 74.026222
4.230051 3.1718934 -0.023193544 0 0 0 0 74.031166
6.7463918 4.5695887 0.35088465 0 0 0 0 74.03611
5.7484779 4.1029458 0.18489902 0 0 0 0 74.041061
4.2290907 3.1640863 0.067781463 0 0 0 0 74.046005
4.7370796 3.7403314 -0.031339318 0 0 0 0 74.050957
5.9328642 4.2076106 0.30932236 0 0 0 0 74.055901
5.1905684 4.0907726 0.071294777 0 0 0 0 74.065796
4.4258986 3.6653883 -0.023446012 0 0 0 0 74.07074
6.4425159 4.7957106 0.32537654 0 0 0 0 74.075691
4.3749213 3.6075108 0.067711182 0 0 0 0 74.085587
4.1511326 3.2176607 0.22372507 0 0 0 0 74.095474
4.4004378 3.6087613 0.14697848 0 0 0 0 74.100426
5.5975103 4.8591018 0.072042972 0 0 0 0 74.10537
4.0447879 3.2829065 0.21443866 0 0 0 0 74.115265
4.0241599 3.4535007 0.13667308 0 0 0 0 74.120209
4.0980864 3.7133667 0.066415556 0 0 0 0 74.12516
4.1821742 3.9999521 -0.015539992 0 0 0 0 74.130104
3.9414356 3.3480299 0.20617555 0 0 0 0 74.135056
4.2116532 3.7882638 0.13800849 0 0 0 0 74.139999
4.1835036 3.972115 0.066291407 0 0 0 0 74.144951
5.6861439 5.7279859 -0.037973586 0 0 0 0 74.149895
3.9749768 3.5347981 0.20303395 0 0 0 0 74.154839
4.1827426 3.9394672 0.13506517 0 0 0 0 74.15979
5.7116914 5.7099447 0.07114844 0 0 0 0 74.164734
5.5504146 5.8613076 -0.032927729 0 0 0 0 74.169685
4.1346259 3.8486357 0.20497267 0 0 0 0 74.174629
5.625596 5.5733857 0.16137983 0 0 0 0 74.179573
5.52459 5.7833028 0.070279934 0 0 0 0 74.184525
5.4001479 5.9812012 -0.028111607 0 0 0 0 74.189468
5.7022033 5.578455 0.25711003 0 0 0 0 74.19442
5.536386 5.7419868 0.15609618 0 0 0 0 74.199364
5.3531919 5.8740582 0.069682397 0 0 0 0 74.204315
5.2592821 6.110744 -0.024139296 0 0 0 0 74.209259
5.5816827 5.7133241 0.24529208 0 0 0 0 74.214203
5.4087071 5.8740907 0.15019701 0 0 0 0 74.219154
5.2497249 6.0371866 0.069237202 0 0 0 0 74.224098
5.0879235 6.2034583 -0.018720245 0 0 0 0 74.22905
5.4466243 5.8347654 0.23324431 0 0 0 0 74.233994
5.2767901 6.0003557 0.14521508 0 0 0 0 74.238937
5.1180964 6.1714163 0.068323277 0 0 0 0 74.243889
4.932198 6.3115783 -0.014046647 0 0 0 0 74.248833
5.3208404 5.9628482 0.22132736 0 0 0 0 74.253784
5.1534834 6.1413116 0.13842453 0 0 0 0 74.258728
4.9896293 6.3095284 0.06746725 0 0 0 0 74.263672
4.8125596 6.4713173 -0.0096521415 0 0 0 0 74.268623
5.1931033 6.0920148 0.20940319 0 0 0 0 74.273567
5.0237823 6.2725115 0.13250129 0 0 0 0 74.278519
4.8464651 6.4302163 0.066346958 0 0 0 0 74.283463
4.6865749 6.6223078 -0.0053815506 0 0 0 0 74.288414
5.0611277 6.2153425 0.19839613 0 0 0 0 74.293358
4.883697 6.3941216 0.12641354 0 0 0 0 74.298302
4.7130127 6.5685377 0.065451518 0 0 0 0 74.303253
4.5426893 6.7509894 -0.00044185325 0 0 0 0 74.308197
4.924098 6.3368921 0.18533252 0 0 0 0 74.313148
4.752007 6.5254111 0.12047451 0 0 0 0 74.318092
4.5784388 6.7038975 0.065522514 0 0 0 0 74.323036
4.4001641 6.8886294 0.0045826226 0 0 0 0 74.327988
4.798604 6.4719815 0.17447548 0 0 0 0 74.332932
4.6110916 6.6510687 0.11441293 0 0 0 0 74.337883
4.436646 6.8335547 0.064486906 0 0 0 0 74.342827
4.2596912 7.0272031 0.0086315796 0 0 0 0 74.347771
4.6628141 6.5994883 0.16247098 0 0 0 0 74.352722
4.4754148 6.7825279 0.10844221 0 0 0 0 74.357666
4.2961354 6.9701719 0.063519046 0 0 0 0 74.362617
4.111063 7.1620951 0.013582869 0 0 0 0 74.367561
4.5259104 6.7240434 0.15043288 0 0 0 0 74.372513
4.3400702 6.9219937 0.10154004 0 0 0 0 74.377457
4.1557894 7.1107917 0.062585421 0 0 0 0 74.382401
3.9624002 7.2959943 0.018525558 0 0 0 0 74.387352
4.3892508 6.8545985 0.13844606 0 0 0 0 74.392296
4.1972909 7.050745 0.095488191 0 0 0 0 74.397247
4.0068984 7.2377467 0.061468545 0 0 0 0 74.402191
3.8171775 7.4407701 0.023586145 0 0 0 0 74.407135
4.2599883 6.9948721 0.12660047 0 0 0 0 74.412086
4.0578322 7.1873755 0.089528583 0 0 0 0 74.41703
3.8646359 7.3804469 0.061536148 0 0 0 0 74.421982
3.6667657 7.5807548 0.028564285 0 0 0 0 74.426926
4.1216741 7.1195769 0.11592778 0 0 0 0 75.113754
3.9231286 7.3250413 0.084993064 0 0 0 0 75.118698
3.7273855 7.5273132 0.063055851 0 0 0 0 75.12365
3.5227752 7.7319927 0.036063783 0 0 0 0 75.128593
3.987643 7.2631483 0.1040706 0 0 0 0 75.133537
3.7769084 7.465066 0.078003898 0 0 0 0 75.138489
3.5803633 7.6733274 0.062110525 0 0 0 0 75.143433
3.3698742 7.8822017 0.041104533 0 0 0 0 75.148384
3.8433912 7.4011445 0.091080561 0 0 0 0 75.153328
3.6273634 7.5972166 0.071920656 0 0 0 0 75.158272
3.4295933 7.8255048 0.061185297 0 0 0 0 75.163223
3.2099044 8.0307026 0.046071306 0 0 0 0 75.168167
3.6993558 7.5441508 0.077134222 0 0 0 0 75.173119
3.4840035 7.758153 0.065130822 0 0 0 0 75.178062
3.2714703 7.9689803 0.060125045 0 0 0 0 75.183014
3.046983 8.1803303 0.051022545 0 0 0 0 75.187958
3.5532792 7.6862364 0.064162955 0 0 0 0 75.192902
3.3289378 7.9015665 0.057095233 0 0 0 0 75.197853
3.1124349 8.114501 0.059074085 0 0 0 0 75.202797
2.8865039 8.3408651 0.057085894 0 0 0 0 75.207748
3.3957305 7.8167849 0.050997999 0 0 0 0 75.212692
3.1774349 8.0588436 0.050206035 0 0 0 0 75.217636
2.9553783 8.2839651 0.058240786 0 0 0 0 75.222588
2.7168844 8.4977837 0.062041596 0 0 0 0 75.227531
3.2538071 7.9867439 0.037295647 0 0 0 0 75.232483
3.0177824 8.2124557 0.043217298 0 0 0 0 75.237427
2.7872405 8.4268665 0.057090841 0 0 0 0 75.242378
2.5500004 8.6726131 0.067170784 0 0 0 0 75.247322
3.1025817 8.1490908 0.022450862 0 0 0 0 75.252266
2.8572674 8.3691196 0.035246767 0 0 0 0 75.257217
2.617882 8.5888395 0.056090619 0 0 0 0 75.262161
2.3747153 8.8377733 0.073147826 0 0 0 0 75.267113
2.9440355 8.3037262 0.0084795523 0 0 0 0 75.272057
2.6886837 8.5241175 0.027193965 0 0 0 0 75.277
2.45139 8.7717266 0.054290373 0 0 0 0 75.281952
2.1924019 9.0022268 0.079059385 0 0 0 0 75.286896
2.7803454 8.4545841 -0.0065671504 0 0 0 0 75.291847
2.5249076 8.6989336 0.020348469 0 0 0 0 75.296791
2.2698107 8.9282064 0.053140529 0 0 0 0 75.301735
2.0346186 9.3018036 0.085315093 0 0 0 0 75.306686
2.6190517 8.6393871 -0.022308167 0 0 0 0 75.31163
2.3519106 8.8681364 0.012377729 0 0 0 0 75.316582
2.0887256 9.0966835 0.052095637 0 0 0 0 75.321526
1.8487898 9.5024433 0.091501839 0 0 0 0 75.326477
2.4475436 8.7945795 -0.037384644 0 0 0 0 75.331421
2.174679 9.0315142 0.0043220376 0 0 0 0 75.336365
1.9199774 9.3467293 0.051841907 0 0 0 0 75.341316
2.2735739 8.9628906 -0.052371629 0 0 0 0 75.351212
1.9902433 9.2142172 -0.0046320478 0 0 0 0 75.356155
1.7419891 9.615181 0.050665531 0 0 0 0 75.361099
2.0932038 9.1454992 -0.069292568 0 0 0 0 75.370995
1.8028986 9.3990479 -0.013592891 0 0 0 0 75.375946
1.5509088 9.8811827 0.048358232 0 0 0 0 75.38089
1.9088444 9.3282776 -0.086245887 0 0 0 0 75.390785
1.6067728 9.5892496 -0.022582939 0 0 0 0 75.395729
0.96015042 9.710495 0.11500427 0 0 0 0 75.405624
1.7165076 9.5113983 -0.10426404 0 0 0 0 75.410576
1.4212013 9.8901424 -0.033550024 0 0 0 0 75.41552
0.72982538 9.6787996 0.1198509 0 0 0 0 75.425415
1.5178368 9.7107992 -0.12219868 0 0 0 0 75.430359
1.2135289 10.139896 -0.04413522 0 0 0 0 75.43531
0.82823348 9.6434021 0.044430301 0 0 0 0 75.440254
0.50409079 9.7840328 0.12589027 0 0 0 0 75.445198
1.3113203 9.9135494 -0.14217177 0 0 0 0 75.45015
0.93246579 9.6979942 -0.048181962 0 0 0 0 75.455093
0.60745203 9.7214746 0.043281745 0 0 0 0 75.460045
0.28254417 9.9671659 0.13262212 0 0 0 0 75.464989
1.0640925 9.8076391 -0.15509684 0 0 0 0 75.46994
0.70389396 9.6823559 -0.05518844 0 0 0 0 75.474884
0.38594264 9.9036875 0.041005488 0 0 0 0 75.479828
0.051375736 10.208741 0.1407658 0 0 0 0 75.484779
0.82374227 9.6744261 -0.16719699 0 0 0 0 75.489723
0.48271847 9.846612 -0.065614074 0 0 0 0 75.494675
0.15883981 10.169204 0.039385512 0 0 0 0 75.499619
-0.19332737 10.436885 0.14668083 0 0 0 0 75.504562
0.6022169 9.7556753 -0.18332744 0 0 0 0 75.509514
0.25865653 10.038017 -0.075835183 0 0 0 0 75.514458
-0.082981393 10.368279 0.037078869 0 0 0 0 75.519409
-0.45036268 10.779618 0.15546015 0 0 0 0 75.524353
0.37945354 9.9521294 -0.20449559 0 0 0 0 75.529297
0.024797127 10.282894 -0.087687701 0 0 0 0 75.534248
-0.33191419 10.613683 0.036103379 0 0 0 0 75.539192
-0.73738962 11.2697 0.16623186 0 0 0 0 75.544144
0.14892444 10.202964 -0.22626996 0 0 0 0 75.549088
-0.22375321 10.535387 -0.09960065 0 0 0 0 75.554039
-0.61108035 11.170622 0.033507206 0 0 0 0 75.558983
-1.0246549 11.533622 0.1750886 0 0 0 0 75.563927
-0.094820566 10.448353 -0.2492028 0 0 0 0 75.568878
-0.49615934 11.083177 -0.11721699 0 0 0 0 75.573822
-0.89762688 11.449636 0.030497029 0 0 0 0 75.578773
-1.317921 11.748755 0.18448092 0 0 0 0 75.583717
-0.3563906 10.816563 -0.27806905 0 0 0 0 75.339958
-0.78239179 11.368107 -0.13200217 0 0 0 0 75.34491
-1.2004501 11.749063 0.027696367 0 0 0 0 75.349854
-1.5676488 11.512424 0.18662302 0 0 0 0 75.354805
-0.63666952 11.269644 -0.30856141 0 0 0 0 75.359749
-1.0774757 11.657523 -0.14699708 0 0 0 0 75.364693
-1.4566538 11.571391 0.025095548 0 0 0 0 75.369644
-1.8011312 11.279737 0.18974856 0 0 0 0 75.374588
-0.93093902 11.576166 -0.3374061 0 0 0 0 75.379539
-1.3517884 11.647795 -0.15633729 0 0 0 0 75.384483
-1.6951813 11.336944 0.024162523 0 0 0 0 75.389435
-2.0295045 11.04985 0.19293733 0 0 0 0 75.394379
-1.219238 11.711258 -0.36064529 0 0 0 0 75.399323
-1.5964322 11.409641 -0.16235445 0 0 0 0 75.404274
-1.9254307 11.109181 0.022352232 0 0 0 0 75.409218
-2.2583969 10.881042 0.19663334 0 0 0 0 75.414169
-1.4691715 11.465351 -0.37077364 0 0 0 0 75.419113
-1.8284317 11.162963 -0.16734011 0 0 0 0 75.424057
-2.1503346 10.890208 0.021657906 0 0 0 0 75.429008
-2.5069177 10.820121 0.20207033 0 0 0 0 75.433952
-1.7084788 11.235022 -0.37968424 0 0 0 0 75.438904
-2.0566268 10.936154 -0.1721295 0 0 0 0 75.443848
-2.4083495 10.864777 0.019312935 0 0 0 0 75.448799
-2.7211323 10.618713 0.20460959 0 0 0 0 75.453743
-1.9338368 10.979102 -0.38769621 0 0 0 0 75.458687
-2.3192825 10.917993 -0.18245332 0 0 0 0 75.463638
-2.6275682 10.662609 0.017802339 0 0 0 0 75.468582
-2.9246097 10.410868 0.20718236 0 0 0 0 75.473534
-2.1955855 10.932935 -0.40424958 0 0 0 0 75.478477
-2.5377638 10.708817 -0.18701778 0 0 0 0 75.483421
-2.8340101 10.454923 0.016350307 0 0 0 0 75.488373
-3.0806482 10.065988 0.20799655 0 0 0 0 75.493317
-2.4282789 10.76644 -0.41557524 0 0 0 0 75.498268
-2.7494955 10.493379 -0.19258128 0 0 0 0 75.503212
-3.0221944 10.204462 0.014688469 0 0 0 0 75.508156
-3.256387 9.8270063 0.20953484 0 0 0 0 75.513107
-2.6458502 10.554279 -0.42516151 0 0 0 0 75.518051
-2.9584608 10.29685 -0.19796471 0 0 0 0 75.523003
-3.1748652 9.8684759 0.013601751 0 0 0 0 75.527946
-3.4447179 9.647584 0.2124667 0 0 0 0 75.532898
-2.8544049 10.342751 -0.43366912 0 0 0 0 75.537842
-3.0976603 9.8992472 -0.19745891 0 0 0 0 75.542786
-3.3609431 9.6699848 0.012390516 0 0 0 0 75.547737
-3.6282148 9.4639769 0.21440126 0 0 0 0 75.552681
-2.9969006 9.9382687 -0.43225053 0 0 0 0 75.557632
-3.2875791 9.7039518 -0.20267677 0 0 0 0 75.562576
-3.5509923 9.4966908 0.010355688 0 0 0 0 75.56752
-3.806478 9.2861652 0.21642657 0 0 0 0 75.572472
-3.1902106 9.7331247 -0.43958142 0 0 0 0 75.577415
-3.4769819 9.5216446 -0.20678324 0 0 0 0 75.582367
-3.7333095 9.3170738 0.0093303379 0 0 0 0 75.587311
-3.9835851 9.1123171 0.21849246 0 0 0 0 75.592262
-3.3836176 9.5500183 -0.44772962 0 0 0 0 75.597206
-3.6633446 9.34023 -0.21185927 0 0 0 0 75.60215
-3.9105065 9.1402645 0.0073694536 0 0 0 0 75.607101
-4.15558 8.941268 0.22062284 0 0 0 0 75.612045
-3.5731173 9.3647556 -0.4558658 0 0 0 0 75.616997
-3.8408945 9.1544456 -0.21590005 0 0 0 0 75.621941
-4.0838041 8.9612904 0.0064207041 0 0 0 0 75.626884
-4.3262959 8.7771788 0.22282043 0 0 0 0 75.631836
-3.7527966 9.1750946 -0.46395853 0 0 0 0 75.63678
-4.0181971 8.9746742 -0.22089069 0 0 0 0 75.641731
-4.2548561 8.7882442 0.0045385417 0 0 0 0 75.646675
-4.4931774 8.608942 0.22401282 0 0 0 0 75.651619
-3.9329495 8.9984703 -0.47194764 0 0 0 0 75.65657
-4.1894708 8.79566 -0.22582634 0 0 0 0 75.661514
-4.421042 8.6120014 0.0026680387 0 0 0 0 75.666466
-4.6550369 8.4414988 0.2262522 0 0 0 0 75.67141
-4.1129856 8.8248501 -0.47991306 0 0 0 0 75.676361
-4.361299 8.6276855 -0.23067574 0 0 0 0 75.681305
-4.5933256 8.4580345 0.00093189644 0 0 0 0 75.686249
-4.8224378 8.285306 0.22753714 0 0 0 0 75.6912
-4.2814584 8.6407433 -0.48687157 0 0 0 0 75.696144
-4.533093 8.4607153 -0.23551901 0 0 0 0 75.701096
-4.7550769 8.2926302 -0.00081403024 0 0 0 0 75.706039
-4.9781094 8.1226234 0.22986461 0 0 0 0 75.710983
-4.4570923 8.4769716 -0.49572137 0 0 0 0 75.715935
-4.6997747 8.296545 -0.2402975 0 0 0 0 75.720879
-4.9177918 8.128273 -0.0025618777 0 0 0 0 75.72583
-5.1423192 7.9713154 0.23121324 0 0 0 0 75.730774
-4.6259203 8.3089046 -0.50255209 0 0 0 0 75.735718
-4.8635874 8.1292591 -0.24508059 0 0 0 0 75.740669
-5.0876846 7.9842339 -0.0042009172 0 0 0 0 75.745613
-5.299665 7.8167286 0.23259017 0 0 0 0 75.750565
-4.791913 8.136734 -0.51039618 0 0 0 0 75.755508
-5.0336614 7.9802523 -0.24976435 0 0 0 0 75.76046
-5.2453341 7.821682 -0.0058952253 0 0 0 0 75.765404
-5.454977 7.663065 0.23398985 0 0 0 0 75.770348
-4.9612012 7.9817276 -0.51912522 0 0 0 0 75.775299
-5.191328 7.8167291 -0.25446805 0 0 0 0 75.780243
-5.3979859 7.6589384 -0.0085510183 0 0 0 0 75.785194
-5.6140442 7.5155659 0.23540747 0 0 0 0 75.790138
-5.121923 7.8163571 -0.52687168 0 0 0 0 75.795082
-5.3471675 7.6491323 -0.25919333 0 0 0 0 75.800034
-5.5542789 7.5053492 -0.010162456 0 0 0 0 75.804977
-5.7634969 7.3586688 0.2368249 0 0 0 0 75.809929
-5.2847538 7.6488771 -0.53505963 0 0 0 0 75.575836
-5.5151854 7.5008297 -0.26524618 0 0 0 0 75.58078
-5.7126184 7.3485851 -0.013189535 0 0 0 0 75.585732
-5.913754 7.2035089 0.23789555 0 0 0 0 75.590675
-5.4489961 7.4946356 -0.54273134 0 0 0 0 75.595627
-5.669795 7.3381634 -0.26990888 0 0 0 0 75.600571
-5.866807 7.196888 -0.014757166 0 0 0 0 75.605522
-6.0735989 7.0610275 0.23935643 0 0 0 0 75.610466
-5.6046209 7.331039 -0.55041152 0 0 0 0 75.61541
-5.822289 7.1784191 -0.2745313 0 0 0 0 75.620361
-6.0230322 7.0442877 -0.017352287 0 0 0 0 75.625305
-6.2256527 6.9132376 0.23983622 0 0 0 0 75.630257
-5.7650433 7.1726499 -0.55809093 0 0 0 0 75.635201
-5.9814057 7.0279684 -0.28013387 0 0 0 0 75.640144
-6.1838574 6.9018817 -0.01890252 0 0 0 0 75.645096
-6.3759274 6.7603669 0.24128576 0 0 0 0 75.65004
-5.9224329 7.0151424 -0.56573951 0 0 0 0 75.654991
-6.1453595 6.8817258 -0.2857444 0 0 0 0 75.659935
-6.3331828 6.7470083 -0.021462943 0 0 0 0 75.664879
-6.5347075 6.6198611 0.24276532 0 0 0 0 75.66983
-6.0885162 6.8650217 -0.57540214 0 0 0 0 75.674774
-6.2900429 6.7176738 -0.29034412 0 0 0 0 75.679726
-6.4883437 6.5963836 -0.024039475 0 0 0 0 75.684669
-6.6799898 6.4668045 0.24325107 0 0 0 0 75.689621
-6.241045 6.7043242 -0.58304131 0 0 0 0 75.694565
-6.4540901 6.5694456 -0.29597726 0 0 0 0 75.699509
-6.6415133 6.445682 -0.026602063 0 0 0 0 75.70446
-6.8244019 6.3107157 0.24371614 0 0 0 0 75.709404
-6.4041514 6.5540843 -0.59168452 0 0 0 0 75.714355
-6.6025772 6.4105654 -0.30057034 0 0 0 0 75.719299
-6.7909789 6.2878284 -0.029196201 0 0 0 0 75.724243
-6.9841986 6.170269 0.24518044 0 0 0 0 75.729195
-6.558682 6.3934894 -0.6003449 0 0 0 0 75.734138
-6.7559333 6.2549028 -0.30618024 0 0 0 0 75.73909
-6.9480329 6.1403017 -0.031769797 0 0 0 0 75.744034
-7.1334944 6.0173945 0.24562638 0 0 0 0 75.748985
-6.7151027 6.2359715 -0.60799766 0 0 0 0 75.753929
-6.9190407 6.1056523 -0.31182134 0 0 0 0 75.758873
-7.0993032 5.9875379 -0.034340899 0 0 0 0 75.763824
-7.2837133 5.8665652 0.24607943 0 0 0 0 75.768768
-6.8735924 6.0765615 -0.61768687 0 0 0 0 75.77372
-7.0714917 5.9479623 -0.31744558 0 0 0 0 75.778664
-7.2556167 5.8339863 -0.036964223 0 0 0 0 75.783607
-7.4417753 5.7200599 0.24749991 0 0 0 0 75.788559
-7.0329318 5.921186 -0.62635142 0 0 0 0 75.793503
-7.2239494 5.7902784 -0.32307231 0 0 0 0 75.798454
-7.4147682 5.6845613 -0.039579138 0 0 0 0 75.803398
-7.5951266 5.5663686 0.24789704 0 0 0 0 75.808342
-7.1856117 5.7575355 -0.63503194 0 0 0 0 75.813293
-7.386313 5.6350198 -0.32976565 0 0 0 0 75.818237
-7.5682197 5.5279016 -0.042209309 0 0 0 0 75.823189
-7.7445288 5.4115191 0.24831571 0 0 0 0 75.828133
-7.3607259 5.6078453 -0.64578825 0 0 0 0 75.833084
-7.5457349 5.4786353 -0.33544585 0 0 0 0 75.838028
-7.7218328 5.367259 -0.045877315 0 0 0 0 75.842972
-7.5125928 5.4401612 -0.65350109 0 0 0 0 75.852867
-7.6975822 5.3119364 -0.34115154 0 0 0 0 75.857819
-0.31144622 0.19551823 0.050568864 0 0 0 0 75.882553
-0.33240911 0.19927081 0.063428208 0 0 0 0 75.887497
-0.28843763 0.18979125 0.024727529 0 0 0 0 75.892441
-0.287007 0.17859744 0.03865144 0 0 0 0 75.897392
-0.31230482 0.1735263 0.05042249 0 0 0 0 75.922127
-0.3391386 0.18052505 0.06325902 0 0 0 0 75.927071
-0.26978552 0.15596424 0.026647782 0 0 0 0 75.932022
-0.31799546 0.15573779 0.050270181 0 0 0 0 75.9617
-0.30720624 0.1473964 0.037308749 0 0 0 0 75.976547
-0.38604259 0.15742342 0.063755088 0 0 0 0 76.006226
-0.29677436 0.13004833 0.02529148 0 0 0 0 76.011169
-0.38844937 0.14363959 0.048657145 0 0 0 0 76.040855
-0.36417669 0.12979192 0.034454238 0 0 0 0 75.798782
-0.33699641 0.10575955 0.021523075 0 0 0 0 75.833412
-0.31829101 0.078710511 0.049490664 0 0 0 0 75.863098
-0.33145911 0.077145413 0.061371341 0 0 0 0 75.868042
-0.31901491 0.079969749 0.023505228 0 0 0 0 75.872986
-0.31007922 0.058345102 0.049435075 0 0 0 0 75.902672
-0.30590716 0.057382528 0.025472799 0 0 0 0 75.912567
-0.29108304 0.03443978 0.05944832 0 0 0 0 75.947197
-0.29865372 0.019730667 0.05930515 0 0 0 0 75.986771
-0.28238773 0.019340063 0.027445158 0 0 0 0 75.991714
-0.29424033 -0.028238889 0.027077846 0 0 0 0 76.110443
-0.30640215 -0.029834464 0.037966065 0 0 0 0 76.115395
-0.30301261 -0.041179676 0.058934752 0 0 0 0 76.145073
-0.29790208 -0.045110874 0.026948592 0 0 0 0 76.150017
-0.31882393 -0.10972177 0.048366953 0 0 0 0 77.135727
-0.3178235 -0.10785533 0.058398705 0 0 0 0 77.140671
-11.64501 -6.6337876 -0.0074304724 0 0 0 0 77.397919
-11.236094 -7.1561384 -0.93849468 0 0 0 0 77.402863
-11.353312 -6.8101196 -0.01744489 0 0 0 0 77.417702
-11.348389 -7.1623354 -0.031559743 0 0 0 0 77.437492
-11.134721 -7.3843718 -0.043671601 0 0 0 0 77.457283
-10.961094 -7.6297216 -0.056345612 0 0 0 0 77.477066
-10.396938 -7.9521933 -0.58624476 0 0 0 0 77.486961
-10.785606 -7.87816 -0.069030918 0 0 0 0 77.496857
-10.172284 -8.1708832 -0.58122718 0 0 0 0 77.506752
-10.456864 -8.0070677 -0.080295183 0 0 0 0 77.516647
-9.9784498 -8.4082556 -0.57864946 0 0 0 0 77.526543
-9.0958614 -8.2438374 -0.78938675 0 0 0 0 77.541382
-9.2743473 -8.2013855 -0.54259205 0 0 0 0 77.546326
-8.8515215 -8.4214554 -0.77482516 0 0 0 0 77.561165
-8.9941874 -8.3384504 -0.53335297 0 0 0 0 77.566116
-9.1409159 -8.262989 -0.32298642 0 0 0 0 77.57106
-9.3380127 -8.2174358 -0.10833351 0 0 0 0 77.576012
-8.6478415 -8.6342621 -0.76239282 0 0 0 0 77.332047
-8.8047638 -8.5585918 -0.53010964 0 0 0 0 77.33699
-8.9314337 -8.4599276 -0.32635811 0 0 0 0 77.341942
-9.0782557 -8.3634491 -0.11780415 0 0 0 0 77.346886
-8.400877 -8.7979374 -0.74768782 0 0 0 0 77.35183
-8.5754633 -8.7394342 -0.52571368 0 0 0 0 77.356781
-8.716218 -8.6440973 -0.33011708 0 0 0 0 77.361725
-8.8848372 -8.5676203 -0.13093372 0 0 0 0 77.366676
-8.1978235 -9.005765 -0.73576123 0 0 0 0 77.37162
-8.3375874 -8.9066505 -0.52012092 0 0 0 0 77.376564
-8.4728918 -8.8024635 -0.33239862 0 0 0 0 77.381516
-8.6703863 -8.7476873 -0.14266393 0 0 0 0 77.386459
-7.9834385 -9.2060699 -0.72466773 0 0 0 0 77.391411
-8.1393385 -9.1112041 -0.51620883 0 0 0 0 77.396355
-8.2723083 -9.0010281 -0.33741379 0 0 0 0 77.401306
-8.427763 -8.9009352 -0.15490708 0 0 0 0 77.40625
-7.8131738 -9.4555101 -0.71739978 0 0 0 0 77.411194
-7.9530435 -9.3382454 -0.51560169 0 0 0 0 77.416145
-8.0611534 -9.1860504 -0.34121537 0 0 0 0 77.421089
-8.2309923 -9.0962763 -0.16692837 0 0 0 0 77.426041
-7.5851431 -9.6404123 -0.70504904 0 0 0 0 77.430984
-7.7518902 -9.5449314 -0.51268286 0 0 0 0 77.435928
-7.9198484 -9.4601393 -0.34942427 0 0 0 0 77.44088
-8.0353489 -9.294569 -0.17998573 0 0 0 0 77.445824
-7.3729086 -9.8436527 -0.6940003 0 0 0 0 77.450775
-7.5298238 -9.7305031 -0.50939155 0 0 0 0 77.455719
-7.6888285 -9.6250114 -0.35287133 0 0 0 0 77.460663
-7.8579698 -9.5221043 -0.19446398 0 0 0 0 77.465614
-7.4223242 -10.068251 -0.51446432 0 0 0 0 77.47551
-7.4799843 -9.8169546 -0.35775441 0 0 0 0 77.480453
-7.6360817 -9.6915121 -0.2070327 0 0 0 0 77.485405
-7.3948689 -10.187712 -0.37032005 0 0 0 0 77.500244
-7.4884815 -9.9598112 -0.22313686 0 0 0 0 77.505188
-7.1344943 -11.088568 -0.70602 0 0 0 0 77.510139
-7.2237854 -11.113338 -0.28313002 0 0 0 0 77.564552
-4.7025404 -13.632963 -0.53039718 0 0 0 0 77.73275
-4.6458035 -13.649652 -0.49609366 0 0 0 0 77.757484
-4.5954838 -13.633835 -0.4835597 0 0 0 0 77.782219
-3.094763 -13.954909 -0.51950943 0 0 0 0 77.557541
-2.8124986 -14.250331 -0.51165175 0 0 0 0 77.577332
-3.0646105 -13.986414 -0.49456987 0 0 0 0 77.582283
-2.514647 -14.50842 -0.50132406 0 0 0 0 77.597122
-2.7959394 -14.344204 -0.4993872 0 0 0 0 77.602066
-3.0221558 -14.020036 -0.51454288 0 0 0 0 77.607018
-2.214474 -14.805646 -0.49232236 0 0 0 0 77.616905
-2.4888241 -14.551561 -0.49852782 0 0 0 0 77.621857
-2.7512035 -14.349813 -0.52909255 0 0 0 0 77.626801
-2.9957643 -14.059742 -0.55971515 0 0 0 0 77.631752
-1.9021747 -15.123414 -0.48439464 0 0 0 0 77.636696
-2.1884661 -14.84669 -0.50150681 0 0 0 0 77.64164
-2.4435024 -14.569105 -0.54033411 0 0 0 0 77.646591
-2.7211151 -14.375563 -0.58610916 0 0 0 0 77.651535
-1.8788397 -15.182257 -0.50576192 0 0 0 0 77.66143
-2.1388767 -14.860312 -0.55524093 0 0 0 0 77.666382
-2.4128914 -14.584774 -0.60825694 0 0 0 0 77.671326
-1.322584 -16.738724 -0.49864182 0 0 0 0 77.67627
-1.8319851 -15.191663 -0.57048386 0 0 0 0 77.686165
-2.1066506 -14.863935 -0.63504314 0 0 0 0 77.691116
-0.77404207 -13.993661 -0.38939545 0 0 0 0 77.69606
-1.024462 -13.399986 -0.42537114 0 0 0 0 77.701004
-1.7937278 -15.150405 -0.6618343 0 0 0 0 77.710899
-0.4564696 -14.211639 -0.37852466 0 0 0 0 77.715851
-0.75257635 -14.056167 -0.44180375 0 0 0 0 77.720795
-1.4380866 -15.116546 -0.67439467 0 0 0 0 77.73069
-0.17549981 -18.035564 -0.47404385 0 0 0 0 77.735634
-0.43343037 -14.263101 -0.44282126 0 0 0 0 77.740585
-0.71105993 -14.079143 -0.53268462 0 0 0 0 77.745529
-0.94879186 -13.26752 -0.59760785 0 0 0 0 77.750481
0.24388742 -18.327057 -0.45992792 0 0 0 0 77.755424
-0.14276148 -17.888048 -0.56150293 0 0 0 0 77.760368
-0.39169183 -14.212945 -0.54204965 0 0 0 0 77.76532
-0.63032883 -13.097037 -0.60127109 0 0 0 0 77.770264
0.67058456 -18.494787 -0.44264403 0 0 0 0 77.775215
0.27056545 -18.044046 -0.55923516 0 0 0 0 77.780159
-0.086271092 -17.663069 -0.69306177 0 0 0 0 77.785103
-0.36418706 -14.313994 -0.67675316 0 0 0 0 77.790054
1.1007152 -18.512581 -0.42099229 0 0 0 0 77.794998
0.70496231 -18.455141 -0.56504804 0 0 0 0 77.79995
0.33154234 -18.044266 -0.71475828 0 0 0 0 77.804893
-0.04735031 -17.621141 -0.86440837 0 0 0 0 77.809845
1.5186929 -18.347719 -0.39581934 0 0 0 0 77.814789
1.1464813 -18.723463 -0.56652498 0 0 0 0 77.819733
0.76350737 -18.44511 -0.73650247 0 0 0 0 77.824684
0.37219983 -18.035278 -0.90538371 0 0 0 0 77.829628
1.9542204 -18.449823 -0.37786335 0 0 0 0 77.834579
1.5895947 -18.814753 -0.56240833 0 0 0 0 77.839523
1.2173991 -18.894928 -0.76248652 0 0 0 0 77.844467
0.80567092 -18.428015 -0.94604325 0 0 0 0 77.849419
2.3374984 -18.068329 -0.34806216 0 0 0 0 77.854362
1.9842495 -18.426645 -0.54244912 0 0 0 0 77.859314
1.6539458 -18.838728 -0.76611322 0 0 0 0 77.864258
1.2643883 -18.908894 -0.99226224 0 0 0 0 77.869209
2.7025673 -17.692047 -0.320465 0 0 0 0 77.874153
2.3661194 -18.057007 -0.52376318 0 0 0 0 77.879097
2.0485554 -18.430527 -0.75497186 0 0 0 0 77.884048
1.6999401 -18.878553 -1.0101271 0 0 0 0 77.888992
3.0547986 -17.335243 -0.29315099 0 0 0 0 77.893944
2.7352841 -17.680819 -0.50612706 0 0 0 0 77.898888
2.4313419 -18.064859 -0.74530995 0 0 0 0 77.903831
1.4194472 -12.359429 -0.65448648 0 0 0 0 77.908783
3.3962843 -16.995991 -0.26708466 0 0 0 0 77.913727
3.0911875 -17.334087 -0.48986721 0 0 0 0 77.918678
2.0473006 -12.854349 -0.51826662 0 0 0 0 77.923622
1.7439611 -12.586461 -0.68261755 0 0 0 0 77.928566
3.6341121 -16.20689 -0.23492745 0 0 0 0 77.933517
3.4402885 -17.00609 -0.47383025 0 0 0 0 77.938461
2.3619063 -12.889977 -0.5257749 0 0 0 0 77.943413
1.6747305 -10.275414 -0.55860662 0 0 0 0 77.948357
2.9656413 -13.054966 -0.3468188 0 0 0 0 77.958252
2.6945798 -13.017452 -0.53693938 0 0 0 0 77.963196
1.9390131 -10.366813 -0.57705683 0 0 0 0 77.968147
3.2722163 -13.019321 -0.34175649 0 0 0 0 77.978043
2.4730985 -10.668587 -0.43494436 0 0 0 0 77.982986
2.2397001 -10.612865 -0.60456115 0 0 0 0 77.98793
3.8674254 -12.983038 -0.13507001 0 0 0 0 77.992882
3.5747504 -12.961493 -0.33652946 0 0 0 0 77.997826
2.7452569 -10.714416 -0.44191229 0 0 0 0 78.002777
2.5265908 -10.737269 -0.62610084 0 0 0 0 78.007721
4.1815233 -12.956841 -0.12101748 0 0 0 0 78.012665
3.2654912 -10.844736 -0.2693854 0 0 0 0 78.017616
3.0392511 -10.811219 -0.45213807 0 0 0 0 78.02256
2.7874143 -10.722502 -0.63862807 0 0 0 0 78.027512
4.4958444 -12.916401 -0.10574827 0 0 0 0 77.800545
3.5365267 -10.825551 -0.26674202 0 0 0 0 77.805489
2.4239593 -7.8822689 -0.31850788 0 0 0 0 77.81044
4.0618343 -10.85714 -0.06830208 0 0 0 0 77.820335
3.2482901 -9.2131109 -0.21596231 0 0 0 0 77.825279
2.8784475 -8.6502924 -0.36027488 0 0 0 0 77.830223
2.2871249 -7.3167872 -0.43770128 0 0 0 0 77.835175
4.3109436 -10.761001 -0.056212064 0 0 0 0 77.840118
3.5099113 -9.2705307 -0.21612598 0 0 0 0 77.84507
3.3240891 -9.2738686 -0.39583576 0 0 0 0 77.850014
2.2258787 -6.5698667 -0.39558446 0 0 0 0 77.854965
4.5667973 -10.69419 -0.044320237 0 0 0 0 77.859909
3.7361269 -9.2203541 -0.2136462 0 0 0 0 77.864853
3.5789018 -9.3049135 -0.40282482 0 0 0 0 77.869804
3.3617339 -9.2487154 -0.59528697 0 0 0 0 77.874748
4.1578341 -9.1493578 -0.02021027 0 0 0 0 77.8797
3.9731228 -9.1986771 -0.21132167 0 0 0 0 77.884644
3.8118718 -9.2619762 -0.40734804 0 0 0 0 77.889587
4.3612514 -9.0462418 -0.0094572119 0 0 0 0 77.899483
4.202209 -9.1516447 -0.20883983 0 0 0 0 77.904434
4.0436721 -9.2229996 -0.41191491 0 0 0 0 77.909378
4.557035 -8.9347868 0.00030407039 0 0 0 0 77.919273
4.4204664 -9.077137 -0.20520772 0 0 0 0 77.924217
4.7676826 -8.8500051 0.0099631604 0 0 0 0 77.939064
4.623343 -8.9649363 -0.2013749 0 0 0 0 77.944008
4.9702077 -8.7448635 0.019733464 0 0 0 0 77.958847
4.8216181 -8.8435364 -0.19749875 0 0 0 0 77.963799
5.2081556 -8.7003088 0.028283225 0 0 0 0 77.978638
5.0409803 -8.7670898 -0.19483231 0 0 0 0 77.983582
5.4181604 -8.6075182 0.038015179 0 0 0 0 77.998421
5.2448249 -8.6559572 -0.19099288 0 0 0 0 78.003372
5.606586 -8.48176 0.046850096 0 0 0 0 78.018211
5.7472291 -8.2808666 0.055929556 0 0 0 0 78.038002
5.9063001 -8.1168127 0.064847909 0 0 0 0 78.057785
6.0633788 -7.9526777 0.073751584 0 0 0 0 78.077576
6.2233405 -7.791667 0.081655703 0 0 0 0 78.097366
4.2580614 -5.0838065 0.079218239 0 0 0 0 78.117149
3.1456304 -3.9709723 -0.18685286 0 0 0 0 78.127045
2.761744 -3.5880277 -0.28488591 0 0 0 0 78.131996
4.7153091 -5.3841252 0.08667478 0 0 0 0 78.13694
3.7493925 -4.4027658 -0.07024961 0 0 0 0 78.141884
3.2434628 -3.9072182 -0.18837589 0 0 0 0 78.146835
2.7182937 -3.3641028 -0.27224648 0 0 0 0 78.151779
3.6694453 -4.2198706 -0.21431364 0 0 0 0 78.166626
3.5677311 -4.2180381 -0.36722258 0 0 0 0 78.17157
3.5443192 -3.9939809 -0.35639882 0 0 0 0 78.19136
3.5671813 -3.8349421 -0.35173973 0 0 0 0 78.211143
3.5812237 -3.6715245 -0.34611952 0 0 0 0 78.230934
4.1709857 -3.9867008 -0.2255882 0 0 0 0 78.245773
3.6016212 -3.5233893 -0.34157795 0 0 0 0 78.250725
4.1928663 -3.8276231 -0.22193319 0 0 0 0 78.265564
3.6103323 -3.3677468 -0.33607322 0 0 0 0 78.270508
4.1809111 -3.6437945 -0.21643992 0 0 0 0 78.227936
3.6380739 -3.2377021 -0.33270311 0 0 0 0 78.232887
4.1753273 -3.4715254 -0.21091394 0 0 0 0 78.247726
3.635659 -3.0845869 -0.32632107 0 0 0 0 78.25267
4.1907005 -3.3241742 -0.20742123 0 0 0 0 78.267517
3.630044 -2.9363265 -0.32101056 0 0 0 0 78.272461
4.8866992 -3.631237 -0.061847899 0 0 0 0 78.282356
4.1788397 -3.1586273 -0.20301014 0 0 0 0 78.2873
3.6407299 -2.8047831 -0.31670183 0 0 0 0 78.292252
5.9713936 -4.1489925 0.13935718 0 0 0 0 78.297195
4.2074356 -3.0298612 -0.20056251 0 0 0 0 78.307091
3.6521671 -2.6792688 -0.31343955 0 0 0 0 78.312035
5.2510543 -3.4769669 0.13091162 0 0 0 0 78.316986
4.2037487 -2.8836887 -0.1962494 0 0 0 0 78.326881
3.6498666 -2.5471675 -0.30824125 0 0 0 0 78.331825
4.823545 -3.0439661 0.1269678 0 0 0 0 78.336769
5.031095 -3.2325075 -0.0568556 0 0 0 0 78.341721
4.2028556 -2.7426329 -0.19295603 0 0 0 0 78.346664
3.6619635 -2.4296896 -0.30504334 0 0 0 0 78.351616
4.6113558 -2.7685251 0.12555736 0 0 0 0 78.35656
4.7900658 -2.927875 -0.048263621 0 0 0 0 78.361511
4.2077003 -2.6078336 -0.1896659 0 0 0 0 78.366455
3.6875892 -2.3237958 -0.30382621 0 0 0 0 78.371399
4.3651757 -2.4925785 0.12284338 0 0 0 0 78.37635
4.345191 -2.5232611 -0.036619503 0 0 0 0 78.381294
4.3070278 -2.5341582 -0.19306882 0 0 0 0 78.386246
3.7004755 -2.2113583 -0.30066451 0 0 0 0 78.39119
4.2932682 -2.3283694 0.12270413 0 0 0 0 78.396133
4.0994515 -2.258426 -0.029428929 0 0 0 0 78.401085
4.2930222 -2.3955414 -0.18891306 0 0 0 0 78.406029
3.7239802 -2.1083755 -0.2994909 0 0 0 0 78.41098
3.9303453 -2.049969 -0.024051074 0 0 0 0 78.420868
4.004838 -2.1149383 -0.16996449 0 0 0 0 78.425819
3.7601883 -2.0129378 -0.30026913 0 0 0 0 78.430763
3.7978189 -1.8751293 -0.019644093 0 0 0 0 78.440659
3.7011013 -1.846663 -0.15026861 0 0 0 0 78.44561
3.8051722 -1.922891 -0.30101523 0 0 0 0 78.450554
3.7493603 -1.7469828 -0.017894452 0 0 0 0 78.460449
3.5044324 -1.6490766 -0.13623856 0 0 0 0 78.465393
3.6941133 -1.7590793 -0.28751174 0 0 0 0 78.470345
4.908946 -2.1520064 -0.039975934 0 0 0 0 78.480232
3.3789146 -1.4965872 -0.12796931 0 0 0 0 78.485184
3.3232896 -1.4880183 -0.24939977 0 0 0 0 78.490128
4.8830776 -2.0108583 -0.037899211 0 0 0 0 78.500023
3.3248341 -1.3822238 -0.12339476 0 0 0 0 78.504967
3.20924 -1.3470826 -0.23613018 0 0 0 0 78.509918
4.9004006 -1.8896039 -0.037608467 0 0 0 0 78.519814
3.2754459 -1.2750708 -0.11884221 0 0 0 0 78.524757
3.0869408 -1.2117854 -0.22298655 0 0 0 0 78.529709
4.8998685 -1.7645719 -0.036445022 0 0 0 0 78.539597
4.3064904 -1.5590912 -0.1739925 0 0 0 0 78.544548
3.0234926 -1.1050467 -0.21456556 0 0 0 0 78.549492
4.889483 -1.6361039 -0.035339285 0 0 0 0 78.559387
4.3034348 -1.4459563 -0.17196018 0 0 0 0 78.564331
3.002218 -1.0191302 -0.21094881 0 0 0 0 78.569283
5.7212229 -1.7605413 0.15115875 0 0 0 0 78.574226
4.903595 -1.5197227 -0.034118764 0 0 0 0 78.579178
4.2864418 -1.3312074 -0.17003942 0 0 0 0 78.584122
3.0313268 -0.94939482 -0.21201912 0 0 0 0 78.589073
4.8890905 -1.3940754 -0.033074282 0 0 0 0 78.598961
4.2979941 -1.2277135 -0.16895962 0 0 0 0 78.603912
3.7916639 -1.0863317 -0.27929688 0 0 0 0 78.608856
4.885283 -1.2758952 -0.032999087 0 0 0 0 78.618752
4.2996926 -1.1207831 -0.1679377 0 0 0 0 78.623695
3.8186464 -0.99650967 -0.27920076 0 0 0 0 78.628647
5.7249718 -1.3566643 0.15097675 0 0 0 0 78.633591
4.8824697 -1.157768 -0.031914335 0 0 0 0 78.638542
4.2883554 -1.0142889 -0.16603783 0 0 0 0 78.643486
5.7674732 -1.2325333 0.15153304 0 0 0 0 78.653381
4.8716335 -1.0402784 -0.031907838 0 0 0 0 78.658325
4.3038368 -0.91296071 -0.16593929 0 0 0 0 78.663277
5.75635 -1.0990245 0.15068579 0 0 0 0 78.673172
4.8747005 -0.92540294 -0.031797208 0 0 0 0 78.678116
5.6369481 -0.95225132 0.14924802 0 0 0 0 79.271881
4.8738542 -0.81543195 -0.030562526 0 0 0 0 79.276825
5.4774761 -0.80308324 0.14618617 0 0 0 0 79.291664
4.8828549 -0.70382303 -0.030411839 0 0 0 0 79.296616
5.2998052 -0.65810001 0.14291711 0 0 0 0 79.311455
4.9137125 -0.59618455 -0.03109432 0 0 0 0 79.316399
5.13065 -0.52449125 0.1386219 0 0 0 0 79.331238
4.9206882 -0.48547718 -0.031968847 0 0 0 0 79.336189
5.0090384 -0.40202093 0.13566478 0 0 0 0 79.351028
4.8957725 -0.37136036 -0.031106636 0 0 0 0 79.35598
4.914083 -0.28775495 0.13387941 0 0 0 0 79.370819
4.9087505 -0.26092115 -0.031926256 0 0 0 0 79.375763
4.8090167 -0.17602561 0.13097687 0 0 0 0 79.390602
4.8646936 -0.14993979 -0.032269184 0 0 0 0 79.395554
4.7297502 -0.069451533 0.12826638 0 0 0 0 79.410393
4.7905645 -0.039630529 -0.030896857 0 0 0 0 79.415344
4.6242905 0.033294801 0.12527749 0 0 0 0 79.430183
4.6341138 0.065353073 -0.029338038 0 0 0 0 79.435127
4.5326862 0.13242142 0.12238389 0 0 0 0 79.449966
4.4793425 0.16325116 -0.026829321 0 0 0 0 79.454918
4.4498534 0.22615352 0.11952208 0 0 0 0 79.469757
4.3654523 0.25732934 -0.024976378 0 0 0 0 79.474701
4.3628845 0.31706205 0.11759589 0 0 0 0 79.489548
4.2744255 0.34740245 -0.024948085 0 0 0 0 79.494492
4.2919116 0.40726572 0.11481193 0 0 0 0 79.509331
4.1782193 0.43369824 -0.024002826 0 0 0 0 79.514282
4.0919614 0.5185501 -0.022978425 0 0 0 0 79.534065
5.5047932 0.77803212 0.12562115 0 0 0 0 79.548912
4.0176139 0.60087794 -0.022866538 0 0 0 0 79.553856
5.4741478 0.89644444 0.12248024 0 0 0 0 79.568695
3.9391389 0.68039149 -0.022819096 0 0 0 0 79.573647
3.8726194 0.71352947 -0.1411318 0 0 0 0 79.57859
3.8151824 0.74730927 -0.26435441 0 0 0 0 79.583542
5.4495802 1.016577 0.12041268 0 0 0 0 79.588486
3.8686142 0.75854969 -0.022710124 0 0 0 0 79.59343
3.7929878 0.79006851 -0.13812257 0 0 0 0 79.598381
3.8145485 0.84336734 -0.26542857 0 0 0 0 79.603325
5.4411807 1.1399873 0.11852694 0 0 0 0 79.608276
3.8009546 0.83357894 -0.022603342 0 0 0 0 79.61322
3.7223048 0.86520708 -0.13504294 0 0 0 0 79.618164
3.7773805 0.92901951 -0.26293874 0 0 0 0 79.623116
5.4126458 1.2603199 0.11442555 0 0 0 0 79.628059
3.7352509 0.9075219 -0.022488335 0 0 0 0 79.633011
3.6464505 0.93657732 -0.1320464 0 0 0 0 79.637955
3.7594743 1.0198214 -0.2612212 0 0 0 0 79.642906
5.3789768 1.3778725 0.11125131 0 0 0 0 79.64785
3.6613789 0.97783154 -0.022483202 0 0 0 0 79.652794
3.5948167 1.0118842 -0.13078754 0 0 0 0 79.657745
3.5749547 1.0589262 -0.24653631 0 0 0 0 79.662689
5.4000635 1.5109774 0.10873307 0 0 0 0 79.667641
3.6137161 1.0519778 -0.023197902 0 0 0 0 79.672585
3.5441847 1.0871478 -0.12951957 0 0 0 0 79.677528
3.4999437 1.1272335 -0.24055995 0 0 0 0 79.68248
5.357378 1.627947 0.10447066 0 0 0 0 79.687424
3.5239472 1.1700718 -0.12989657 0 0 0 0 79.697319
3.5032325 1.2211196 -0.24161555 0 0 0 0 79.702263
5.3502445 1.7563282 0.10064688 0 0 0 0 79.707214
4.1780691 1.5042958 -0.16664268 0 0 0 0 79.71711
3.765635 1.4176924 -0.26629788 0 0 0 0 79.722054
5.3228669 1.8796172 0.096587539 0 0 0 0 79.727005
4.6839447 1.732645 -0.055749305 0 0 0 0 79.731949
4.1679764 1.6117949 -0.16869229 0 0 0 0 79.736893
3.3068943 1.3297775 -0.22735476 0 0 0 0 79.741844
5.3079576 2.0087488 0.092025056 0 0 0 0 79.498589
4.6736002 1.8514048 -0.059328664 0 0 0 0 79.503532
4.1623712 1.7242073 -0.1712566 0 0 0 0 79.508484
3.2144701 1.3817284 -0.22023194 0 0 0 0 79.513428
5.2541394 2.1232097 0.087635018 0 0 0 0 79.518372
4.6426024 1.9618316 -0.061546486 0 0 0 0 79.523323
3.234267 1.4178668 -0.12067301 0 0 0 0 79.528267
3.1563761 1.4472988 -0.21712358 0 0 0 0 79.533218
5.2809539 2.2720971 0.083314262 0 0 0 0 79.538162
4.6178727 2.0779841 -0.063652456 0 0 0 0 79.543106
3.1831853 1.4831418 -0.119502 0 0 0 0 79.548058
3.1032794 1.512647 -0.21397071 0 0 0 0 79.553001
5.234416 2.3922491 0.078045949 0 0 0 0 79.557953
4.6064205 2.1995659 -0.067583971 0 0 0 0 79.562897
3.1413751 1.5540173 -0.11919281 0 0 0 0 79.567848
3.0480525 1.5750902 -0.21086442 0 0 0 0 79.572792
5.1888371 2.5113592 0.072777465 0 0 0 0 79.577736
4.5807991 2.3177722 -0.070677839 0 0 0 0 79.582687
4.1383743 2.1854913 -0.17902112 0 0 0 0 79.587631
3.0061824 1.6449523 -0.20856504 0 0 0 0 79.592583
5.027493 2.5715973 0.067885727 0 0 0 0 79.597527
4.5603566 2.4397507 -0.073687814 0 0 0 0 79.60247
4.0898094 2.2836907 -0.17951535 0 0 0 0 79.607422
2.9571338 1.7111256 -0.20536651 0 0 0 0 79.612366
5.1348662 2.7749383 0.062823795 0 0 0 0 79.617317
4.5379658 2.5628185 -0.076705091 0 0 0 0 79.622261
4.0864863 2.407912 -0.18234648 0 0 0 0 79.627205
2.9183204 1.7818643 -0.20403025 0 0 0 0 79.632156
4.5208535 2.6916656 -0.080618888 0 0 0 0 79.642052
4.0566025 2.5203073 -0.18453401 0 0 0 0 79.646996
5.0792961 3.0466218 0.050933298 0 0 0 0 79.656891
4.4719152 2.8029189 -0.083991893 0 0 0 0 79.661835
4.0608296 2.6562109 -0.18818475 0 0 0 0 79.666786
3.701494 2.5270987 -0.28173155 0 0 0 0 79.67173
4.4839602 2.9564893 -0.088402748 0 0 0 0 79.681625
4.0291276 2.7726846 -0.1893499 0 0 0 0 79.686569
3.6507475 2.6213865 -0.28028193 0 0 0 0 79.691521
4.4568734 3.0857887 -0.092402965 0 0 0 0 79.701416
3.999572 2.8920755 -0.19146734 0 0 0 0 79.70636
3.6250417 2.7375989 -0.28139484 0 0 0 0 79.711304
4.9885602 3.4670117 0.032154024 0 0 0 0 79.716255
4.4155812 3.2107251 -0.096575677 0 0 0 0 79.721199
3.9971459 3.0352974 -0.19610964 0 0 0 0 79.726151
3.6191483 2.8709555 -0.28416291 0 0 0 0 79.731094
4.2715735 3.2561679 -0.097445704 0 0 0 0 79.74099
3.9783635 3.1712306 -0.19897129 0 0 0 0 79.745934
3.6082654 3.0045381 -0.28697452 0 0 0 0 79.750885
4.4122634 3.5301454 -0.10853221 0 0 0 0 79.76078
3.9524684 3.3044927 -0.20292352 0 0 0 0 79.765724
3.5945709 3.1422517 -0.28977317 0 0 0 0 79.770668
4.3411984 3.6384032 -0.11213596 0 0 0 0 79.780563
3.9226632 3.4399247 -0.20589122 0 0 0 0 79.785515
3.575887 3.2801919 -0.29261547 0 0 0 0 79.790459
4.3298078 3.8040557 -0.1176475 0 0 0 0 79.800354
3.9317083 3.6146817 -0.21212921 0 0 0 0 79.805298
3.5574882 3.4241357 -0.29639843 0 0 0 0 79.810249
4.1177821 3.7844806 -0.11575851 0 0 0 0 79.820145
3.9034183 3.7610679 -0.21597905 0 0 0 0 79.825089
3.5414441 3.5759721 -0.29908493 0 0 0 0 79.830032
4.1253467 3.9703214 -0.12290397 0 0 0 0 79.839928
3.8943059 3.9326329 -0.22141421 0 0 0 0 79.844879
3.5205104 3.730042 -0.3027955 0 0 0 0 79.849823
4.2000718 4.026876 -0.012625323 0 0 0 0 79.854767
4.2563825 4.2948146 -0.13760103 0 0 0 0 79.859718
3.8729422 4.0987477 -0.22701372 0 0 0 0 79.864662
3.4871354 3.8746567 -0.3057096 0 0 0 0 79.869614
3.8531256 4.276804 -0.23248641 0 0 0 0 79.884453
3.501843 4.0852213 -0.31355828 0 0 0 0 79.889397
3.4841638 4.2661924 -0.31898457 0 0 0 0 79.909187
3.8038943 4.6413741 -0.24443957 0 0 0 0 79.924026
3.4798527 4.4766083 -0.32600984 0 0 0 0 79.928978
3.7716184 4.8310199 -0.25091773 0 0 0 0 79.943817
3.4578712 4.6727915 -0.33133206 0 0 0 0 79.948761
4.0801549 5.2016897 -0.17651272 0 0 0 0 79.958656
3.7375784 5.0257521 -0.2573638 0 0 0 0 79.963608
3.4174101 4.8587928 -0.33592144 0 0 0 0 79.968552
3.6984363 5.2317119 -0.26551631 0 0 0 0 79.73027
3.655967 5.4398398 -0.27292234 0 0 0 0 79.750061
3.618366 5.6667776 -0.28110692 0 0 0 0 79.769844
4.613028 6.7487364 -0.13970549 0 0 0 0 79.779739
4.4586287 6.941011 -0.2573573 0 0 0 0 79.784691
4.4772615 6.8840289 -0.15265118 0 0 0 0 79.79953
4.3155932 7.0715728 -0.26441443 0 0 0 0 79.804474
4.3185577 6.9772916 -0.16320233 0 0 0 0 79.819321
4.1694765 7.2002769 -0.27151784 0 0 0 0 79.824265
4.1765828 7.1078711 -0.17625041 0 0 0 0 79.839104
4.0224104 7.3300314 -0.27862054 0 0 0 0 79.844055
4.0347033 7.2404542 -0.18927909 0 0 0 0 79.858894
3.8692207 7.4570661 -0.28580618 0 0 0 0 79.863838
3.711046 7.682261 -0.37218383 0 0 0 0 79.86879
3.9064229 7.4074903 -0.20485987 0 0 0 0 79.878685
3.713094 7.5852509 -0.29400894 0 0 0 0 79.883629
3.5532856 7.8194842 -0.37531722 0 0 0 0 79.888573
3.3834782 8.0742788 -0.46552846 0 0 0 0 79.893524
3.7631526 7.5531697 -0.21877979 0 0 0 0 79.898468
