# .PCD v0.7 - Point Cloud Data file format
VERSION 0.7
FIELDS x y z normal_x normal_y normal_z intensity curvature
SIZE 4 4 4 4 4 4 4 4
TYPE F F F F F F F F
COUNT 1 1 1 1 1 1 1 1
WIDTH 976
HEIGHT 1
VIEWPOINT 0 0 0 1 0 0 0
POINTS 976
DATA ascii
7.4622293 4.0788064 7.2716289 0 0 0 0 27.377497
7.7234302 4.7290645 7.3313279 0 0 0 0 27.382441
7.9485497 5.3913288 7.3611269 0 0 0 0 27.387388
6.8424182 3.4375551 6.947783 0 0 0 0 27.392336
7.3549237 4.2337151 7.2432175 0 0 0 0 27.397284
7.5991354 4.8919311 7.3119669 0 0 0 0 27.402231
7.8142772 5.5641518 7.3568044 0 0 0 0 27.407179
6.7601285 3.5844972 6.9212999 0 0 0 0 27.412123
7.2576427 4.3956103 7.229795 0 0 0 0 27.41707
7.4588346 5.0408015 7.2796102 0 0 0 0 27.422018
7.647984 5.7129807 7.3265014 0 0 0 0 27.426966
6.8831396 3.8463175 7.1095934 0 0 0 0 27.431913
7.1443472 4.5475106 7.2023849 0 0 0 0 27.436861
7.3285546 5.19766 7.2612429 0 0 0 0 27.441805
7.4746966 5.8528085 7.292191 0 0 0 0 27.446753
6.8721871 4.0424523 7.1678538 0 0 0 0 28.098288
7.037396 4.7036281 7.1866984 0 0 0 0 28.103235
7.1906939 5.3457294 7.239531 0 0 0 0 28.108183
7.2949257 5.9848356 7.2544494 0 0 0 0 28.113131
6.8009548 4.205379 7.1643243 0 0 0 0 28.118074
6.9271531 4.8565297 7.1692214 0 0 0 0 28.123022
7.0374408 5.4806104 7.2031007 0 0 0 0 28.12797
7.1316972 6.1266766 7.2340469 0 0 0 0 28.132917
6.7047019 4.354311 7.1398134 0 0 0 0 28.137865
6.8109145 5.0044279 7.1497436 0 0 0 0 28.142813
6.8922057 5.6204815 7.1786609 0 0 0 0 28.147757
6.943459 6.2425275 7.1906424 0 0 0 0 28.152704
6.6084561 4.5052371 7.1193037 0 0 0 0 28.157652
6.69168 5.1503239 7.1302643 0 0 0 0 28.1626
6.7549853 5.7663445 7.1652117 0 0 0 0 28.167547
6.7592325 6.3583755 7.152226 0 0 0 0 28.172495
6.5192256 4.6601553 7.1087837 0 0 0 0 28.177439
6.5624442 5.2882204 7.1037869 0 0 0 0 28.182386
6.5857444 5.8822246 7.1197672 0 0 0 0 28.187334
6.584023 6.4822125 7.1278028 0 0 0 0 28.192282
6.4199934 4.809072 7.0922699 0 0 0 0 28.197229
6.4362178 5.430109 7.0843072 0 0 0 0 28.202177
6.4255219 6.0020962 7.0863094 0 0 0 0 28.207121
6.3968139 6.588058 7.0903668 0 0 0 0 28.212069
6.3117561 4.952991 7.0687604 0 0 0 0 28.217016
6.3090005 5.567996 7.0658188 0 0 0 0 28.221964
6.2633071 6.1219616 7.0558515 0 0 0 0 28.226912
6.2086143 6.6899014 7.0549221 0 0 0 0 28.231855
6.2055302 5.0979028 7.0512457 0 0 0 0 28.236803
6.1657724 5.6928906 7.0323343 0 0 0 0 28.241751
6.1020994 6.2368298 7.0253792 0 0 0 0 28.246698
6.020422 6.7877455 7.0194664 0 0 0 0 28.251646
6.0873008 5.2348142 7.0257363 0 0 0 0 28.256594
6.0275607 5.8207755 7.008842 0 0 0 0 28.261538
5.9338975 6.3426971 6.9909005 0 0 0 0 28.266485
5.8242331 6.8725929 6.9769993 0 0 0 0 28.271433
5.9690766 5.3717232 7.002224 0 0 0 0 28.276381
5.8913574 5.9506545 6.9903469 0 0 0 0 28.281328
5.7677064 6.4495578 6.9624162 0 0 0 0 28.286276
5.6200476 6.9424477 6.9255176 0 0 0 0 28.29122
5.8498611 5.5076275 6.9817076 0 0 0 0 28.296167
5.7441554 6.0675373 6.9628448 0 0 0 0 28.301115
5.5995183 6.5524216 6.9319248 0 0 0 0 28.306063
5.4378872 7.0332851 6.9010277 0 0 0 0 28.31101
5.7216415 5.6375337 6.9541945 0 0 0 0 28.315958
5.593956 6.1814194 6.9343405 0 0 0 0 28.320902
5.4333415 6.6542797 6.906425 0 0 0 0 28.32585
5.2457247 7.1091318 6.8645263 0 0 0 0 28.330797
5.601439 5.7744284 6.9396758 0 0 0 0 28.335745
5.4407606 6.2923002 6.9048328 0 0 0 0 28.340693
5.2581668 6.7421446 6.8719144 0 0 0 0 28.345636
5.0485711 7.1749783 6.8260136 0 0 0 0 28.350584
5.4652276 5.8973293 6.9101582 0 0 0 0 28.355532
5.2815681 6.3941841 6.8703175 0 0 0 0 28.360479
5.077992 6.8220143 6.8313951 0 0 0 0 28.365427
4.8554258 7.2368288 6.7884836 0 0 0 0 28.370375
5.334033 6.0252185 6.8926368 0 0 0 0 28.375319
5.1273899 6.5000587 6.8457956 0 0 0 0 28.380266
4.9008307 6.9008789 6.7968659 0 0 0 0 28.385214
4.4981656 7.0418763 6.5158167 0 0 0 0 28.390162
5.1898308 6.1391177 6.8601122 0 0 0 0 28.395109
4.9652114 6.5939393 6.8122654 0 0 0 0 28.400057
4.5545397 6.7269444 6.521215 0 0 0 0 28.405001
4.3100371 7.0917354 6.4782505 0 0 0 0 28.409948
5.0486398 6.2560086 6.8355837 0 0 0 0 28.414896
4.6308904 6.4500136 6.5396433 0 0 0 0 28.419844
4.3854012 6.7998095 6.4936538 0 0 0 0 28.424791
4.1289239 7.147584 6.4526787 0 0 0 0 28.429739
4.7483082 6.1690702 6.5949965 0 0 0 0 28.434683
4.4647255 6.5249038 6.4990811 0 0 0 0 28.439631
4.2152643 6.8716741 6.4660897 0 0 0 0 28.444578
3.9408095 7.1864457 6.4150877 0 0 0 0 28.449526
4.577107 6.2379932 6.5304346 0 0 0 0 28.454473
4.3155837 6.6227689 6.4865236 0 0 0 0 28.459417
4.0491395 6.9445338 6.4455171 0 0 0 0 28.464365
3.7547021 7.2253065 6.3804903 0 0 0 0 28.469313
4.4399433 6.3508749 6.515882 0 0 0 0 28.47426
4.1524334 6.7006493 6.4549546 0 0 0 0 28.479208
3.8690131 6.9914098 6.4059229 0 0 0 0 28.484156
3.5595982 7.2401814 6.3318658 0 0 0 0 28.4891
4.291779 6.4507618 6.4913239 0 0 0 0 28.494047
3.9862902 6.7705317 6.4213748 0 0 0 0 28.498995
3.6888907 7.03229 6.3643155 0 0 0 0 28.503942
3.3725014 7.262053 6.2912359 0 0 0 0 28.50889
4.1386151 6.5436525 6.46176 0 0 0 0 28.513838
3.824157 6.8444066 6.3957906 0 0 0 0 28.518782
3.5077724 7.0691724 6.3217006 0 0 0 0 28.523729
3.1864128 7.2789259 6.2515926 0 0 0 0 28.528677
3.9864626 6.6385341 6.4391937 0 0 0 0 28.533625
3.6510193 6.8992963 6.3541918 0 0 0 0 28.538572
3.3436773 7.1350236 6.3110995 0 0 0 0 28.54352
3.0113394 7.3177757 6.2349634 0 0 0 0 28.548464
3.8243086 6.7144279 6.4026103 0 0 0 0 28.553411
3.4768889 6.9471874 6.3115797 0 0 0 0 28.558359
3.1585679 7.1549153 6.2614579 0 0 0 0 28.563307
2.826261 7.3236561 6.193295 0 0 0 0 28.568254
3.6582146 6.7850423 6.3617935 0 0 0 0 28.278872
3.3598533 7.1126609 6.3798881 0 0 0 0 28.283819
2.9794841 7.1794796 6.2206907 0 0 0 0 28.288767
2.646189 7.3361874 6.1615582 0 0 0 0 28.293715
3.4930649 6.8559213 6.3282261 0 0 0 0 28.298658
3.1727157 7.1355591 6.3202753 0 0 0 0 28.303606
2.8003883 7.1973567 6.1800518 0 0 0 0 28.308554
2.4651196 7.3420534 6.1268988 0 0 0 0 28.313501
3.4029913 7.0806513 6.437777 0 0 0 0 28.318449
2.9685712 7.107501 6.2226048 0 0 0 0 28.323397
2.6293013 7.2342162 6.1564269 0 0 0 0 28.328341
2.2880595 7.3479171 6.0972285 0 0 0 0 28.333288
3.2398529 7.1665106 6.4192238 0 0 0 0 28.338236
2.7934577 7.1403837 6.1819811 0 0 0 0 28.343184
2.4502163 7.2440953 6.115768 0 0 0 0 28.348131
2.1049967 7.3248105 6.0465193 0 0 0 0 28.353079
3.0036588 7.0795274 6.2545104 0 0 0 0 28.358023
2.6213546 7.1822534 6.1523633 0 0 0 0 28.36297
2.2781429 7.2659616 6.0891137 0 0 0 0 28.367918
1.9299461 7.3206825 6.0148239 0 0 0 0 28.372866
2.8175175 7.0974412 6.1878786 0 0 0 0 28.377813
2.4452534 7.2051392 6.1107187 0 0 0 0 28.382761
2.1030672 7.2768397 6.0534439 0 0 0 0 28.387705
1.7569028 7.3135548 5.985117 0 0 0 0 28.392653
2.644393 7.1473222 6.1512742 0 0 0 0 28.3976
2.2761672 7.2489982 6.0910931 0 0 0 0 28.402548
1.9300038 7.2837157 6.0217609 0 0 0 0 28.407495
1.5838599 7.2974391 5.9493933 0 0 0 0 28.412439
2.4772844 7.2101831 6.1316772 0 0 0 0 28.417387
2.1010778 7.2688813 6.0534353 0 0 0 0 28.422335
1.7589456 7.2925887 5.9940753 0 0 0 0 28.427282
1.4138261 7.2843161 5.9206662 0 0 0 0 28.43223
2.3041773 7.2560568 6.101059 0 0 0 0 28.437178
1.9259964 7.2857623 6.0177698 0 0 0 0 28.442122
1.5848867 7.2874756 5.9563689 0 0 0 0 28.447069
1.2457973 7.2641997 5.8899221 0 0 0 0 28.452017
2.1280735 7.2919369 6.0654273 0 0 0 0 28.456964
1.7539244 7.3086333 5.991106 0 0 0 0 28.461912
1.4138364 7.2813611 5.9226532 0 0 0 0 28.46686
1.0777698 7.2310982 5.8511543 0 0 0 0 28.471804
1.9529756 7.332809 6.0357981 0 0 0 0 28.476751
1.5818558 7.3245115 5.9614282 0 0 0 0 28.481699
1.2447941 7.2732449 5.8919277 0 0 0 0 28.486647
0.91174662 7.201992 5.8173871 0 0 0 0 28.491594
1.7768848 7.3636866 6.0031519 0 0 0 0 28.496542
1.4077908 7.3303962 5.9267344 0 0 0 0 28.501486
1.0757514 7.2551417 5.8541837 0 0 0 0 28.506433
0.74973172 7.1718855 5.7876091 0 0 0 0 28.511381
1.5957981 7.3765759 5.9604812 0 0 0 0 28.516329
1.2347353 7.3372736 5.8980379 0 0 0 0 28.521276
0.90671724 7.2390304 5.8224406 0 0 0 0 28.52622
0.58871734 7.1277957 5.748805 0 0 0 0 28.531168
1.4177173 7.3984556 5.9268179 0 0 0 0 28.536116
1.0606786 7.3261719 5.8563113 0 0 0 0 28.541063
0.74068564 7.2179265 5.788682 0 0 0 0 28.546011
0.42870906 7.0936923 5.7200131 0 0 0 0 28.550959
1.240647 7.4193296 5.8981481 0 0 0 0 28.555902
0.88863099 7.3240566 5.825593 0 0 0 0 28.56085
0.57666284 7.1968179 5.7599177 0 0 0 0 28.565798
0.27370763 7.0625854 5.6972151 0 0 0 0 28.570745
1.0605772 7.4252176 5.8594561 0 0 0 0 28.575693
0.71658707 7.3069553 5.7868481 0 0 0 0 28.580641
0.41264024 7.1697173 5.7271414 0 0 0 0 28.585585
0.11870777 7.0134978 5.6633863 0 0 0 0 28.590532
0.88151586 7.4330988 5.8267627 0 0 0 0 28.59548
0.54655153 7.2948446 5.7561054 0 0 0 0 28.600428
0.25162169 7.1316295 5.6893401 0 0 0 0 28.605375
-0.033289731 6.9714055 5.6355619 0 0 0 0 28.610323
0.70345962 7.4369822 5.7940583 0 0 0 0 28.615267
0.37551799 7.2767386 5.722352 0 0 0 0 28.620214
0.09161184 7.0995297 5.6605449 0 0 0 0 28.625162
-0.18328568 6.9113336 5.5967035 0 0 0 0 28.63011
0.52340651 7.4218826 5.7503242 0 0 0 0 28.635057
0.20749035 7.2566347 5.6905885 0 0 0 0 28.640001
-0.06639798 7.0584421 5.6257291 0 0 0 0 28.644949
-0.33027431 6.861249 5.5688548 0 0 0 0 28.649897
0.34636185 7.4147711 5.7165956 0 0 0 0 28.654844
0.039467361 7.2265387 5.6548066 0 0 0 0 28.659792
-0.22340158 7.0163531 5.5939083 0 0 0 0 28.66474
-0.47726026 6.810164 5.5420017 0 0 0 0 28.669683
0.16932145 7.4026637 5.6818566 0 0 0 0 28.674631
-0.12555267 7.1894512 5.6160064 0 0 0 0 28.679579
-0.37740117 6.97826 5.5670872 0 0 0 0 28.684526
-0.62024248 6.7510891 5.5121284 0 0 0 0 28.689474
-0.0077108857 7.3835568 5.6471033 0 0 0 0 28.694422
-0.29056305 7.1603479 5.5882163 0 0 0 0 28.699366
-0.5303998 6.9241853 5.5302377 0 0 0 0 28.704313
-0.75922716 6.6760378 5.470222 0 0 0 0 28.709261
-0.18274015 7.360455 5.6113386 0 0 0 0 28.714209
-0.45357391 7.1212592 5.5534053 0 0 0 0 28.719156
-0.68139124 6.8711061 5.4983845 0 0 0 0 28.724104
-0.89820415 6.6149664 5.4423356 0 0 0 0 28.729048
-0.35876203 7.3353491 5.5785694 0 0 0 0 28.733995
-0.6145798 7.0671849 5.5115657 0 0 0 0 28.738943
-0.83037889 6.822022 5.4715323 0 0 0 0 28.743891
-1.0321797 6.544909 5.4094257 0 0 0 0 28.748838
-0.53183746 7.2908778 5.5339856 0 0 0 0 28.534163
-0.77562207 7.0336828 5.4889841 0 0 0 0 28.53911
-0.9783982 6.7655377 5.441895 0 0 0 0 28.544058
-1.166175 6.4824262 5.3847561 0 0 0 0 28.549006
-0.7058484 7.265758 5.5082221 0 0 0 0 28.553949
-0.93461943 6.9835939 5.4551544 0 0 0 0 28.558897
-1.1223801 6.7024651 5.4090185 0 0 0 0 28.563845
-1.2981445 6.4103646 5.3538446 0 0 0 0 28.568792
-0.87685698 7.2266555 5.4744287 0 0 0 0 28.57374
-1.0906099 6.9275098 5.421308 0 0 0 0 28.578688
-1.2663587 6.6453838 5.3821497 0 0 0 0 28.583632
-1.4291065 6.3542809 5.337955 0 0 0 0 28.588579
-1.0478587 7.1845517 5.4426284 0 0 0 0 28.593527
-1.2465942 6.8794117 5.396472 0 0 0 0 28.598475
-1.4063348 6.5753193 5.3482518 0 0 0 0 28.603422
-1.5580657 6.2922039 5.3200521 0 0 0 0 28.60837
-1.2148571 7.1274657 5.4027948 0 0 0 0 28.613314
-1.399581 6.8123412 5.3575993 0 0 0 0 28.618261
-1.5423065 6.4982634 5.312335 0 0 0 0 28.623209
-1.697009 6.2700601 5.3382268 0 0 0 0 28.628157
-1.3828492 7.0783663 5.371974 0 0 0 0 28.633104
-1.5515586 6.7582502 5.3327436 0 0 0 0 28.638052
-1.6802739 6.4351873 5.2884421 0 0 0 0 28.642996
-1.8389467 6.2588968 5.3674231 0 0 0 0 28.647943
-1.5468398 7.0112891 5.3301158 0 0 0 0 28.652891
-1.6995323 6.6881781 5.2998543 0 0 0 0 28.657839
-1.8142405 6.3621264 5.2585254 0 0 0 0 28.662786
-1.9898692 6.2726841 5.4226704 0 0 0 0 28.66773
-1.7118199 6.960186 5.3052826 0 0 0 0 28.672678
-1.846505 6.6171074 5.2669601 0 0 0 0 28.677626
-1.9412054 6.2750859 5.2205734 0 0 0 0 28.682573
-2.1198168 6.2135959 5.4147668 0 0 0 0 28.687521
-1.8707995 6.8861141 5.2654018 0 0 0 0 28.692469
-1.9914713 6.5460348 5.2380614 0 0 0 0 28.697412
-2.0771592 6.2169967 5.2086816 0 0 0 0 28.70236
-2.2367685 6.1245575 5.3847933 0 0 0 0 28.707308
-2.0307734 6.8200278 5.2345328 0 0 0 0 28.712255
-2.1354351 6.4769588 5.2121625 0 0 0 0 28.717203
-2.2181056 6.1758776 5.212822 0 0 0 0 28.722151
-2.3577149 6.0484962 5.3668461 0 0 0 0 28.727095
-2.1877413 6.7469482 5.2026467 0 0 0 0 28.732042
-2.2743971 6.3939023 5.1782322 0 0 0 0 28.73699
-2.3650415 6.1517258 5.2349973 0 0 0 0 28.741938
-2.4716601 5.9604549 5.3418674 0 0 0 0 28.746885
-2.3437068 6.6758657 5.1737604 0 0 0 0 28.751833
-2.4113555 6.3118439 5.1472988 0 0 0 0 28.756777
-2.5299625 6.1645036 5.2912564 0 0 0 0 28.761724
-2.5836058 5.8724165 5.3168845 0 0 0 0 28.766672
-2.4976678 6.5957913 5.1418552 0 0 0 0 28.77162
-2.5473089 6.2307816 5.1203642 0 0 0 0 28.776567
-2.6738966 6.1223736 5.3033948 0 0 0 0 28.781511
-2.6965475 5.7873697 5.2969074 0 0 0 0 28.786459
-2.648623 6.5147171 5.1129422 0 0 0 0 28.791407
-2.6842594 6.1497159 5.0954299 0 0 0 0 28.796354
-2.7948425 6.0293336 5.2744155 0 0 0 0 28.801302
-2.8054883 5.7013288 5.2769217 0 0 0 0 28.80625
-2.7965782 6.4286518 5.0810151 0 0 0 0 28.811193
-2.8212032 6.0756378 5.0795054 0 0 0 0 28.816141
-2.9197838 5.9462748 5.2554579 0 0 0 0 28.821089
-2.9044344 5.5973225 5.2418914 0 0 0 0 28.826036
-2.9415267 6.3375888 5.0500741 0 0 0 0 28.830984
-2.9851284 6.055459 5.1117043 0 0 0 0 28.835932
-3.0357249 5.8502383 5.2284636 0 0 0 0 28.840876
-3.0103705 5.5102811 5.2248974 0 0 0 0 28.845823
-3.0804746 6.2395396 5.0151114 0 0 0 0 28.850771
-3.1610425 6.0542388 5.1639495 0 0 0 0 28.855719
-3.1556611 5.763185 5.2104897 0 0 0 0 28.860666
-3.1133051 5.4212441 5.2078953 0 0 0 0 28.865614
-3.2184162 6.1364908 4.9811392 0 0 0 0 28.870558
-3.1970317 5.7915034 4.9945736 0 0 0 0 28.875505
-3.1416852 5.4445896 4.9829521 0 0 0 0 28.880453
-3.0933385 5.1296353 4.993392 0 0 0 0 28.885401
-3.3573534 6.0424285 4.9561801 0 0 0 0 28.890348
-3.3159688 5.6894684 4.9655728 0 0 0 0 28.895292
-3.2426269 5.3405781 4.950923 0 0 0 0 28.90024
-3.1832776 5.0336223 4.9693594 0 0 0 0 28.905188
-3.5002861 5.9553509 4.9392371 0 0 0 0 28.910135
-3.4399016 5.596415 4.9455934 0 0 0 0 28.915083
-3.3595519 5.2655044 4.9489617 0 0 0 0 28.920031
-3.2812071 4.9505792 4.9603586 0 0 0 0 28.924974
-3.6332171 5.8513002 4.9122519 0 0 0 0 28.929922
-3.5508368 5.4883928 4.9145703 0 0 0 0 28.93487
-3.4664843 5.1724663 4.9309573 0 0 0 0 28.939817
-3.3731384 4.8625493 4.9473405 0 0 0 0 28.944765
-3.7581489 5.7382674 4.8792396 0 0 0 0 28.949713
-3.6657667 5.3853564 4.8905602 0 0 0 0 28.954657
-3.5664139 5.0734396 4.9109321 0 0 0 0 28.959604
-3.4570765 4.7625461 4.9222918 0 0 0 0 28.964552
-3.887073 5.6322169 4.8562436 0 0 0 0 28.9695
-3.778693 5.2823191 4.8695464 0 0 0 0 28.974447
-3.6603484 4.9664316 4.8828855 0 0 0 0 28.979395
-3.5480037 4.6765108 4.9142742 0 0 0 0 28.984339
-4.0139956 5.5221701 4.8322372 0 0 0 0 28.989286
-3.8846197 5.1732955 4.844512 0 0 0 0 28.994234
-3.7562764 4.8674073 4.8648534 0 0 0 0 28.999182
-3.6259403 4.5725164 4.8882098 0 0 0 0 29.004129
-4.1179252 5.3870807 4.7892332 0 0 0 0 28.969912
-3.9935417 5.0671668 4.8245559 0 0 0 0 28.974859
-3.854197 4.7702818 4.8508911 0 0 0 0 28.979807
-3.7088628 4.4784064 4.8742261 0 0 0 0 28.984755
-4.2448387 5.2830205 4.7752352 0 0 0 0 28.989702
-4.0864677 4.9431705 4.7904792 0 0 0 0 28.99465
-3.9391265 4.6572843 4.8228211 0 0 0 0 28.999594
-3.787791 4.3803973 4.8581715 0 0 0 0 29.004541
-4.5236783 5.3565588 4.9287319 0 0 0 0 29.009489
-4.2143731 4.8640742 4.8005219 0 0 0 0 29.014437
-4.0290504 4.554266 4.8057733 0 0 0 0 29.019384
-3.8647206 4.2813916 4.8411126 0 0 0 0 29.024332
-4.6335907 5.2245431 4.898663 0 0 0 0 29.029276
-4.4552088 4.9046793 4.9369116 0 0 0 0 29.034224
-4.1119766 4.4452629 4.7837057 0 0 0 0 29.039171
-3.9286573 4.1724157 4.8130193 0 0 0 0 29.044119
-4.747499 5.0985141 4.8756094 0 0 0 0 29.049067
-4.5491252 4.780674 4.9108329 0 0 0 0 29.05401
-4.3527927 4.4988346 4.9441147 0 0 0 0 29.058958
-4.0025835 4.07341 4.7989554 0 0 0 0 29.063906
-4.8524065 4.9635019 4.8475275 0 0 0 0 29.068853
-4.6450396 4.6576629 4.8877592 0 0 0 0 29.073801
-4.443707 4.3928103 4.9330611 0 0 0 0 29.078749
-4.1854253 4.0821071 4.9142122 0 0 0 0 29.083693
-4.9593077 4.833477 4.8274565 0 0 0 0 29.08864
-4.7389474 4.5356474 4.8696837 0 0 0 0 29.093588
-4.5176306 4.2708268 4.9059587 0 0 0 0 29.098536
-4.3053107 4.0249753 4.9572763 0 0 0 0 29.103483
-5.0642085 4.7004561 4.8063779 0 0 0 0 29.108431
-4.8288579 4.4116392 4.8495989 0 0 0 0 29.113375
-4.6005445 4.1578164 4.8918824 0 0 0 0 29.118322
-4.377233 3.9219718 4.9452019 0 0 0 0 29.12327
-5.1611104 4.5634489 4.7822809 0 0 0 0 29.128218
-4.910769 4.2816458 4.8254938 0 0 0 0 29.133165
-4.6794591 4.0448103 4.8778009 0 0 0 0 29.138113
-4.4371624 3.8079967 4.9220934 0 0 0 0 29.143057
-5.2560086 4.4254398 4.7611804 0 0 0 0 29.148005
-5.0016718 4.158628 4.8124118 0 0 0 0 29.152952
-4.7533765 3.9258168 4.8587027 0 0 0 0 29.1579
-4.5000887 3.7000103 4.9049983 0 0 0 0 29.162848
-5.3549008 4.2894182 4.746088 0 0 0 0 29.167791
-5.0845771 4.0326228 4.7963142 0 0 0 0 29.172739
-4.8212924 3.8048298 4.8395934 0 0 0 0 29.177687
-4.567009 3.594012 4.8939123 0 0 0 0 29.182634
-5.435802 4.1424341 4.7179542 0 0 0 0 29.187582
-5.1584854 3.8986373 4.7731915 0 0 0 0 29.19253
-4.9111938 3.7007909 4.8425407 0 0 0 0 29.197474
-4.6269326 3.4860253 4.8798137 0 0 0 0 29.202421
-5.5136976 3.9944475 4.6938143 0 0 0 0 29.207369
-5.2413855 3.7726264 4.7620945 0 0 0 0 29.212317
-4.9571238 3.5648518 4.8053784 0 0 0 0 29.217264
-4.6828589 3.3750472 4.8627048 0 0 0 0 29.222212
-5.6025891 3.8554368 4.6797032 0 0 0 0 29.227156
-5.3152871 3.6416304 4.7469764 0 0 0 0 29.232103
-5.0270319 3.4468517 4.7952771 0 0 0 0 29.237051
-4.7427797 3.2680554 4.8526077 0 0 0 0 29.241999
-5.6754847 3.7064548 4.6565557 0 0 0 0 29.246946
-5.3811932 3.5046513 4.7258391 0 0 0 0 29.251894
-5.097939 3.3318455 4.7891817 0 0 0 0 29.256838
-4.7957044 3.1550796 4.8364921 0 0 0 0 29.261786
-5.7473764 3.5584686 4.6374087 0 0 0 0 29.266733
-5.4470959 3.3706656 4.7097068 0 0 0 0 29.271681
-5.1528559 3.2058747 4.7690477 0 0 0 0 29.276628
-4.8476267 3.0450993 4.8243799 0 0 0 0 29.281572
-5.8232656 3.4124732 4.6222701 0 0 0 0 29.28652
-5.515995 3.2376719 4.6975803 0 0 0 0 29.291468
-5.2067704 3.079901 4.7519131 0 0 0 0 29.296415
-4.9085426 2.9390996 4.8202868 0 0 0 0 29.301363
-5.8841591 3.2605011 4.6011028 0 0 0 0 29.306311
-5.5728989 3.0986998 4.6784286 0 0 0 0 29.311255
-5.2706757 2.9619017 4.7468038 0 0 0 0 29.316202
-4.9574652 2.8271229 4.8081684 0 0 0 0 29.32115
-5.9560428 3.1125052 4.5899568 0 0 0 0 29.326097
-5.6327982 2.9637153 4.6662879 0 0 0 0 29.331045
-5.321589 2.8359289 4.7316661 0 0 0 0 29.335993
-4.9953966 2.7101696 4.7870283 0 0 0 0 29.340937
-6.016932 2.9625256 4.5747938 0 0 0 0 29.345884
-5.6797037 2.820756 4.6451182 0 0 0 0 29.350832
-5.3655047 2.7069671 4.7135148 0 0 0 0 29.35578
-5.0463142 2.6001835 4.7809162 0 0 0 0 29.360727
-6.0818176 2.8145359 4.5646396 0 0 0 0 29.365675
-5.7386007 2.6857693 4.6359773 0 0 0 0 29.370619
-5.4254069 2.5879672 4.7124004 0 0 0 0 29.375566
-5.0942321 2.4892004 4.7747993 0 0 0 0 29.380514
-6.1387019 2.661557 4.5524678 0 0 0 0 29.385462
-5.784503 2.5458033 4.6208115 0 0 0 0 29.390409
-5.4603271 2.4560196 4.6902342 0 0 0 0 29.395353
-5.1331577 2.3752358 4.7616663 0 0 0 0 29.400301
-6.1955857 2.5105743 4.5432992 0 0 0 0 29.405249
-5.8433943 2.4108093 4.6176715 0 0 0 0 29.410196
-5.5082359 2.3320401 4.6830969 0 0 0 0 29.415144
-5.1790762 2.2642539 4.7565475 0 0 0 0 29.420092
-6.2474704 2.3575978 4.5331225 0 0 0 0 29.425035
-5.8842969 2.2698472 4.6034994 0 0 0 0 29.429983
-5.5581393 2.2080536 4.6799631 0 0 0 0 29.434931
-5.2140007 2.1482921 4.7444072 0 0 0 0 29.439878
-6.2847233 2.2023799 4.5147905 0 0 0 0 30.040499
-5.9375792 2.1345553 4.6003122 0 0 0 0 30.045443
-5.5954685 2.0807505 4.6658578 0 0 0 0 30.05039
-5.2533603 2.0359399 4.7354159 0 0 0 0 30.055338
-6.338624 2.0513992 4.5126328 0 0 0 0 30.060286
-5.9734983 1.992599 4.5881486 0 0 0 0 30.065233
-5.6273994 1.951797 4.6527081 0 0 0 0 30.070181
-5.2892966 1.9219751 4.7282915 0 0 0 0 30.075125
-6.3755317 1.8944435 4.5004497 0 0 0 0 30.080072
-6.0074186 1.8506444 4.5759835 0 0 0 0 30.08502
-5.6723199 1.8258196 4.651577 0 0 0 0 30.089968
-5.3232331 1.807012 4.7211642 0 0 0 0 30.094915
-6.4084387 1.737489 4.4902635 0 0 0 0 30.099863
-6.0513306 1.7116694 4.5748339 0 0 0 0 30.104807
-5.7032499 1.6968639 4.641428 0 0 0 0 30.109755
-5.35817 1.6920471 4.7150388 0 0 0 0 30.114702
-6.4453444 1.5825268 4.4840851 0 0 0 0 30.11965
-6.0752535 1.566725 4.5606561 0 0 0 0 30.124598
-5.5213213 1.5102644 4.4619813 0 0 0 0 30.129541
-5.187254 1.5174413 4.5326209 0 0 0 0 30.134489
-6.2323942 1.3719485 4.3075724 0 0 0 0 30.139437
-5.8743162 1.3711386 4.3821774 0 0 0 0 30.144384
-5.5422564 1.3833168 4.4498272 0 0 0 0 30.149332
-5.2121954 1.4044849 4.5244908 0 0 0 0 30.15428
-6.2613029 1.2219883 4.3033957 0 0 0 0 30.159224
-5.9092307 1.2351668 4.3830266 0 0 0 0 30.164171
-5.5781798 1.2603419 4.451695 0 0 0 0 30.169119
-5.2441311 1.2935151 4.5233707 0 0 0 0 30.174067
-6.296206 1.0720159 4.3062267 0 0 0 0 30.179014
-5.9381485 1.0982021 4.3818688 0 0 0 0 30.183962
-5.6001124 1.1343881 4.4445453 0 0 0 0 30.188906
-5.2720699 1.1825498 4.5212474 0 0 0 0 30.193853
-6.3191161 0.92105943 4.3030443 0 0 0 0 30.198801
-5.9480786 0.95826626 4.3676887 0 0 0 0 30.203749
-5.6260405 1.0104244 4.4434032 0 0 0 0 30.208696
-5.2950101 1.0685918 4.5161161 0 0 0 0 30.213644
-5.3039608 0.95265555 4.5009689 0 0 0 0 30.233431
-0.57959801 0.055744246 0.38801512 0 0 0 0 30.238379
-0.57157701 0.064724341 0.41202173 0 0 0 0 30.243322
-0.56155717 0.073707052 0.43502629 0 0 0 0 30.24827
-0.63247418 0.098550156 0.53013277 0 0 0 0 30.253218
-0.56958592 0.040767897 0.38000628 0 0 0 0 30.258165
-0.55756819 0.049754307 0.40100887 0 0 0 0 30.263113
-0.5475502 0.059738193 0.42301464 0 0 0 0 30.268061
-0.55451834 0.074690826 0.46204352 0 0 0 0 30.273005
-0.55457765 0.026798284 0.36899385 0 0 0 0 30.277952
-0.55055493 0.035773434 0.39500466 0 0 0 0 30.2829
-0.54953229 0.04774427 0.42302191 0 0 0 0 30.287848
-0.53551698 0.059732195 0.44402593 0 0 0 0 30.292795
-0.54754007 0.023786251 0.39200702 0 0 0 0 30.302687
-0.53652507 0.034773201 0.41201299 0 0 0 0 30.307634
-0.535501 0.048740853 0.4430325 0 0 0 0 30.312582
-0.55454046 -0.00018614202 0.3680014 0 0 0 0 30.31753
-0.52649254 0.036764666 0.43402904 0 0 0 0 30.332369
-0.53651279 -0.0011815088 0.38300619 0 0 0 0 30.342264
-0.53549266 0.010791968 0.40902334 0 0 0 0 30.347212
-0.51748401 0.024788296 0.42502582 0 0 0 0 30.35216
-0.55950022 -0.025179578 0.37201673 0 0 0 0 30.357103
-0.54347193 -0.026177363 0.38802388 0 0 0 0 30.381842
-0.52546632 -0.012177743 0.40102652 0 0 0 0 30.386786
-0.51445353 0.002808314 0.42203712 0 0 0 0 30.391733
-0.56745654 -0.053177055 0.37803209 0 0 0 0 30.396681
-0.5554263 -0.052181788 0.39804563 0 0 0 0 30.421415
-0.53542399 -0.036178656 0.40904868 0 0 0 0 30.426363
-0.5154205 -0.019177729 0.42205286 0 0 0 0 30.431311
-6.2871418 -0.89320505 4.2696629 0 0 0 0 30.436258
-0.59236002 -0.083222821 0.42708597 0 0 0 0 30.460993
-0.55137634 -0.062188562 0.42207459 0 0 0 0 30.46594
-0.51938599 -0.041167889 0.42407182 0 0 0 0 30.470884
-0.52241307 -0.099091269 0.35301697 0 0 0 0 30.475832
-6.1119452 -1.0031711 4.4613314 0 0 0 0 30.48078
-6.4517345 -1.3883277 4.4412222 0 0 0 0 30.495623
-6.1548276 -1.1561949 4.5101881 0 0 0 0 30.500566
-0.603297 -0.095253326 0.46512663 0 0 0 0 30.505514
-0.53933507 -0.066185392 0.44210288 0 0 0 0 30.510462
-6.4132676 -1.5400214 4.4402528 0 0 0 0 30.249456
-6.1333709 -1.2988919 4.5132337 0 0 0 0 30.2544
-5.8674831 -1.0637568 4.5722227 0 0 0 0 30.259348
-0.56541061 -0.082321346 0.46286783 0 0 0 0 30.264296
-6.3911753 -1.6949626 4.4530354 0 0 0 0 30.269243
-6.1142912 -1.4418306 4.5210342 0 0 0 0 30.274191
-5.8494177 -1.1966892 4.5730367 0 0 0 0 30.279139
-0.63832116 -0.107435 0.52493346 0 0 0 0 30.284082
-6.3471003 -1.8438751 4.4538045 0 0 0 0 30.28903
-6.0832205 -1.5827541 4.5228267 0 0 0 0 30.293978
-5.8343468 -1.3296309 4.5798554 0 0 0 0 30.298925
-5.5754843 -1.0644974 4.6338878 0 0 0 0 30.303873
-6.3050241 -1.9927927 4.4575777 0 0 0 0 30.308821
-6.0531483 -1.7236822 4.5276222 0 0 0 0 30.313765
-5.8002944 -1.4585434 4.5726614 0 0 0 0 30.318712
-5.5494399 -1.1844132 4.623713 0 0 0 0 30.32366
-6.2729363 -2.1467288 4.4713583 0 0 0 0 30.328608
-6.0190792 -1.8636066 4.5314169 0 0 0 0 30.333555
-5.7762313 -1.5904746 4.5754752 0 0 0 0 30.338503
-5.545372 -1.3103681 4.6345544 0 0 0 0 30.343447
-6.2268605 -2.2946477 4.4781332 0 0 0 0 30.348394
-5.975018 -2.0015187 4.5302057 0 0 0 0 30.353342
-5.7571621 -1.7244161 4.5842943 0 0 0 0 30.35829
-5.5263181 -1.4343003 4.6343846 0 0 0 0 30.363237
-6.1737905 -2.4405596 4.4829054 0 0 0 0 30.368185
-5.9389467 -2.141448 4.5390024 0 0 0 0 30.373129
-5.7300978 -1.8573489 4.5901084 0 0 0 0 30.378077
-5.49927 -1.5562232 4.6302114 0 0 0 0 30.383024
-6.1197205 -2.5864727 4.4886794 0 0 0 0 30.387972
-5.8988805 -2.2803714 4.5447984 0 0 0 0 30.39292
-5.6910453 -1.9862649 4.5879164 0 0 0 0 30.397863
-5.4832096 -1.6821655 4.6370459 0 0 0 0 30.402811
-6.0636497 -2.7313881 4.4974556 0 0 0 0 30.407759
-5.853817 -2.4172919 4.5505939 0 0 0 0 30.412706
-5.6669765 -2.1212068 4.5997348 0 0 0 0 30.417654
-5.4651508 -1.8071078 4.6448812 0 0 0 0 30.422602
-6.0025849 -2.8742976 4.503231 0 0 0 0 30.427546
-5.809752 -2.5552166 4.5593915 0 0 0 0 30.432493
-5.6269202 -2.2511296 4.6035452 0 0 0 0 30.437441
-5.4291077 -1.929024 4.6397042 0 0 0 0 30.442389
-5.953506 -3.0222297 4.5220146 0 0 0 0 30.447336
-5.7606888 -2.6931374 4.5671864 0 0 0 0 30.452284
-5.5828695 -2.3790464 4.6043558 0 0 0 0 30.457228
-5.4060512 -2.0549624 4.6465368 0 0 0 0 30.462175
-5.8774538 -3.1571248 4.52279 0 0 0 0 30.467123
-5.7036338 -2.8260498 4.5719814 0 0 0 0 30.472071
-5.5458097 -2.5119774 4.6131697 0 0 0 0 30.477018
-5.3809943 -2.1819017 4.6553688 0 0 0 0 30.481966
-5.8153863 -3.3000436 4.5365715 0 0 0 0 30.48691
-5.6615629 -2.965987 4.5897856 0 0 0 0 30.491858
-5.4987583 -2.6398966 4.616982 0 0 0 0 30.496805
-5.340951 -2.3038197 4.6531935 0 0 0 0 30.501753
-5.7513185 -3.4419639 4.5523553 0 0 0 0 30.506701
-5.5965142 -3.0968921 4.5915794 0 0 0 0 30.511644
-5.4557023 -2.7708242 4.6257963 0 0 0 0 30.516592
-5.3059015 -2.4287486 4.6580215 0 0 0 0 30.52154
-5.6772614 -3.5788715 4.5621376 0 0 0 0 30.526487
-5.5384541 -3.2328138 4.6043777 0 0 0 0 30.531435
-5.4126449 -2.9027541 4.6366119 0 0 0 0 30.536383
-5.2768455 -2.557688 4.6688528 0 0 0 0 30.541327
-5.6012058 -3.7137799 4.5729227 0 0 0 0 30.546274
-5.4803967 -3.3667362 4.6171799 0 0 0 0 30.551222
-5.3565989 -3.0286696 4.6414242 0 0 0 0 30.55617
-5.2318029 -2.6806068 4.6696777 0 0 0 0 30.561117
-5.5271468 -3.8516941 4.5877094 0 0 0 0 30.566065
-5.4123473 -3.4966474 4.6249795 0 0 0 0 30.571009
-5.2975554 -3.1545818 4.6442356 0 0 0 0 30.575956
-5.1977477 -2.809546 4.682508 0 0 0 0 30.580904
-5.4450936 -3.9846022 4.6004968 0 0 0 0 30.585852
-5.3452959 -3.626564 4.6367831 0 0 0 0 30.590799
-5.2524948 -3.2885189 4.6620541 0 0 0 0 30.595747
-5.1557002 -2.9354737 4.6893368 0 0 0 0 30.600691
-5.3560505 -4.1105022 4.6092877 0 0 0 0 30.605639
-5.2832375 -3.7624905 4.6545868 0 0 0 0 30.610586
-5.1944466 -3.41644 4.6718688 0 0 0 0 30.615534
-5.1026607 -3.0573909 4.6921611 0 0 0 0 30.620481
-5.2729979 -4.2434139 4.6250792 0 0 0 0 30.625425
-5.2071939 -3.8883996 4.6633911 0 0 0 0 30.630373
-5.1334014 -3.5433588 4.6806846 0 0 0 0 30.635321
-5.0685997 -3.1923378 4.7119918 0 0 0 0 30.640268
-5.1919413 -4.3773336 4.6468749 0 0 0 0 30.645216
-5.1341443 -4.0183172 4.6781969 0 0 0 0 30.650164
-5.0683599 -3.6682744 4.6885014 0 0 0 0 30.655107
-5.0125632 -3.314254 4.714818 0 0 0 0 30.660055
-5.0998979 -4.5032387 4.6606712 0 0 0 0 30.665003
-5.0561004 -4.1442304 4.6910038 0 0 0 0 30.66995
-5.0043125 -3.7971961 4.7013168 0 0 0 0 30.674898
-4.955524 -3.4371731 4.720645 0 0 0 0 30.679846
-5.010848 -4.633153 4.6804695 0 0 0 0 30.68479
-4.9800525 -4.2741489 4.7078118 0 0 0 0 30.689737
-4.9392672 -3.924119 4.7151361 0 0 0 0 30.694685
-4.9044762 -3.5671036 4.7334719 0 0 0 0 30.699633
-4.9138088 -4.7550592 4.6962709 0 0 0 0 30.70458
-4.8870249 -4.3890467 4.7126231 0 0 0 0 30.709528
-4.869225 -4.0500383 4.7279544 0 0 0 0 30.714472
-4.8464365 -3.6920261 4.7422996 0 0 0 0 30.719419
-4.8161378 -4.8796401 4.7149158 0 0 0 0 30.466372
-4.8103642 -4.5216465 4.7363005 0 0 0 0 30.471319
-4.7955985 -4.1756282 4.7406631 0 0 0 0 30.476267
-4.779839 -3.8136129 4.7480407 0 0 0 0 30.481215
-4.7210832 -5.0045514 4.7377038 0 0 0 0 30.486158
-4.7213206 -4.6425509 4.7490969 0 0 0 0 30.491106
-4.7175555 -4.2965369 4.7504683 0 0 0 0 30.496054
-4.7237802 -3.9455445 4.7658534 0 0 0 0 30.501001
-4.6200342 -5.1254578 4.7584934 0 0 0 0 30.505949
-4.6312737 -4.7634597 4.7658949 0 0 0 0 30.510897
-4.6425052 -4.4224544 4.7662735 0 0 0 0 30.515841
-4.6527419 -4.0664525 4.7706661 0 0 0 0 30.520788
-4.5139918 -5.2423592 4.7772851 0 0 0 0 30.525736
-4.5442209 -4.8893766 4.787693 0 0 0 0 30.530684
-4.562459 -4.5453682 4.7810793 0 0 0 0 30.535631
-4.5787029 -4.1873617 4.7774782 0 0 0 0 30.540579
-4.4149361 -5.3682752 4.8050766 0 0 0 0 30.545523
-4.4471822 -5.00528 4.802496 0 0 0 0 30.55047
-4.4814115 -4.6702843 4.7978854 0 0 0 0 30.555418
-4.5156469 -4.3182921 4.7972922 0 0 0 0 30.560366
-4.3038969 -5.4811769 4.8258739 0 0 0 0 30.565313
-4.346148 -5.1181808 4.8163004 0 0 0 0 30.570261
-4.39537 -4.7911954 4.8126936 0 0 0 0 30.575205
-4.4396067 -4.4422045 4.8071041 0 0 0 0 30.580153
-4.1599221 -5.5490189 4.8086925 0 0 0 0 30.5851
-4.2530947 -5.244101 4.8431015 0 0 0 0 30.590048
-4.3033342 -4.9071016 4.8255043 0 0 0 0 30.594995
-4.3665566 -4.5701284 4.8259177 0 0 0 0 30.599939
-3.9470794 -5.5197363 4.7115526 0 0 0 0 30.604887
-4.1550517 -5.3630147 4.8659077 0 0 0 0 30.609835
-4.2122951 -5.0270119 4.8413143 0 0 0 0 30.614782
-4.2895122 -4.6960478 4.841732 0 0 0 0 30.61973
-3.8120892 -5.5926013 4.7073793 0 0 0 0 30.624678
-4.0510139 -5.4789233 4.8867154 0 0 0 0 30.629622
-4.116262 -5.1419177 4.8551278 0 0 0 0 30.634569
-4.2064729 -4.8199601 4.8545456 0 0 0 0 30.639517
-3.6970608 -5.6935062 4.7281976 0 0 0 0 30.644464
-3.8661318 -5.4806828 4.8105721 0 0 0 0 30.649412
-4.0272126 -5.2688417 4.8809381 0 0 0 0 30.65436
-4.1154442 -4.9358635 4.8623629 0 0 0 0 30.659304
-3.5850232 -5.8014207 4.7560139 0 0 0 0 30.664251
-3.6912372 -5.4884605 4.7434349 0 0 0 0 30.669199
-3.9281776 -5.3857512 4.8987517 0 0 0 0 30.674147
-4.0333953 -5.0667887 4.8851752 0 0 0 0 30.679094
-3.4689906 -5.9033337 4.7838359 0 0 0 0 30.684042
-3.5802119 -5.5903659 4.7612591 0 0 0 0 30.688986
-3.8101764 -5.4776301 4.8965783 0 0 0 0 30.693933
-3.9483466 -5.1977139 4.908988 0 0 0 0 30.698881
-3.3449733 -5.9952335 4.8026643 0 0 0 0 30.703829
-3.4731784 -5.6982818 4.7860832 0 0 0 0 30.708776
-3.6063461 -5.4423466 4.7834635 0 0 0 0 30.71372
-3.8523149 -5.3176222 4.9228053 0 0 0 0 30.718668
-3.2179606 -6.0811324 4.8214993 0 0 0 0 30.723616
-3.3571577 -5.796186 4.8039126 0 0 0 0 30.728563
-3.4793661 -5.5142126 4.770308 0 0 0 0 30.733511
-3.7612669 -5.4485478 4.9496183 0 0 0 0 30.738459
-3.0929389 -6.1740408 4.8473315 0 0 0 0 30.743402
-3.2391419 -5.8900886 4.8207479 0 0 0 0 30.74835
-3.3793249 -5.6331367 4.7981305 0 0 0 0 30.753298
-3.565429 -5.4232721 4.8365035 0 0 0 0 30.758245
-2.9639277 -6.2589426 4.8681712 0 0 0 0 30.763193
-3.1221199 -5.987999 4.8435822 0 0 0 0 30.768141
-3.2732918 -5.7450552 4.8229585 0 0 0 0 30.773085
-3.4174957 -5.4660926 4.7883635 0 0 0 0 30.778032
-2.840899 -6.3568621 4.9020061 0 0 0 0 30.78298
-3.0001025 -6.0829058 4.8644185 0 0 0 0 30.787928
-3.1562781 -5.8429561 4.8357935 0 0 0 0 30.792875
-3.3224499 -5.5930228 4.8181853 0 0 0 0 30.797823
-2.707891 -6.4377661 4.9248528 0 0 0 0 30.802767
-2.8800812 -6.1798191 4.8902574 0 0 0 0 30.807714
-3.046247 -5.953876 4.8626246 0 0 0 0 30.812662
-3.2194161 -5.7129407 4.8400111 0 0 0 0 30.81761
-2.5748816 -6.5186734 4.9507022 0 0 0 0 30.822557
-2.751076 -6.2637196 4.907105 0 0 0 0 30.827501
-2.9292247 -6.0567884 4.8854613 0 0 0 0 30.832449
-3.1083944 -5.8218503 4.8568439 0 0 0 0 30.837397
-2.4408686 -6.6035848 4.9795499 0 0 0 0 30.842344
-2.6250603 -6.3566308 4.9319491 0 0 0 0 30.847292
-2.808208 -6.1566968 4.9053001 0 0 0 0 30.85224
-2.9983652 -5.9377675 4.879674 0 0 0 0 30.857183
-2.299876 -6.6684833 4.9984145 0 0 0 0 30.862131
-2.5010309 -6.4605546 4.9677868 0 0 0 0 30.867079
-2.6881845 -6.2616138 4.932138 0 0 0 0 30.872026
-2.8793492 -6.0436726 4.8945088 0 0 0 0 30.876974
-2.162869 -6.7453952 5.0282736 0 0 0 0 30.881922
-2.371016 -6.5514693 4.9966354 0 0 0 0 30.886866
-2.5591764 -6.3535175 4.9499836 0 0 0 0 30.891813
-2.7643166 -6.1625938 4.9233375 0 0 0 0 30.896761
-2.0208714 -6.8143015 5.0531392 0 0 0 0 30.901709
-2.2380066 -6.6373816 5.0234895 0 0 0 0 30.906656
-2.4311624 -6.4504285 4.9738293 0 0 0 0 30.911604
-2.644289 -6.2785115 4.9501686 0 0 0 0 30.916548
-1.8798684 -6.8872147 5.0840054 0 0 0 0 30.921495
-2.1000049 -6.717288 5.0463486 0 0 0 0 30.926443
-2.3041396 -6.5553479 5.0046706 0 0 0 0 30.931391
-2.5202689 -6.3884244 4.9730058 0 0 0 0 30.936338
-1.7338725 -6.9431229 5.1038775 0 0 0 0 30.937582
-1.9609931 -6.7942042 5.0712042 0 0 0 0 30.942526
-2.1681216 -6.6452637 5.0275145 0 0 0 0 30.947474
-2.3922389 -6.4963455 4.9978371 0 0 0 0 30.952421
-1.5898727 -7.0120378 5.1357508 0 0 0 0 30.957369
-1.8199891 -6.8751159 5.0990658 0 0 0 0 30.962317
-2.0341074 -6.7421799 5.0563645 0 0 0 0 30.96726
-2.2602193 -6.6062589 5.023674 0 0 0 0 30.972208
-1.4418838 -7.0699468 5.1626339 0 0 0 0 30.977156
-1.6769898 -6.9510269 5.1259336 0 0 0 0 30.982103
-1.8960932 -6.8390965 5.087214 0 0 0 0 30.987051
-2.1262033 -6.7121716 5.0495162 0 0 0 0 30.991999
-1.2928957 -7.1268568 5.1905203 0 0 0 0 30.996943
-1.5309913 -7.0249391 5.1548047 0 0 0 0 31.00189
-1.752095 -6.9210019 5.109077 0 0 0 0 31.006838
-1.9832022 -6.8050728 5.0663667 0 0 0 0 31.011786
-1.1429149 -7.1757655 5.2154164 0 0 0 0 31.016733
-1.3839962 -7.0958509 5.1826806 0 0 0 0 31.021681
-1.6080836 -7.0149193 5.141932 0 0 0 0 31.026625
-1.8441807 -6.9159927 5.1002073 0 0 0 0 31.031572
-0.99093169 -7.2266769 5.2433119 0 0 0 0 31.03652
-1.2340044 -7.1627626 5.2105608 0 0 0 0 31.041468
-1.4610777 -7.1038346 5.1727924 0 0 0 0 31.046415
-1.7001642 -7.0229101 5.1320515 0 0 0 0 31.051363
-0.83894908 -7.2755914 5.2732129 0 0 0 0 31.056307
-1.0810175 -7.2246714 5.2364464 0 0 0 0 31.061255
-1.3090829 -7.1807437 5.1986632 0 0 0 0 31.066202
-1.5471693 -7.1098104 5.1499109 0 0 0 0 31.07115
-0.70079625 -7.4906268 5.4259734 0 0 0 0 31.076097
-0.92802322 -7.2935886 5.2693291 0 0 0 0 31.081041
-1.1540915 -7.2556505 5.222537 0 0 0 0 31.085989
-1.397151 -7.2177315 5.1877565 0 0 0 0 31.090937
-0.54970229 -7.6516194 5.5397792 0 0 0 0 31.095884
-0.79878759 -7.6016788 5.478014 0 0 0 0 31.100832
-0.99809259 -7.3365655 5.2544084 0 0 0 0 31.10578
-1.240145 -7.3156433 5.2176094 0 0 0 0 31.110723
-0.38771704 -7.7035403 5.5796804 0 0 0 0 31.115671
-0.63776302 -7.7026181 5.5388694 0 0 0 0 31.120619
-0.86884058 -7.6736631 5.4720697 0 0 0 0 31.125566
-1.077158 -7.3925438 5.2364812 0 0 0 0 31.130514
-0.22274147 -7.7464552 5.6135902 0 0 0 0 31.135462
-0.47177958 -7.7625308 5.5717616 0 0 0 0 31.140406
-0.70281869 -7.7805948 5.5269184 0 0 0 0 31.145353
-0.91713166 -7.5094743 5.2863226 0 0 0 0 31.150301
-0.057778392 -7.7753654 5.6405158 0 0 0 0 31.155249
-0.30280995 -7.8074365 5.5966692 0 0 0 0 31.160196
-0.53084415 -7.8394957 5.54881 0 0 0 0 31.165144
-0.77586955 -7.8755708 5.5109582 0 0 0 0 31.170088
0.10719454 -7.8122854 5.6774373 0 0 0 0 31.175035
-0.13183178 -7.8593502 5.6305718 0 0 0 0 31.179983
-0.3558563 -7.911407 5.5826912 0 0 0 0 31.184931
-0.5998649 -7.9744864 5.5508132 0 0 0 0 31.189878
0.27515712 -7.8391995 5.7073684 0 0 0 0 31.194822
0.03914991 -7.9152689 5.6684742 0 0 0 0 31.19977
-0.17887141 -7.9783192 5.6175785 0 0 0 0 31.204718
-0.41687641 -8.0563908 5.5806828 0 0 0 0 31.209665
0.44311824 -7.8631153 5.7383056 0 0 0 0 31.214613
0.21412201 -7.9601827 5.7013869 0 0 0 0 31.219561
0.00013142191 -8.0652456 5.6674514 0 0 0 0 31.224504
-0.23187961 -8.1463032 5.6195478 0 0 0 0 31.229452
0.61407942 -7.8860331 5.771244 0 0 0 0 31.2344
0.3911038 -8.0141058 5.7442942 0 0 0 0 31.239347
0.18310648 -8.1221542 5.6983509 0 0 0 0 31.244295
-0.042890396 -8.2272139 5.6554213 0 0 0 0 31.249243
0.7850498 -7.9179602 5.8131776 0 0 0 0 31.254187
0.56907177 -8.0530214 5.7782164 0 0 0 0 31.259134
0.3690826 -8.1780672 5.733253 0 0 0 0 31.264082
0.15109874 -8.3081245 5.693296 0 0 0 0 31.26903
0.95701581 -7.9438868 5.8541188 0 0 0 0 31.273977
0.75003332 -8.0839357 5.8091469 0 0 0 0 31.278925
0.5580641 -8.2399845 5.7741513 0 0 0 0 31.283869
0.34808424 -8.3840342 5.7311773 0 0 0 0 31.288816
1.1299645 -7.9498043 5.88308 0 0 0 0 31.293764
0.93099695 -8.1158533 5.84408 0 0 0 0 31.298712
0.75003636 -8.2908983 5.8100615 0 0 0 0 31.303659
0.54906958 -8.4599466 5.7710595 0 0 0 0 31.308603
1.3029186 -7.9607277 5.9180388 0 0 0 0 31.313551
1.1169636 -8.1497755 5.8840117 0 0 0 0 31.318499
0.94500738 -8.3388128 5.8479748 0 0 0 0 31.323446
0.7550565 -8.5368614 5.8149419 0 0 0 0 31.328394
1.4768721 -7.9706531 5.9540014 0 0 0 0 31.333342
1.3019247 -8.1766958 5.9209528 0 0 0 0 31.338285
1.1439866 -8.3967352 5.8938818 0 0 0 0 31.343233
0.96403182 -8.598772 5.852839 0 0 0 0 31.348181
1.6508142 -7.9655738 5.9829793 0 0 0 0 31.353128
1.4918915 -8.2096214 5.964889 0 0 0 0 31.358076
1.3429445 -8.4276466 5.9258146 0 0 0 0 31.363024
1.17801 -8.6646852 5.8947344 0 0 0 0 31.367968
1.8287722 -7.9775071 6.0269432 0 0 0 0 31.372915
1.6788338 -8.2125349 5.9908557 0 0 0 0 31.377863
1.5459037 -8.4595604 5.9607482 0 0 0 0 31.382811
1.3969973 -8.7386074 5.9486237 0 0 0 0 31.387758
1.9675854 -7.8233542 5.9460707 0 0 0 0 31.392706
1.8707942 -8.2354622 6.0338058 0 0 0 0 31.39765
1.7508688 -8.4964819 6.0036798 0 0 0 0 31.402597
1.6179706 -8.7965221 5.9925289 0 0 0 0 31.407545
2.0951622 -7.658452 5.8637705 0 0 0 0 32.036667
1.995236 -7.9824829 5.879612 0 0 0 0 32.041611
1.9604266 -8.5456038 6.0602765 0 0 0 0 32.046555
1.8404794 -8.8456144 6.0371413 0 0 0 0 32.051506
2.2721117 -7.6724153 5.9157853 0 0 0 0 32.05645
2.172157 -7.9494166 5.8866587 0 0 0 0 32.061401
2.0892091 -8.2414198 5.867517 0 0 0 0 32.066345
2.0684254 -8.8865566 6.0791283 0 0 0 0 32.071289
2.4450488 -7.6613703 5.9518209 0 0 0 0 32.076241
2.3611012 -7.9603715 5.9296756 0 0 0 0 32.081184
2.2971582 -8.2733736 5.914516 0 0 0 0 32.086136
2.2152154 -8.5953751 5.8943567 0 0 0 0 32.09108
2.6169844 -7.6453271 5.9878621 0 0 0 0 32.096024
2.5540421 -7.9653263 5.9706988 0 0 0 0 32.100975
2.5051022 -8.2933245 5.9575267 0 0 0 0 32.105919
2.4491754 -8.6593342 5.958333 0 0 0 0 32.11087
2.7909193 -7.6282845 6.0239062 0 0 0 0 32.115814
2.7449803 -7.9632821 6.0107298 0 0 0 0 32.120766
2.7150407 -8.3012753 5.9965472 0 0 0 0 32.12571
2.6731098 -8.6682749 5.9883509 0 0 0 0 32.130653
2.9598486 -7.5982404 6.0539622 0 0 0 0 32.135605
2.9369149 -7.954237 6.0467677 0 0 0 0 32.140549
2.9319863 -8.324234 6.0485601 0 0 0 0 32.1455
2.9130588 -8.7102299 6.0433474 0 0 0 0 32.150444
3.1688211 -7.6592364 6.1599522 0 0 0 0 32.155388
3.1258442 -7.9301901 6.0778189 0 0 0 0 32.160339
3.1429181 -8.3151836 6.0815983 0 0 0 0 32.165283
3.1369836 -8.6951694 6.0643878 0 0 0 0 32.170235
3.4238334 -7.8092685 6.3418794 0 0 0 0 32.175179
3.4479129 -8.219264 6.3526435 0 0 0 0 32.180122
3.4889929 -8.6362562 6.3623996 0 0 0 0 32.185074
3.5080652 -9.0502396 6.3501644 0 0 0 0 32.190018
3.6107686 -7.7942371 6.3939304 0 0 0 0 32.194969
3.6478381 -8.1912193 6.3867021 0 0 0 0 32.199913
3.7159243 -8.6312132 6.4084396 0 0 0 0 32.204865
3.7619991 -9.062192 6.3991909 0 0 0 0 32.209808
3.7766817 -7.7281895 6.408021 0 0 0 0 32.214752
3.8557701 -8.1761847 6.4367533 0 0 0 0 32.219704
3.9528601 -8.6351757 6.465476 0 0 0 0 32.224648
4.016932 -9.0701494 6.4512229 0 0 0 0 32.229599
3.9566064 -7.6861539 6.445096 0 0 0 0 32.234543
4.0476861 -8.1221371 6.4578357 0 0 0 0 32.239487
4.1677752 -8.5881252 6.4885516 0 0 0 0 32.244438
4.2788639 -9.0741072 6.5052595 0 0 0 0 32.249382
4.1375313 -7.6431198 6.4841733 0 0 0 0 32.254333
4.2536116 -8.0901003 6.4999037 0 0 0 0 32.259277
4.4017019 -8.5680847 6.5346093 0 0 0 0 32.264229
4.5447955 -9.0770683 6.5633006 0 0 0 0 32.269173
4.3114514 -7.5870848 6.5152617 0 0 0 0 32.274117
4.4635377 -8.0580683 6.5469732 0 0 0 0 32.279068
4.6326246 -8.536047 6.5776787 0 0 0 0 32.284012
4.8087206 -9.0610266 6.6123567 0 0 0 0 32.288963
4.4883723 -7.5320516 6.5493517 0 0 0 0 32.293907
4.662456 -8.0040312 6.5800614 0 0 0 0 32.298851
4.8685484 -8.5040121 6.6257501 0 0 0 0 32.303802
5.0766473 -9.0479927 6.6714144 0 0 0 0 32.308746
4.6662936 -7.4750218 6.5864444 0 0 0 0 32.313698
4.893393 -7.9970126 6.6551185 0 0 0 0 32.318642
5.1054721 -8.4709806 6.677825 0 0 0 0 32.323586
5.3495717 -9.0259581 6.7274809 0 0 0 0 32.328537
4.8462157 -7.4189954 6.6285386 0 0 0 0 32.333481
5.0843039 -7.917974 6.677228 0 0 0 0 32.338432
5.347394 -8.4319496 6.7299056 0 0 0 0 32.343376
5.6164894 -8.9859209 6.7755618 0 0 0 0 32.348328
5.0311389 -7.3649716 6.6736326 0 0 0 0 32.353271
5.2882214 -7.8569436 6.7153273 0 0 0 0 32.358215
5.5843124 -8.3809195 6.7759976 0 0 0 0 32.363167
5.9014139 -8.961894 6.8426347 0 0 0 0 32.368111
5.2050567 -7.291944 6.7067418 0 0 0 0 32.373062
5.4881363 -7.7839122 6.748436 0 0 0 0 32.378006
5.8252306 -8.3248901 6.8250947 0 0 0 0 32.38295
6.1403136 -8.8618488 6.8567624 0 0 0 0 32.387901
5.3799739 -7.2169185 6.7408543 0 0 0 0 32.392845
5.6980553 -7.7198882 6.7945409 0 0 0 0 32.397797
6.034133 -8.2218504 6.8392272 0 0 0 0 32.40274
6.208137 -8.5207319 6.6850581 0 0 0 0 32.407692
5.5578933 -7.144897 6.7809658 0 0 0 0 32.412636
5.9389858 -7.6898789 6.8746233 0 0 0 0 32.41758
6.0669622 -7.8857369 6.661521 0 0 0 0 32.422531
6.4920621 -8.4827147 6.7581468 0 0 0 0 32.427475
5.7408128 -7.0738778 6.825078 0 0 0 0 32.432426
5.8877974 -7.2927418 6.6269598 0 0 0 0 32.43737
6.3288922 -7.8527279 6.7416077 0 0 0 0 32.442314
6.768981 -8.424695 6.819252 0 0 0 0 32.447266
5.7906814 -6.8427997 6.7173014 0 0 0 0 32.452209
6.093719 -7.2227254 6.677073 0 0 0 0 32.457161
6.5518045 -7.7607031 6.7777362 0 0 0 0 32.462105
7.0178876 -8.3236666 6.8523884 0 0 0 0 32.467049
5.8455586 -6.6277299 6.6235137 0 0 0 0 32.472
6.2886353 -7.1327052 6.7132006 0 0 0 0 32.476944
6.7807183 -7.6716833 6.8218651 0 0 0 0 32.481888
7.5888977 -8.5787516 7.1912885 0 0 0 0 32.486839
6.0284843 -6.5577211 6.678628 0 0 0 0 32.491783
6.4875531 -7.0456891 6.7553282 0 0 0 0 32.496735
6.9856248 -7.5506563 6.8420167 0 0 0 0 32.501678
7.8628035 -8.4757309 7.2404323 0 0 0 0 32.50663
6.7115574 -6.9757757 6.8198104 0 0 0 0 32.231316
7.510797 -7.7568088 7.168169 0 0 0 0 32.236267
8.1489439 -8.3757458 7.2966695 0 0 0 0 32.241211
6.4263825 -6.4358292 6.8142886 0 0 0 0 32.246162
7.7547059 -7.6527834 7.2212954 0 0 0 0 32.256058
8.4288473 -8.2627182 7.3538017 0 0 0 0 32.261002
5.5438242 -5.3293843 5.7622638 0 0 0 0 32.265945
8.0026169 -7.5477624 7.2794242 0 0 0 0 32.275841
8.7007475 -8.1356907 7.4049468 0 0 0 0 32.280792
6.6731777 -6.156755 6.8026118 0 0 0 0 32.285736
8.2135115 -7.401732 7.3055882 0 0 0 0 32.295631
8.9896536 -8.0166693 7.4700861 0 0 0 0 32.300575
6.8160863 -6.0347295 6.8187594 0 0 0 0 32.305527
7.7262969 -6.7497683 7.2021699 0 0 0 0 32.310471
8.4544172 -7.2787132 7.3597336 0 0 0 0 32.315414
9.2775555 -7.8856506 7.5342355 0 0 0 0 32.320366
7.3451419 -6.2388492 7.2176371 0 0 0 0 32.32531
7.9242048 -6.62675 7.2443185 0 0 0 0 32.330261
8.6943235 -7.147696 7.4128866 0 0 0 0 32.335205
9.5464516 -7.7336297 7.5844049 0 0 0 0 32.340157
8.1231136 -6.4987345 7.2894716 0 0 0 0 32.350044
8.9342289 -7.0116825 7.4690447 0 0 0 0 32.354996
9.8163481 -7.5726118 7.6365809 0 0 0 0 32.35994
8.3370256 -6.3777251 7.3466191 0 0 0 0 32.369835
9.1351213 -6.8386588 7.4912338 0 0 0 0 32.374779
10.075241 -7.3995953 7.6847687 0 0 0 0 32.37973
7.4567499 -5.5796714 6.9663281 0 0 0 0 32.384674
8.5059252 -6.2197046 7.3677983 0 0 0 0 32.389626
9.3770266 -6.6936502 7.5514007 0 0 0 0 32.394569
10.35714 -7.2345858 7.74895 0 0 0 0 32.399521
7.6186676 -5.4606624 7.0084758 0 0 0 0 32.404465
8.7178364 -6.086699 7.4259567 0 0 0 0 32.409409
9.5999269 -6.5296407 7.5995836 0 0 0 0 32.41436
10.633037 -7.0595794 7.81214 0 0 0 0 32.419304
7.7785845 -5.3366542 7.0496278 0 0 0 0 32.424255
8.5046387 -5.6685734 7.1303473 0 0 0 0 32.429199
9.8158264 -6.3566308 7.6427746 0 0 0 0 32.434143
10.861923 -6.8465652 7.8443618 0 0 0 0 32.439095
7.9224973 -5.1986423 7.0767913 0 0 0 0 32.444038
8.72756 -5.5475788 7.2074957 0 0 0 0 32.44899
10.031725 -6.1766229 7.6869702 0 0 0 0 32.453934
10.912774 -6.5245156 7.7526722 0 0 0 0 32.458878
8.0674114 -5.0596328 7.1069565 0 0 0 0 32.463829
8.8994694 -5.3895717 7.2436748 0 0 0 0 32.468773
10.234623 -5.9866161 7.7241755 0 0 0 0 32.473717
10.952628 -6.2004681 7.6589832 0 0 0 0 32.478668
8.2133265 -4.9196258 7.1401224 0 0 0 0 32.483612
9.0993843 -5.2435732 7.3018446 0 0 0 0 32.488564
10.470528 -5.8076186 7.7883706 0 0 0 0 32.493507
11.231532 -6.0124774 7.7391839 0 0 0 0 32.498459
8.3472385 -4.7676163 7.1622968 0 0 0 0 32.503403
9.2752953 -5.0785704 7.3420286 0 0 0 0 32.508347
10.171335 -5.3444996 7.4627929 0 0 0 0 32.513298
11.46643 -5.7924781 7.7874103 0 0 0 0 32.518242
8.5011568 -4.626616 7.2054639 0 0 0 0 32.523193
9.4081984 -4.8885603 7.3542328 0 0 0 0 32.528137
10.452255 -5.192522 7.5709658 0 0 0 0 32.533081
11.675323 -5.5564785 7.8246489 0 0 0 0 32.538033
8.6350718 -4.471611 7.2336411 0 0 0 0 32.542976
9.5761108 -4.7155604 7.394424 0 0 0 0 32.547928
10.647161 -4.9915252 7.6161776 0 0 0 0 32.552872
11.913223 -5.3284888 7.8848805 0 0 0 0 32.557816
8.7559862 -4.3076048 7.2528253 0 0 0 0 32.562767
9.7320213 -4.5325613 7.4286218 0 0 0 0 32.567711
10.849068 -4.7885327 7.6683903 0 0 0 0 32.572662
12.104117 -5.0754924 7.9171324 0 0 0 0 32.577606
8.8929033 -4.1486039 7.2850051 0 0 0 0 32.582558
9.8779316 -4.3415613 7.4568257 0 0 0 0 32.587502
11.000969 -4.5595336 7.6906233 0 0 0 0 32.592445
12.285012 -4.8114967 7.9443903 0 0 0 0 32.597397
9.0308208 -3.9876056 7.3201861 0 0 0 0 32.602341
10.063848 -4.1635723 7.5160193 0 0 0 0 32.607292
11.182877 -4.3415427 7.7358465 0 0 0 0 32.612236
12.516914 -4.5645151 8.0106354 0 0 0 0 32.61718
9.1487379 -3.8146038 7.3413758 0 0 0 0 32.622131
10.183757 -3.9565706 7.5292344 0 0 0 0 32.627075
11.330781 -4.1035466 7.7590842 0 0 0 0 32.632027
12.701814 -4.2965279 8.0498953 0 0 0 0 32.636971
9.2706566 -3.6426053 7.3685646 0 0 0 0 32.641922
10.309669 -3.7475722 7.5494494 0 0 0 0 32.646866
11.491689 -3.8695576 7.7973185 0 0 0 0 32.65181
12.860711 -4.0125389 8.0761652 0 0 0 0 32.656761
9.3975763 -3.4706092 7.4007525 0 0 0 0 32.661705
10.460585 -3.5465827 7.5916581 0 0 0 0 32.666656
11.658598 -3.6335719 7.8415523 0 0 0 0 32.6716
13.024613 -3.7315543 8.111433 0 0 0 0 32.676544
9.4914942 -3.2826076 7.4109511 0 0 0 0 32.681496
10.5915 -3.3375919 7.6238728 0 0 0 0 32.68644
11.799507 -3.3865833 7.8717942 0 0 0 0 32.691391
13.38053 -3.4936078 8.2666674 0 0 0 0 32.696335
9.6121693 -3.1025593 7.4407187 0 0 0 0 32.456497
10.709189 -3.1174908 7.6435609 0 0 0 0 32.461441
11.948218 -3.1364353 7.9093833 0 0 0 0 32.466393
13.584281 -3.2064016 8.3311205 0 0 0 0 32.471336
10.078141 -3.0226488 7.7388034 0 0 0 0 32.47628
10.843099 -2.902498 7.680779 0 0 0 0 32.481232
12.066116 -2.8754404 7.9296379 0 0 0 0 32.486176
13.788177 -2.9144258 8.401391 0 0 0 0 32.491127
10.179051 -2.823648 7.7570124 0 0 0 0 32.496071
10.932002 -2.6704967 7.6870122 0 0 0 0 32.501015
12.189017 -2.6144509 7.9588904 0 0 0 0 32.505966
13.940069 -2.6034439 8.44168 0 0 0 0 32.51091
10.158944 -2.5906191 7.6862555 0 0 0 0 32.515862
11.038911 -2.4425039 7.7132397 0 0 0 0 32.520805
12.291918 -2.3444593 7.97715 0 0 0 0 32.525757
13.955949 -2.2684441 8.4079981 0 0 0 0 32.530701
10.164845 -2.3675997 7.6394873 0 0 0 0 32.535645
11.141821 -2.2095108 7.7364697 0 0 0 0 32.540596
12.404822 -2.0754738 8.0084066 0 0 0 0 32.54554
13.983834 -1.9344481 8.3843107 0 0 0 0 32.550491
10.173751 -2.1465833 7.5987153 0 0 0 0 32.555435
11.245733 -1.9785216 7.7656975 0 0 0 0 32.560379
12.516728 -1.8034903 8.0416632 0 0 0 0 32.565331
13.163652 -1.5093148 7.8627691 0 0 0 0 32.570274
10.185659 -1.9285692 7.5619388 0 0 0 0 32.575226
11.338646 -1.7375315 7.7889309 0 0 0 0 32.58017
12.613635 -1.526507 8.0699234 0 0 0 0 32.585114
14.560661 -1.3225548 8.6648417 0 0 0 0 32.590065
