# .PCD v0.7 - Point Cloud Data file format
VERSION 0.7
FIELDS x y z normal_x normal_y normal_z intensity curvature
SIZE 4 4 4 4 4 4 4 4
TYPE F F F F F F F F
COUNT 1 1 1 1 1 1 1 1
WIDTH 978
HEIGHT 1
VIEWPOINT 0 0 0 1 0 0 0
POINTS 978
DATA ascii
-1.2465864 -2.9705904 3.7447038 0 0 0 0 26.215576
-1.1256946 -3.5356939 3.7723193 0 0 0 0 26.220522
-1.148945 -3.3548455 3.7737761 0 0 0 0 26.22547
-1.1701519 -3.1830273 3.7612588 0 0 0 0 26.230417
-1.1873735 -3.0081718 3.7517273 0 0 0 0 26.235363
-1.0474335 -3.5770762 3.8023233 0 0 0 0 26.240311
-1.0767384 -3.3903067 3.7917712 0 0 0 0 26.245258
-1.1048998 -3.2245324 3.7802846 0 0 0 0 26.250204
-1.1330495 -3.0587361 3.7757988 0 0 0 0 26.255152
-0.96625376 -3.6084671 3.8242917 0 0 0 0 26.260099
-1.0006058 -3.4167693 3.8017325 0 0 0 0 26.265045
-1.0386888 -3.2610469 3.7952929 0 0 0 0 26.269993
-1.0728209 -3.0983031 3.7868264 0 0 0 0 26.27494
-0.88507247 -3.6398554 3.8482597 0 0 0 0 26.279886
-0.92931461 -3.4621992 3.8337605 0 0 0 0 26.284834
-0.97147 -3.2985506 3.8123031 0 0 0 0 26.28978
-1.0135664 -3.1408639 3.8028648 0 0 0 0 26.294727
-0.80095667 -3.663249 3.8651989 0 0 0 0 26.299675
-0.85413826 -3.4936466 3.8527389 0 0 0 0 26.304621
-0.90322691 -3.3390384 3.8333206 0 0 0 0 26.309568
-0.95521832 -3.1943867 3.8339381 0 0 0 0 26.314516
-0.71686065 -3.6836433 3.8831289 0 0 0 0 26.319462
-0.77798498 -3.522094 3.8707063 0 0 0 0 26.324409
-0.91431338 -3.6989243 4.2234473 0 0 0 0 26.329357
-0.98026955 -3.5573354 4.2340946 0 0 0 0 26.334303
-0.93271631 -5.4848747 5.7824512 0 0 0 0 26.087713
-0.72680235 -3.687994 4.0413384 0 0 0 0 26.092661
-0.82847452 -3.7031765 4.206532 0 0 0 0 26.097609
-0.9062441 -3.5886168 4.2382708 0 0 0 0 26.102554
-0.78953671 -5.4011955 5.6929421 0 0 0 0 26.107502
-0.89241529 -5.1481118 5.6302681 0 0 0 0 26.112448
-1.0714477 -5.3480291 6.0481639 0 0 0 0 26.117395
-0.83496541 -3.6340742 4.2592988 0 0 0 0 26.122343
-0.63181585 -5.1439853 5.4248567 0 0 0 0 26.127289
-0.80096722 -5.3319049 5.8206978 0 0 0 0 26.132236
-0.91526341 -5.1527581 5.8022799 0 0 0 0 26.137184
-1.0237943 -4.9446497 5.7587614 0 0 0 0 26.14213
-0.55520821 -5.5820045 5.8941226 0 0 0 0 26.147078
-0.69315267 -5.4418426 5.9318647 0 0 0 0 26.152025
-0.84108317 -5.4243875 6.0840139 0 0 0 0 26.156971
-0.96930146 -5.253293 6.0786428 0 0 0 0 26.161919
-0.42716101 -5.5990729 5.9219618 0 0 0 0 26.166866
-0.56189156 -5.3682451 5.8464098 0 0 0 0 26.171812
-0.67130643 -5.0616021 5.65658 0 0 0 0 26.17676
-0.84398651 -5.1918063 5.9702368 0 0 0 0 26.181707
-0.2991021 -5.6171341 5.953805 0 0 0 0 26.186653
-0.44647008 -5.4312835 5.912416 0 0 0 0 26.191601
-0.59934562 -5.425921 6.04561 0 0 0 0 26.196548
-0.7592715 -5.4115801 6.1867857 0 0 0 0 26.201494
-0.17014749 -5.6222258 5.975606 0 0 0 0 26.206442
-0.32627362 -5.4673762 5.9523292 0 0 0 0 26.21139
-0.47491142 -5.3743358 5.973238 0 0 0 0 26.216335
-0.63485456 -5.3610477 6.0974164 0 0 0 0 26.221283
-0.041146304 -5.6322947 6.0064235 0 0 0 0 26.226229
-0.20422453 -5.4855118 5.9761829 0 0 0 0 26.231176
-0.35425177 -5.34868 5.9329553 0 0 0 0 26.236124
-0.51989198 -5.3743477 6.0832648 0 0 0 0 26.24107
0.086874999 -5.6443601 6.0422497 0 0 0 0 26.246017
-0.082140602 -5.5076342 6.0060496 0 0 0 0 26.250965
-0.23806012 -5.3858333 5.964879 0 0 0 0 26.255911
-0.39942846 -5.3278146 6.0049171 0 0 0 0 26.260859
0.21480949 -5.6454563 6.0700421 0 0 0 0 26.265806
0.039947897 -5.5297484 6.0399179 0 0 0 0 26.270752
-0.11991793 -5.4169941 5.9917808 0 0 0 0 26.2757
-0.28279978 -5.3002362 5.9506364 0 0 0 0 26.280647
0.31485215 -5.178309 5.5944023 0 0 0 0 26.285593
0.16396442 -5.5428772 6.0667548 0 0 0 0 26.290541
-0.0017470386 -5.451138 6.0256925 0 0 0 0 26.295488
-0.16852371 -5.349401 5.9856009 0 0 0 0 26.300434
0.42934853 -5.1246724 5.5670481 0 0 0 0 26.305382
0.28903478 -5.5619731 6.1036096 0 0 0 0 26.310329
0.11730282 -5.4703212 6.0465569 0 0 0 0 26.315275
-0.053340845 -5.3876014 6.0085306 0 0 0 0 26.320223
0.54517972 -5.1108918 5.5848184 0 0 0 0 26.325171
0.37355348 -5.0322056 5.5378075 0 0 0 0 26.330116
0.2385022 -5.5074301 6.0884743 0 0 0 0 26.335064
0.062889345 -5.4307656 6.0424738 0 0 0 0 26.34001
0.73147744 -5.6358037 6.2001705 0 0 0 0 26.344957
0.48761624 -5.048377 5.5756745 0 0 0 0 26.349905
0.32837871 -5.0215201 5.5558071 0 0 0 0 26.354851
0.18209323 -5.4709244 6.0734038 0 0 0 0 26.359798
0.8604008 -5.632884 6.239954 0 0 0 0 26.364746
0.66389394 -5.5743942 6.1820393 0 0 0 0 26.369692
0.43825859 -5.0178299 5.558619 0 0 0 0 26.37464
0.30204636 -5.4801755 6.0742369 0 0 0 0 26.379587
0.98818964 -5.6130233 6.2646875 0 0 0 0 26.384533
0.79087162 -5.5805049 6.2168546 0 0 0 0 26.389481
0.5502314 -5.0250869 5.5754623 0 0 0 0 26.394428
0.38511121 -5.0162716 5.5526586 0 0 0 0 26.399374
1.1180999 -5.6070924 6.3094625 0 0 0 0 26.404322
0.91891199 -5.5935774 6.2636905 0 0 0 0 26.409269
0.73569924 -5.5789938 6.2048922 0 0 0 0 26.414215
0.49824658 -5.0454865 5.5815682 0 0 0 0 26.419163
1.2386612 -5.5583701 6.3081198 0 0 0 0 26.42411
1.0457993 -5.5877209 6.2914701 0 0 0 0 26.429056
0.86376649 -5.5980959 6.2427468 0 0 0 0 26.434004
0.67767429 -5.5994959 6.1940007 0 0 0 0 26.438951
1.3623592 -5.5255675 6.3278236 0 0 0 0 26.443897
1.1726665 -5.5788703 6.319242 0 0 0 0 26.448845
0.98969835 -5.6002665 6.2645526 0 0 0 0 26.453791
0.80786633 -5.6365709 6.2369075 0 0 0 0 26.458738
1.4891623 -5.5046954 6.3655605 0 0 0 0 26.463686
1.2995303 -5.5690193 6.3490119 0 0 0 0 26.468632
1.1207483 -5.6163516 6.3053951 0 0 0 0 26.473579
0.9380036 -5.6666684 6.2747927 0 0 0 0 26.478527
1.6118479 -5.4688978 6.3892593 0 0 0 0 26.483473
1.4263663 -5.5551763 6.3777704 0 0 0 0 26.48842
1.2517444 -5.6254573 6.3412175 0 0 0 0 26.493368
1.0700562 -5.6857824 6.3046432 0 0 0 0 26.498314
1.7345628 -5.4360871 6.4189687 0 0 0 0 26.503262
1.5542148 -5.5423203 6.410532 0 0 0 0 26.508209
1.3816885 -5.6275878 6.3730202 0 0 0 0 26.513155
1.1989417 -5.6839862 6.3134341 0 0 0 0 26.518103
1.8562577 -5.4002919 6.4476719 0 0 0 0 26.52305
1.6738254 -5.4996166 6.4122162 0 0 0 0 26.527996
1.5125812 -5.6227298 6.4008021 0 0 0 0 26.532944
1.3360496 -5.7090397 6.356297 0 0 0 0 26.537891
1.9769119 -5.3585138 6.47436 0 0 0 0 26.542837
1.8067816 -5.4986749 6.4660091 0 0 0 0 26.547785
1.6475815 -5.6307993 6.4456186 0 0 0 0 26.552732
1.4700067 -5.7151761 6.3801074 0 0 0 0 26.557678
2.0253949 -5.1307116 6.2778201 0 0 0 0 26.313963
1.9339635 -5.4706903 6.4930067 0 0 0 0 26.318911
1.7798767 -5.6158257 6.4706697 0 0 0 0 26.323858
1.6105316 -5.7291541 6.4182544 0 0 0 0 26.328804
2.1380234 -5.0859714 6.3015046 0 0 0 0 26.333752
2.0433536 -5.4011126 6.4716148 0 0 0 0 26.338699
1.9117156 -5.6029429 6.4984221 0 0 0 0 26.343645
1.7505744 -5.744174 6.4590802 0 0 0 0 26.348593
2.2547047 -5.0461688 6.3382006 0 0 0 0 26.35354
2.1006951 -5.2063456 6.3009081 0 0 0 0 26.358486
2.0455766 -5.5920339 6.5321784 0 0 0 0 26.363434
1.8997053 -5.7690892 6.5159245 0 0 0 0 26.368382
2.3612192 -4.9865165 6.3498497 0 0 0 0 26.373327
2.2254846 -5.1824856 6.3396416 0 0 0 0 26.378275
2.1099257 -5.3992362 6.3564682 0 0 0 0 26.383221
2.0303941 -5.7403121 6.5146289 0 0 0 0 26.388168
2.4758852 -4.9437342 6.3875427 0 0 0 0 26.393116
2.3431609 -5.1447244 6.3633432 0 0 0 0 26.398062
2.2223837 -5.3386431 6.3361044 0 0 0 0 26.403009
2.1743214 -5.7393389 6.5504031 0 0 0 0 26.407957
2.5803881 -4.8810949 6.4021897 0 0 0 0 26.412903
2.461844 -5.1069493 6.3910456 0 0 0 0 26.41785
2.3542228 -5.3227477 6.3738537 0 0 0 0 26.422798
2.2386119 -5.5395865 6.3606753 0 0 0 0 26.427744
2.6849065 -4.8194447 6.4218421 0 0 0 0 26.432692
2.5815165 -5.0671697 6.4197416 0 0 0 0 26.437639
2.482969 -5.29491 6.4015718 0 0 0 0 26.442585
2.3764453 -5.5256896 6.3874211 0 0 0 0 26.447533
2.7914712 -4.7627611 6.4495082 0 0 0 0 26.45248
2.6981449 -5.0214272 6.4444251 0 0 0 0 26.457426
2.6137431 -5.2700491 6.4342976 0 0 0 0 26.462374
2.5223975 -5.5256877 6.4331999 0 0 0 0 26.467321
2.8939838 -4.6991267 6.4711609 0 0 0 0 26.472267
2.8147714 -4.9746838 6.4711075 0 0 0 0 26.477215
2.7444913 -5.2411933 6.4670129 0 0 0 0 26.482162
2.6642168 -5.5087647 6.4639339 0 0 0 0 26.487108
2.9985437 -4.6404557 6.5018277 0 0 0 0 26.492056
2.9273453 -4.92099 6.4917755 0 0 0 0 26.497004
2.8711641 -5.202394 6.4917045 0 0 0 0 26.501949
2.8090606 -5.493804 6.5026712 0 0 0 0 26.506897
3.0960019 -4.5688787 6.5184665 0 0 0 0 26.511843
3.0399175 -4.8662949 6.5144429 0 0 0 0 26.51679
3.0008762 -5.1675534 6.5254059 0 0 0 0 26.521738
2.950819 -5.4678993 6.5313802 0 0 0 0 26.526684
3.1924732 -4.4983029 6.5381117 0 0 0 0 26.531631
3.1524849 -4.8106046 6.5371089 0 0 0 0 26.536579
3.1315701 -5.1297126 6.5590987 0 0 0 0 26.541525
3.0996573 -5.4509096 6.5751085 0 0 0 0 26.546473
3.2828839 -4.4197946 6.5497437 0 0 0 0 26.55142
3.2670636 -4.7548852 6.5667739 0 0 0 0 26.556366
3.2561774 -5.0809517 6.5807686 0 0 0 0 26.561314
3.2423873 -5.4200053 6.6058044 0 0 0 0 26.566261
3.3763437 -4.3462405 6.5713882 0 0 0 0 26.571207
3.3776119 -4.6952114 6.5914345 0 0 0 0 26.576155
3.380754 -5.0271969 6.6024246 0 0 0 0 26.581102
3.3881028 -5.3860784 6.6394892 0 0 0 0 26.586048
3.4677894 -4.2707119 6.5900321 0 0 0 0 26.590996
3.4861271 -4.6305618 6.6140842 0 0 0 0 26.595943
3.5083692 -4.9774041 6.632091 0 0 0 0 26.600889
3.5277338 -5.3412294 6.6621509 0 0 0 0 26.605837
3.5531909 -4.1892447 6.6026678 0 0 0 0 26.610785
3.5936413 -4.5649171 6.6387348 0 0 0 0 26.61573
3.6349678 -4.9246197 6.6627512 0 0 0 0 26.620678
3.6754313 -5.3032904 6.6998243 0 0 0 0 26.625624
3.6456685 -4.1156878 6.6313195 0 0 0 0 26.630571
3.7031677 -4.5002556 6.6663871 0 0 0 0 26.635519
3.7625725 -4.8718257 6.6964121 0 0 0 0 26.640465
3.8190708 -5.2574015 6.7314811 0 0 0 0 26.645412
3.7270584 -4.0312505 6.6449561 0 0 0 0 26.65036
3.8015947 -4.4227109 6.6800184 0 0 0 0 26.655306
3.8881214 -4.8110652 6.7250538 0 0 0 0 26.660254
3.9657104 -5.2104874 6.7671328 0 0 0 0 26.665201
3.7973418 -3.9339464 6.6385713 0 0 0 0 26.670147
3.900012 -4.3431702 6.6936455 0 0 0 0 26.675095
4.0106363 -4.745338 6.7506871 0 0 0 0 26.680042
4.1052527 -5.15066 6.7907577 0 0 0 0 26.684988
3.8787527 -3.8504977 6.6582146 0 0 0 0 26.689936
3.9974272 -4.2626371 6.7082739 0 0 0 0 26.694883
4.1220498 -4.6667337 6.7602992 0 0 0 0 26.699829
4.2498302 -5.0937772 6.8243866 0 0 0 0 26.704777
4.1114416 -3.9123354 6.9360886 0 0 0 0 26.709724
4.1745443 -4.263207 6.858037 0 0 0 0 26.71467
4.2435417 -4.5960145 6.7889237 0 0 0 0 26.719618
4.3802681 -5.0190487 6.8379841 0 0 0 0 26.724566
4.1867728 -3.8179638 6.946712 0 0 0 0 26.729511
4.3576617 -4.2627306 7.0137911 0 0 0 0 26.734459
4.5294619 -4.6955113 7.0748324 0 0 0 0 26.739405
4.694325 -5.1403584 7.1289167 0 0 0 0 26.744352
4.2560763 -3.7196476 6.9523339 0 0 0 0 26.7493
4.4530187 -4.1722283 7.0283985 0 0 0 0 26.754246
4.6529045 -4.6167955 7.1034346 0 0 0 0 26.759193
4.8498816 -5.077395 7.1745191 0 0 0 0 26.764141
4.3374662 -3.6302004 6.9779677 0 0 0 0 26.769087
4.5463743 -4.08074 7.0440078 0 0 0 0 26.774035
4.7702837 -4.5291433 7.12502 0 0 0 0 26.778982
4.9963427 -5.0015306 7.2080979 0 0 0 0 26.783928
4.4006152 -3.5273352 6.978538 0 0 0 0 26.569921
4.6447139 -3.9885347 7.0665956 0 0 0 0 26.574869
4.8947721 -4.4436917 7.1566257 0 0 0 0 26.579815
5.1368976 -4.9129457 7.2327065 0 0 0 0 26.584763
4.4729538 -3.432951 6.9981618 0 0 0 0 26.58971
4.740068 -3.8969953 7.0901942 0 0 0 0 26.594656
5.0091157 -4.3520393 7.1791949 0 0 0 0 26.599604
5.2863331 -4.8330188 7.2732606 0 0 0 0 26.604551
4.5362411 -3.3326638 7.0057821 0 0 0 0 26.609497
4.8303852 -3.8005106 7.1077867 0 0 0 0 26.614445
5.1284785 -4.2613378 7.2087631 0 0 0 0 26.619392
5.4347458 -4.7491045 7.3138075 0 0 0 0 26.624338
4.6065826 -3.2372925 7.0274105 0 0 0 0 26.629286
4.9116478 -3.6971176 7.1153731 0 0 0 0 26.634233
5.2327385 -4.1577892 7.2213154 0 0 0 0 26.639179
5.5619907 -4.644413 7.3273225 0 0 0 0 26.644127
4.6638637 -3.1350524 7.0340376 0 0 0 0 26.649075
5.0039926 -3.6015973 7.1429706 0 0 0 0 26.65402
5.3430362 -4.0571737 7.2448711 0 0 0 0 26.658968
5.7103691 -4.5535021 7.3708534 0 0 0 0 26.663914
4.7372394 -3.0416381 7.0656719 0 0 0 0 26.668861
5.0842628 -3.4972026 7.1555605 0 0 0 0 26.673809
5.4553504 -3.957535 7.2734299 0 0 0 0 26.678755
5.8456478 -4.4497256 7.3993664 0 0 0 0 26.683702
4.6637616 -2.8597925 6.8832417 0 0 0 0 26.68865
5.1635232 -3.390821 7.1671481 0 0 0 0 26.693596
5.5616174 -3.8509545 7.296979 0 0 0 0 26.698544
5.964819 -4.3321071 7.4108629 0 0 0 0 26.703491
4.6577387 -2.7251987 6.8078647 0 0 0 0 26.708437
5.2407851 -3.2834461 7.1817379 0 0 0 0 26.713385
5.6688852 -3.7433634 7.3235259 0 0 0 0 26.718332
6.1081252 -4.2282476 7.4543705 0 0 0 0 26.723278
4.7070532 -2.6250072 6.8165174 0 0 0 0 26.728226
5.3180556 -3.1760659 7.1993303 0 0 0 0 26.733173
5.7610664 -3.6249218 7.3330636 0 0 0 0 26.738119
6.2323146 -4.1095729 7.4778633 0 0 0 0 26.743067
4.7503452 -2.5218735 6.8191719 0 0 0 0 26.748014
5.3933153 -3.0667048 7.2159224 0 0 0 0 26.75296
5.858283 -3.5094233 7.3526063 0 0 0 0 26.757908
6.3464308 -3.9809985 7.4903431 0 0 0 0 26.762856
4.8057103 -2.4256098 6.8408332 0 0 0 0 26.767801
5.4615536 -2.9544084 7.2265172 0 0 0 0 26.772749
5.9474521 -3.3869998 7.3651423 0 0 0 0 26.777695
6.4706163 -3.8593197 7.5188332 0 0 0 0 26.782642
4.8460116 -2.3224957 6.8444958 0 0 0 0 26.78759
5.5197449 -2.8362067 7.2271109 0 0 0 0 26.792536
6.0466819 -3.2704737 7.3926854 0 0 0 0 26.797483
6.5797153 -3.7257783 7.5343118 0 0 0 0 26.802431
4.8873129 -2.2183709 6.8501568 0 0 0 0 26.807377
5.5829659 -2.7199471 7.2377062 0 0 0 0 26.812325
6.1237993 -3.140156 7.3972197 0 0 0 0 26.817272
6.6918249 -3.5922079 7.5547895 0 0 0 0 26.822218
4.9276357 -2.1162426 6.859827 0 0 0 0 26.827166
5.6421747 -2.6017265 7.2443032 0 0 0 0 26.832113
6.1999245 -3.0098424 7.4037585 0 0 0 0 26.837059
6.8059359 -3.4566126 7.5812621 0 0 0 0 26.842007
4.9639444 -2.0121558 6.8644991 0 0 0 0 26.846954
5.7074156 -2.4854362 7.2629008 0 0 0 0 26.8519
6.2840762 -2.8804471 7.4222927 0 0 0 0 26.856848
6.9079947 -3.3141258 7.597734 0 0 0 0 26.861795
4.996254 -1.9081005 6.867178 0 0 0 0 26.866741
5.5447059 -2.2763767 6.9965296 0 0 0 0 26.871689
6.3541865 -2.746177 7.428834 0 0 0 0 26.876637
6.980917 -3.154906 7.5851984 0 0 0 0 26.881582
5.02355 -1.8020892 6.8658605 0 0 0 0 26.88653
5.5828881 -2.1543269 6.989151 0 0 0 0 26.891476
6.4253073 -2.6118917 7.4393768 0 0 0 0 26.896423
7.1090941 -3.022166 7.6366711 0 0 0 0 26.901371
5.0568757 -1.6980132 6.8745422 0 0 0 0 26.906317
5.6411648 -2.0410781 7.0087738 0 0 0 0 26.911264
6.500443 -2.4775624 7.4579172 0 0 0 0 26.916212
7.2021079 -2.8697474 7.6531358 0 0 0 0 26.921158
5.0721464 -1.5891122 6.8612361 0 0 0 0 26.926105
5.6884027 -1.9229277 7.0183992 0 0 0 0 26.931053
6.5605221 -2.3363709 7.4614601 0 0 0 0 26.935999
7.2750592 -2.709501 7.6536078 0 0 0 0 26.940947
5.1075025 -1.4870034 6.8779259 0 0 0 0 26.945894
5.7366505 -1.804762 7.0320258 0 0 0 0 26.95084
6.6206131 -2.1951678 7.4700065 0 0 0 0 26.955788
7.3540349 -2.5501921 7.6640782 0 0 0 0 26.960735
5.1228018 -1.3800867 6.8706293 0 0 0 0 26.965681
5.770854 -1.6817235 7.0316591 0 0 0 0 26.970629
6.6927466 -2.0568514 7.4935479 0 0 0 0 26.975576
7.4410429 -2.392807 7.6855474 0 0 0 0 26.980522
5.1411176 -1.274138 6.8683333 0 0 0 0 26.98547
5.8151045 -1.5625861 7.0452933 0 0 0 0 26.990417
6.7578635 -1.9155893 7.5140939 0 0 0 0 26.995363
7.4819074 -2.2198234 7.6650348 0 0 0 0 27.000311
5.2095981 -1.1796895 6.9360085 0 0 0 0 27.005259
5.841301 -1.4376103 7.0409365 0 0 0 0 27.010204
6.502018 -1.6902554 7.1838126 0 0 0 0 27.015152
7.4254894 -2.019695 7.549572 0 0 0 0 27.020098
5.288106 -1.0861452 7.0176759 0 0 0 0 27.025045
5.8655019 -1.3126476 7.0365844 0 0 0 0 27.029993
6.5641794 -1.5529938 7.2093792 0 0 0 0 27.034939
7.3681221 -1.825557 7.4381309 0 0 0 0 27.039886
5.3595834 -0.99330872 7.0954142 0 0 0 0 27.720839
5.8875937 -1.1946709 7.0353212 0 0 0 0 27.725786
6.6180258 -1.4193177 7.2320566 0 0 0 0 27.730732
7.3905306 -1.66078 7.4157858 0 0 0 0 27.73568
5.3960276 -0.88820136 7.1261439 0 0 0 0 27.740627
5.9139042 -1.0706915 7.0400157 0 0 0 0 27.745573
6.653223 -1.2753093 7.235692 0 0 0 0 27.750521
7.4496312 -1.4966286 7.4323459 0 0 0 0 27.755468
5.4074178 -0.7793082 7.1248941 0 0 0 0 27.760414
5.930191 -0.94379133 7.0347166 0 0 0 0 27.765362
6.6864219 -1.1303105 7.2403307 0 0 0 0 27.770309
7.5017228 -1.3305269 7.4449124 0 0 0 0 27.775255
5.4208193 -0.67039019 7.1296439 0 0 0 0 27.780203
5.9615269 -0.82076293 7.0494123 0 0 0 0 27.785151
6.7086 -0.98239356 7.2359772 0 0 0 0 27.790096
7.5087347 -1.1567615 7.4185138 0 0 0 0 27.795044
5.4181948 -0.55960143 7.1164093 0 0 0 0 27.79999
6.04597 -0.7022894 7.1320624 0 0 0 0 27.804937
6.7267842 -0.83449858 7.2316313 0 0 0 0 27.809885
7.5177584 -0.98297554 7.3961167 0 0 0 0 27.814831
5.4255991 -0.45072785 7.1161704 0 0 0 0 27.819778
6.1464386 -0.58368766 7.2346969 0 0 0 0 27.824726
6.7479863 -0.68757367 7.2332869 0 0 0 0 27.829672
7.5758801 -0.8148005 7.4276814 0 0 0 0 27.83462
5.4250002 -0.34191364 7.1089425 0 0 0 0 27.839567
6.2088218 -0.45739555 7.2943587 0 0 0 0 27.844513
6.7511668 -0.53878039 7.2199607 0 0 0 0 27.849461
7.613976 -0.64376944 7.4442649 0 0 0 0 27.854408
5.4254045 -0.23208435 7.1057134 0 0 0 0 27.859354
6.2061043 -0.32662091 7.282084 0 0 0 0 27.864302
6.7503471 -0.38901031 7.2056394 0 0 0 0 27.869249
7.5719652 -0.46733868 7.3859277 0 0 0 0 27.874195
5.4238219 -0.12427022 7.1004925 0 0 0 0 27.879143
6.2093964 -0.19479308 7.2788019 0 0 0 0 27.88409
6.7655668 -0.24110608 7.2123079 0 0 0 0 27.889036
7.5259666 -0.29192603 7.3276 0 0 0 0 27.893984
5.4182367 -0.015479126 7.094276 0 0 0 0 27.898932
6.2106986 -0.063975617 7.275528 0 0 0 0 27.903877
6.7687707 -0.09128879 7.2089877 0 0 0 0 27.908825
7.462975 -0.11862244 7.2592983 0 0 0 0 27.913771
5.4216795 0.091387637 7.1000562 0 0 0 0 27.918718
6.1969976 0.065733224 7.2592745 0 0 0 0 27.923666
6.7599812 0.056445025 7.1966882 0 0 0 0 27.928612
7.365972 0.051435426 7.1600451 0 0 0 0 27.933559
5.4070997 0.19911365 7.085856 0 0 0 0 27.938507
6.1812954 0.19643021 7.2420239 0 0 0 0 27.943453
6.7381883 0.20409109 7.175406 0 0 0 0 27.9484
7.2680068 0.21650331 7.0648069 0 0 0 0 27.953348
5.3905268 0.3058255 7.0696616 0 0 0 0 27.958294
6.1475954 0.32399544 7.2078023 0 0 0 0 27.963242
6.720408 0.3517755 7.1611214 0 0 0 0 27.968189
7.2091103 0.378876 7.0115352 0 0 0 0 27.973135
5.3859687 0.4146446 7.0724521 0 0 0 0 27.978083
6.0998898 0.45045561 7.1586003 0 0 0 0 27.98303
6.6976371 0.49843064 7.1448474 0 0 0 0 27.987976
7.1512299 0.54026884 6.9632668 0 0 0 0 27.992924
5.3844261 0.5224933 7.0812426 0 0 0 0 27.997871
6.0471931 0.57589072 7.1084085 0 0 0 0 28.002817
6.6858878 0.6451782 7.1435637 0 0 0 0 28.007765
7.0443501 0.69331247 6.8710737 0 0 0 0 28.012712
5.3658757 0.62820631 7.0690589 0 0 0 0 28.017658
6.0095339 0.69945186 7.0782061 0 0 0 0 28.022606
6.6661391 0.79187393 7.1372914 0 0 0 0 28.027554
6.9845214 0.84871924 6.8298259 0 0 0 0 28.032499
5.3353205 0.73282915 7.0438924 0 0 0 0 28.037447
5.9558706 0.82089442 7.0310283 0 0 0 0 28.042393
6.6484079 0.93759483 7.1370215 0 0 0 0 28.04734
6.9097013 1.0010254 6.7766042 0 0 0 0 28.052288
5.3147793 0.83853668 7.0327144 0 0 0 0 28.057234
5.9072266 0.94138378 6.9918489 0 0 0 0 28.062181
6.6346822 1.0853573 7.1457453 0 0 0 0 28.067129
6.827908 1.1482912 6.7194037 0 0 0 0 28.072075
5.2952485 0.94426411 7.0275364 0 0 0 0 28.077023
5.8666024 1.0619482 6.9666629 0 0 0 0 28.08197
6.5759516 1.224786 7.1075392 0 0 0 0 28.086916
6.7421379 1.2925435 6.6632166 0 0 0 0 28.091864
5.2707248 1.0479513 7.0153704 0 0 0 0 28.096811
5.8169842 1.1804491 6.9324932 0 0 0 0 28.101757
6.5192385 1.3632417 7.075335 0 0 0 0 28.106705
6.737381 1.4533951 6.6899071 0 0 0 0 28.111652
5.2442055 1.1516297 7.0032091 0 0 0 0 28.116598
5.7673817 1.2969571 6.9003291 0 0 0 0 28.121546
6.4665408 1.5017405 7.0521283 0 0 0 0 28.126493
6.6806445 1.6008782 6.6686859 0 0 0 0 28.131439
5.2146888 1.2552921 6.9900517 0 0 0 0 28.136387
5.7357912 1.4176141 6.8931389 0 0 0 0 28.141335
6.4058557 1.6371863 7.0219398 0 0 0 0 28.14628
6.5109434 1.718556 6.5386548 0 0 0 0 28.151228
5.1891828 1.3589894 6.982892 0 0 0 0 28.156174
5.690207 1.5351737 6.8729725 0 0 0 0 28.161121
6.3521886 1.7726969 7.0037451 0 0 0 0 28.166069
6.4682355 1.8671643 6.5384202 0 0 0 0 28.171015
5.1646805 1.4637018 6.9797306 0 0 0 0 28.175962
5.646636 1.6517544 6.8568077 0 0 0 0 28.18091
6.2995272 1.9092239 6.9895492 0 0 0 0 28.185856
6.3885617 2.0025156 6.5042572 0 0 0 0 28.190804
5.1309032 1.5675174 6.9668617 0 0 0 0 27.927547
5.5977321 1.768577 6.8358808 0 0 0 0 27.932493
6.2364774 2.0431435 6.966538 0 0 0 0 27.937441
6.3194294 2.1443789 6.4842191 0 0 0 0 27.942389
5.0913892 1.6671101 6.9477205 0 0 0 0 27.947334
5.544157 1.8800803 6.8127303 0 0 0 0 27.952282
6.1648202 2.1705291 6.9383745 0 0 0 0 27.957228
6.2387514 2.2767215 6.4560552 0 0 0 0 27.962175
5.0558825 1.7677441 6.9365749 0 0 0 0 27.967123
5.489584 1.9925859 6.7915807 0 0 0 0 27.972069
6.0951734 2.2979376 6.9142113 0 0 0 0 27.977016
6.1810722 2.4162488 6.4548516 0 0 0 0 27.981964
5.013382 1.8663251 6.9174423 0 0 0 0 27.98691
5.4430232 2.106163 6.7824211 0 0 0 0 27.991858
6.0285387 2.4253812 6.8970456 0 0 0 0 27.996805
6.0774417 2.5374386 6.4087429 0 0 0 0 28.001751
4.784976 1.89136 6.6426859 0 0 0 0 28.006699
5.379478 2.2136135 6.7552958 0 0 0 0 28.011646
5.9499226 2.5477412 6.8689075 0 0 0 0 28.016592
6.0427566 2.6871634 6.4394941 0 0 0 0 28.02154
4.7535024 1.9900489 6.6415429 0 0 0 0 28.026487
5.315948 2.3190691 6.729177 0 0 0 0 28.031433
5.8843117 2.6742144 6.8597465 0 0 0 0 28.036381
5.9701238 2.8196108 6.4333291 0 0 0 0 28.041328
4.713038 2.0856726 6.6314182 0 0 0 0 28.046274
5.2704105 2.4326794 6.7290211 0 0 0 0 28.051222
5.8067255 2.7946069 6.8406153 0 0 0 0 28.05617
5.8865132 2.9469874 6.4191895 0 0 0 0 28.061115
4.6705799 2.1802833 6.6192999 0 0 0 0 28.066063
5.2038937 2.5381346 6.7069087 0 0 0 0 28.071009
5.7261519 2.9129832 6.8194928 0 0 0 0 28.075956
5.8248901 3.08354 6.4320064 0 0 0 0 28.080904
4.6241326 2.2728689 6.6041913 0 0 0 0 28.08585
5.1423898 2.6436365 6.6927919 0 0 0 0 28.090797
5.6485896 3.0313916 6.804369 0 0 0 0 28.095745
5.7502928 3.2140071 6.4348536 0 0 0 0 28.100691
4.5746965 2.3634348 6.5860925 0 0 0 0 28.105639
5.0689049 2.7430491 6.6647038 0 0 0 0 28.110586
5.5610533 3.1437354 6.781271 0 0 0 0 28.115532
5.6707106 3.3414428 6.4337149 0 0 0 0 28.12048
4.5272608 2.4560289 6.5749879 0 0 0 0 28.125427
5.0014253 2.8445177 6.646605 0 0 0 0 28.130373
5.4685326 3.2530489 6.7541866 0 0 0 0 28.135321
5.5971274 3.4729414 6.4455619 0 0 0 0 28.140268
4.4798298 2.5486276 6.5648842 0 0 0 0 28.145214
4.9279613 2.9429526 6.6255217 0 0 0 0 28.150162
5.3690453 3.3553207 6.7221274 0 0 0 0 28.155109
5.5125737 3.5973654 6.4474387 0 0 0 0 28.160055
4.4254093 2.6381752 6.5467968 0 0 0 0 28.165003
4.8445258 3.0333097 6.5904675 0 0 0 0 28.16995
5.272563 3.4586232 6.6950636 0 0 0 0 28.174896
5.4559708 3.7410166 6.4872441 0 0 0 0 28.179844
4.3650107 2.7226825 6.522728 0 0 0 0 28.184792
4.7690768 3.1307464 6.5713911 0 0 0 0 28.189737
5.170105 3.5568912 6.6640186 0 0 0 0 28.194685
5.3664432 3.8624263 6.4911366 0 0 0 0 28.199631
4.3016186 2.8061731 6.496666 0 0 0 0 28.204578
4.7076235 3.2342999 6.5722866 0 0 0 0 28.209526
5.0726504 3.6572087 6.6419644 0 0 0 0 28.214472
5.291894 3.9939599 6.5159912 0 0 0 0 28.219419
4.399961 2.9990168 6.7191896 0 0 0 0 28.224367
4.6441746 3.3378484 6.5741858 0 0 0 0 28.229313
4.972218 3.7535112 6.6179237 0 0 0 0 28.234261
5.2193389 4.1295261 6.5498381 0 0 0 0 28.239208
4.3475423 3.0946128 6.7160921 0 0 0 0 28.244154
4.5767388 3.4393775 6.5750947 0 0 0 0 28.249102
4.8548312 3.8366911 6.5739312 0 0 0 0 28.254049
5.1368189 4.2570257 6.5747137 0 0 0 0 28.258995
4.280159 3.1790917 6.6920371 0 0 0 0 28.263943
4.516294 3.5459676 6.586987 0 0 0 0 28.26889
4.7524323 3.9279978 6.5519056 0 0 0 0 28.273836
5.0353456 4.3713923 6.5796409 0 0 0 0 28.278784
4.2057943 3.258522 6.6600013 0 0 0 0 28.283731
4.4518604 3.6505361 6.596889 0 0 0 0 28.288677
4.6390719 4.0092273 6.5169144 0 0 0 0 28.293625
4.9109592 4.4625926 6.5576444 0 0 0 0 28.298573
4.1424084 3.3480575 6.6499319 0 0 0 0 28.303518
4.392415 3.7611575 6.6187744 0 0 0 0 28.308466
4.5267229 4.0894728 6.4849253 0 0 0 0 28.313412
4.7806039 4.5467539 6.5286698 0 0 0 0 28.318359
4.0700498 3.4295216 6.6258917 0 0 0 0 28.323307
4.3259854 3.867732 6.6336765 0 0 0 0 28.328253
4.4113951 4.1657076 6.4519486 0 0 0 0 28.3332
4.6402969 4.6188493 6.4887328 0 0 0 0 28.338148
3.9957042 3.5089798 6.6018581 0 0 0 0 28.343094
4.2426114 3.9581757 6.6246338 0 0 0 0 28.348042
4.2881026 4.2328844 6.408 0 0 0 0 28.352989
4.4960237 4.6839252 6.4458156 0 0 0 0 28.357935
3.9213636 3.5884454 6.5798259 0 0 0 0 28.362883
4.1462774 4.0375261 6.5996289 0 0 0 0 28.36783
4.170814 4.3021202 6.3750415 0 0 0 0 28.372776
4.3637309 4.7570968 6.4178686 0 0 0 0 28.377724
3.8500164 3.6719482 6.5667825 0 0 0 0 28.382671
4.0449657 4.1118484 6.570641 0 0 0 0 28.387617
4.0674868 4.385479 6.3660388 0 0 0 0 28.392565
4.2204952 4.8161964 6.3779631 0 0 0 0 28.397512
3.7688763 3.748028 6.5389061 0 0 0 0 28.150963
3.9457247 4.1888914 6.5457263 0 0 0 0 28.15591
3.9880657 4.4967318 6.3969951 0 0 0 0 28.160858
4.0701923 4.8659496 6.3270836 0 0 0 0 28.165804
3.6875412 3.8234413 6.5138869 0 0 0 0 28.170752
3.8414347 4.2551708 6.5127573 0 0 0 0 28.175699
3.9325421 4.6354985 6.4718132 0 0 0 0 28.180645
3.9249871 4.916008 6.2852015 0 0 0 0 28.185593
3.6072187 3.8978724 6.4928703 0 0 0 0 28.19054
3.7371423 4.3234634 6.4837842 0 0 0 0 28.195486
3.8461418 4.7400093 6.5007429 0 0 0 0 28.200434
3.7867844 4.9681296 6.2533069 0 0 0 0 28.205381
3.5219164 3.967267 6.4648705 0 0 0 0 28.210327
3.6408353 4.3988361 6.470787 0 0 0 0 28.215275
3.7218997 4.8002076 6.4718137 0 0 0 0 28.220222
3.6903832 5.0776281 6.295239 0 0 0 0 28.225168
3.4396117 4.0396996 6.4458623 0 0 0 0 28.230116
3.5295966 4.455081 6.4318495 0 0 0 0 28.235064
3.5926938 4.8513646 6.43291 0 0 0 0 28.240009
3.638757 5.2525358 6.420979 0 0 0 0 28.244957
3.3563099 4.1121311 6.4268551 0 0 0 0 28.249903
3.4223511 4.5153732 6.4028983 0 0 0 0 28.25485
3.4684868 4.9055762 6.404994 0 0 0 0 28.259798
3.4965875 5.3006601 6.3930993 0 0 0 0 28.264744
3.2650433 4.1755037 6.3968768 0 0 0 0 28.269691
3.3161137 4.575686 6.3789468 0 0 0 0 28.274639
3.3403108 4.9527626 6.3720984 0 0 0 0 28.279585
3.3464901 5.3307171 6.3492675 0 0 0 0 28.284533
3.1777666 4.2439237 6.3778839 0 0 0 0 28.28948
3.206893 4.631978 6.3500075 0 0 0 0 28.294426
3.2071822 4.9879045 6.3272338 0 0 0 0 28.299374
3.197407 5.3587914 6.3084388 0 0 0 0 28.304321
3.0885041 4.3093314 6.3559008 0 0 0 0 28.309267
3.0867488 4.6681752 6.3001237 0 0 0 0 28.314215
3.0770538 5.025084 6.2903619 0 0 0 0 28.319162
3.0563014 5.3949418 6.2815838 0 0 0 0 28.324108
2.9952581 4.3707123 6.3289309 0 0 0 0 28.329056
2.9894855 4.7405982 6.300137 0 0 0 0 28.334003
2.9509163 5.0663056 6.2614765 0 0 0 0 28.338949
2.9082592 5.4150343 6.2407703 0 0 0 0 28.343897
2.8990402 4.4260774 6.2989774 0 0 0 0 28.348845
2.8683653 4.7728033 6.2512631 0 0 0 0 28.35379
2.8218126 5.0995059 6.2266111 0 0 0 0 28.358738
2.7652073 5.4391742 6.2079425 0 0 0 0 28.363684
2.801826 4.4814434 6.2700253 0 0 0 0 28.368631
2.7621725 4.8281598 6.2363238 0 0 0 0 28.373579
2.6967015 5.1367521 6.2017331 0 0 0 0 28.378525
2.6201904 5.4553022 6.171133 0 0 0 0 28.383472
2.7036281 4.5338092 6.2410808 0 0 0 0 28.38842
2.6420622 4.8603935 6.1934481 0 0 0 0 28.393366
2.5666289 5.1639585 6.1668816 0 0 0 0 28.398314
2.4751966 5.4664345 6.1333342 0 0 0 0 28.403261
2.6074219 4.5902066 6.2201262 0 0 0 0 28.408207
2.5269408 4.8976803 6.1615567 0 0 0 0 28.413155
2.4415455 5.196218 6.1430135 0 0 0 0 28.418102
2.3351903 5.4826183 6.1055183 0 0 0 0 28.423048
2.508239 4.6405787 6.1921878 0 0 0 0 28.427996
2.4118342 4.9319692 6.1286716 0 0 0 0 28.432943
2.312501 5.2184453 6.1101708 0 0 0 0 28.437889
2.1912479 5.4817548 6.0617423 0 0 0 0 28.442837
2.4080584 4.6919613 6.1692481 0 0 0 0 28.447784
2.3026967 4.9773326 6.1147566 0 0 0 0 28.45273
2.1815007 5.2296505 6.0693526 0 0 0 0 28.457678
2.0502973 5.4849329 6.0279536 0 0 0 0 28.462626
2.3068883 4.7413411 6.1453142 0 0 0 0 28.467571
2.1856132 5.0076246 6.0828815 0 0 0 0 28.472519
2.0564699 5.2509227 6.0435066 0 0 0 0 28.477465
1.9143246 5.4951615 6.0041437 0 0 0 0 28.482412
2.2027481 4.7837009 6.1163983 0 0 0 0 28.48736
2.0685408 5.035924 6.0520105 0 0 0 0 28.492306
1.9294648 5.2661839 6.0146751 0 0 0 0 28.497253
1.7763999 5.4933701 5.9723616 0 0 0 0 28.502201
2.0976212 4.8230567 6.0854902 0 0 0 0 28.507147
1.9554571 5.0692682 6.0311241 0 0 0 0 28.512094
1.8034732 5.2784529 5.984848 0 0 0 0 28.517042
1.6375276 5.4775548 5.9286079 0 0 0 0 28.521988
1.9944724 4.8704538 6.0675621 0 0 0 0 28.526936
1.8374151 5.0915732 6.0002666 0 0 0 0 28.531883
1.6745141 5.2827039 5.9500403 0 0 0 0 28.536829
1.5046061 5.4768147 5.9048157 0 0 0 0 28.541777
1.8863816 4.9017963 6.0326738 0 0 0 0 28.546724
1.7203844 5.1118903 5.9704108 0 0 0 0 28.55167
1.5495546 5.2879868 5.9192252 0 0 0 0 28.556618
1.3697225 5.4660544 5.873045 0 0 0 0 28.561565
1.7802726 4.9401784 6.0097675 0 0 0 0 28.566511
1.6053549 5.1332312 5.9455509 0 0 0 0 28.571459
1.4246066 5.2912788 5.8904142 0 0 0 0 28.576406
1.2368603 5.4503074 5.840282 0 0 0 0 28.581352
1.6721802 4.9745493 5.9838719 0 0 0 0 28.5863
1.4873451 5.1495562 5.9167042 0 0 0 0 28.591248
1.3016644 5.2935877 5.8626018 0 0 0 0 28.596193
1.107976 5.4416046 5.8174992 0 0 0 0 28.601141
1.5581555 4.9898572 5.9380217 0 0 0 0 28.606087
1.3703568 5.1608863 5.8858657 0 0 0 0 28.611034
1.1797168 5.298923 5.8427815 0 0 0 0 28.615982
0.9771505 5.4168711 5.7817502 0 0 0 0 28.620928
1.4501091 5.0262189 5.9211555 0 0 0 0 28.635214
1.2543925 5.1792111 5.8650451 0 0 0 0 28.640162
1.0558646 5.2901926 5.8090248 0 0 0 0 28.645107
0.85036045 5.3961449 5.7530217 0 0 0 0 28.650055
1.3410476 5.0556092 5.8992701 0 0 0 0 28.655001
1.1364324 5.1845484 5.8342185 0 0 0 0 28.659948
0.93298757 5.2765045 5.7742424 0 0 0 0 28.664896
0.72353321 5.3734608 5.7262621 0 0 0 0 28.669842
1.2290256 5.0739689 5.8664098 0 0 0 0 28.674789
1.0174876 5.1858797 5.8004007 0 0 0 0 28.679737
0.81305516 5.2798772 5.7604213 0 0 0 0 28.684683
0.59971422 5.3487949 5.699502 0 0 0 0 28.689631
1.1170031 5.093339 5.8365479 0 0 0 0 28.694578
0.90252274 5.1942563 5.7775636 0 0 0 0 28.699524
0.69219989 5.261209 5.7256451 0 0 0 0 28.704472
0.47592485 5.3161244 5.6677566 0 0 0 0 28.709419
1.0059689 5.1177387 5.8166738 0 0 0 0 28.714365
0.78658289 5.19663 5.752739 0 0 0 0 28.719313
0.57334006 5.2445641 5.6958613 0 0 0 0 28.72426
0.3551167 5.2894907 5.6449943 0 0 0 0 28.729206
0.89198148 5.1291056 5.7848282 0 0 0 0 28.734154
0.66965783 5.1949978 5.7249227 0 0 0 0 28.739101
0.45545965 5.234951 5.6770616 0 0 0 0 28.744047
0.23536418 5.2468386 5.608263 0 0 0 0 28.748995
0.77701801 5.1344676 5.7499952 0 0 0 0 28.753942
0.5537324 5.1943831 5.7011023 0 0 0 0 28.758888
0.337648 5.2053046 5.6393013 0 0 0 0 28.763836
0.11773257 5.168128 5.5355997 0 0 0 0 28.768782
0.66402972 5.1478629 5.7251439 0 0 0 0 28.773729
0.43783367 5.1867647 5.6732955 0 0 0 0 28.778677
0.22180875 5.1846986 5.6145191 0 0 0 0 28.783623
0.0031897423 5.0623827 5.4359856 0 0 0 0 28.78857
0.55006278 5.1562576 5.6993022 0 0 0 0 28.793518
0.32198641 5.1641245 5.6315169 0 0 0 0 28.798464
0.1069582 5.1681156 5.5967269 0 0 0 0 28.803411
-0.10742249 4.9777126 5.3623228 0 0 0 0 28.808359
0.43610591 5.1626587 5.6744642 0 0 0 0 28.813305
0.20805928 5.1665573 5.6196861 0 0 0 0 28.818253
-0.0067529078 5.1094565 5.536016 0 0 0 0 28.8232
-0.21409597 4.9111047 5.3086185 0 0 0 0 28.828146
0.32215801 5.1670647 5.6496291 0 0 0 0 28.833094
0.094197705 5.149961 5.5908918 0 0 0 0 28.838041
-0.11520678 4.9716592 5.3914547 0 0 0 0 28.842987
-0.31984606 4.8685651 5.2848635 0 0 0 0 28.847935
0.2072514 5.1594496 5.6138186 0 0 0 0 28.852882
-0.018571174 5.105319 5.5341501 0 0 0 0 28.857828
-0.22189826 4.9070396 5.3297443 0 0 0 0 28.862776
-0.42459673 4.826036 5.2621069 0 0 0 0 28.867723
0.092351735 5.1508455 5.5810084 0 0 0 0 28.872669
-0.12701909 4.9614949 5.3725982 0 0 0 0 28.877617
-0.32662541 4.8534613 5.2820091 0 0 0 0 28.882565
-0.52630419 4.7705026 5.2283707 0 0 0 0 28.88751
-0.021138705 5.0159926 5.415442 0 0 0 0 28.892458
-0.23474894 4.90487 5.3078713 0 0 0 0 28.897404
-0.43040001 4.814929 5.253242 0 0 0 0 28.902351
-0.62806237 4.7310128 5.2146015 0 0 0 0 28.907299
-0.13086794 4.9553242 5.3327255 0 0 0 0 28.912245
-0.3415612 4.8743153 5.2740917 0 0 0 0 28.917192
-0.53420019 4.7844205 5.2344575 0 0 0 0 28.92214
-0.72578609 4.6805224 5.1898489 0 0 0 0 28.927086
-0.23972744 4.9357562 5.2969265 0 0 0 0 28.932034
-0.44740012 4.8527937 5.2532921 0 0 0 0 28.936981
-0.63597274 4.7459149 5.2106853 0 0 0 0 28.941927
-0.8255558 4.6450667 5.1850672 0 0 0 0 28.946875
-0.34960565 4.9232121 5.2731137 0 0 0 0 28.951822
-0.55321193 4.8232656 5.2265062 0 0 0 0 28.956768
-0.73674476 4.7074223 5.188911 0 0 0 0 28.961716
-0.92128807 4.5976086 5.1683035 0 0 0 0 28.966663
-0.45949295 4.9136801 5.2532945 0 0 0 0 28.971609
-0.65600908 4.7897525 5.1987247 0 0 0 0 28.976557
-0.83753151 4.6739488 5.1751256 0 0 0 0 28.981504
-1.0150018 4.5441532 5.1465478 0 0 0 0 28.98645
-0.56834239 4.8931422 5.2254934 0 0 0 0 28.991398
-0.76183993 4.7672586 5.1849232 0 0 0 0 28.996346
-0.93630487 4.6364837 5.1593442 0 0 0 0 29.001291
-1.107718 4.4917135 5.1287875 0 0 0 0 29.006239
-0.67718005 4.8696084 5.1976976 0 0 0 0 29.011185
-0.86566025 4.741775 5.1701245 0 0 0 0 29.016132
-1.0320404 4.5870142 5.1325817 0 0 0 0 29.02108
-1.1954042 4.4292798 5.1010404 0 0 0 0 29.026026
-0.78705633 4.859108 5.1868768 0 0 0 0 29.030973
-0.96845824 4.7092886 5.1493373 0 0 0 0 29.035921
-1.1278002 4.5455699 5.1168027 0 0 0 0 29.040867
-1.284108 4.3728638 5.083281 0 0 0 0 29.045815
-0.89387816 4.831594 5.1600842 0 0 0 0 29.050762
-1.0692379 4.6718125 5.1275554 0 0 0 0 29.055708
-1.2235535 4.50213 5.1010256 0 0 0 0 29.060656
-1.3698118 4.3154607 5.063519 0 0 0 0 29.065603
-1.0027099 4.8080912 5.1412845 0 0 0 0 29.070549
-1.1690055 4.6303396 5.1027789 0 0 0 0 29.075497
-1.3132613 4.4436898 5.0702696 0 0 0 0 29.080444
-1.4545149 4.2580709 5.0467548 0 0 0 0 29.08539
-1.1085038 4.7725849 5.1115036 0 0 0 0 29.090338
-1.2677677 4.5878806 5.0810022 0 0 0 0 29.095285
-1.4060136 4.4002786 5.0594873 0 0 0 0 29.100231
-1.5382174 4.2006936 5.0329881 0 0 0 0 29.105179
-1.2117567 4.7375288 5.0873642 0 0 0 0 29.671547
-1.3641001 4.5479593 5.0637994 0 0 0 0 29.676493
-1.4924003 4.3444676 5.0362368 0 0 0 0 29.68144
-1.6136695 4.1309986 5.0066838 0 0 0 0 29.686388
-1.3195933 4.713119 5.0755439 0 0 0 0 29.691334
-1.4618806 4.5045767 5.0449986 0 0 0 0 29.696281
-1.5791453 4.2891231 5.0154448 0 0 0 0 29.701229
-1.695415 4.0776963 4.9998817 0 0 0 0 29.706175
-1.4223788 4.669704 5.0467486 0 0 0 0 29.711123
-1.556646 4.4552007 5.0212045 0 0 0 0 29.71607
-1.6668953 4.2357869 4.9996481 0 0 0 0 29.721016
-1.7721342 4.0133953 4.981092 0 0 0 0 29.725964
-1.5251669 4.6272988 5.0209503 0 0 0 0 29.730911
-1.6483951 4.3998342 4.9944153 0 0 0 0 29.735857
-1.7526412 4.180459 4.982852 0 0 0 0 29.740805
-1.8468491 3.9471047 4.9623022 0 0 0 0 29.745752
-1.6299665 4.5899048 5.0041437 0 0 0 0 29.750698
-1.7421629 4.3514791 4.976615 0 0 0 0 29.755646
-1.8343736 4.1191392 4.9600606 0 0 0 0 29.760593
-1.9245868 3.889827 4.9564986 0 0 0 0 29.765539
-1.7317502 4.5465193 4.9833431 0 0 0 0 29.770487
-1.8319135 4.2961321 4.9528208 0 0 0 0 29.775434
-1.9171163 4.0618305 4.9442616 0 0 0 0 29.78038
-1.9942997 3.8215597 4.9377046 0 0 0 0 29.785328
-1.8305109 4.4941373 4.9555526 0 0 0 0 29.790274
-1.9256837 4.2487946 4.9410157 0 0 0 0 29.795221
-1.997857 4.0035334 4.9294615 0 0 0 0 29.800169
-2.0670309 3.7603004 4.9288998 0 0 0 0 29.805115
-1.9302762 4.4437637 4.9327574 0 0 0 0 29.810062
-2.0124216 4.1884651 4.9172244 0 0 0 0 29.81501
-2.0775957 3.9442446 4.9156599 0 0 0 0 29.819956
-2.1377559 3.6960478 4.918097 0 0 0 0 29.824903
-2.0280359 4.3914027 4.9109631 0 0 0 0 29.829851
-2.0991569 4.1271424 4.895432 0 0 0 0 29.834797
-2.1593449 3.8889632 4.9088521 0 0 0 0 29.839745
-2.2044778 3.6298096 4.9062924 0 0 0 0 29.844692
-2.1247942 4.3380494 4.8891668 0 0 0 0 29.849638
-2.1889186 4.0758328 4.8856258 0 0 0 0 29.854586
-2.2350705 3.8236897 4.8920541 0 0 0 0 29.859533
-2.2691944 3.5605764 4.8914895 0 0 0 0 29.864479
-2.2215507 4.2847075 4.8723698 0 0 0 0 29.869427
-2.2756619 4.01753 4.8718257 0 0 0 0 29.874374
-2.3057876 3.7534251 4.8682575 0 0 0 0 29.87932
-2.3319087 3.4893494 4.8746858 0 0 0 0 29.884268
-2.3162942 4.2253675 4.8495784 0 0 0 0 29.889215
-2.3533766 3.9462371 4.8430367 0 0 0 0 29.894161
-2.3815253 3.6921701 4.8594499 0 0 0 0 29.899109
-2.3926265 3.419136 4.8608775 0 0 0 0 29.904057
-2.4080296 4.163043 4.8277874 0 0 0 0 29.909002
-2.4401264 3.8899503 4.8352304 0 0 0 0 29.91395
-2.4482372 3.618926 4.8366513 0 0 0 0 29.918896
-2.4533455 3.348928 4.8490677 0 0 0 0 29.923843
-2.502774 4.1047239 4.8139911 0 0 0 0 29.928791
-2.5168424 3.8186753 4.8114371 0 0 0 0 29.933737
-2.5189657 3.5526886 4.8248439 0 0 0 0 29.938684
-2.6093409 3.4077003 5.0271339 0 0 0 0 29.943632
-2.5925033 4.0394149 4.7931995 0 0 0 0 29.948578
-2.5965686 3.7514048 4.7946386 0 0 0 0 29.953526
-2.6588979 3.579428 4.9439478 0 0 0 0 29.958473
-2.6690533 3.3345027 5.016325 0 0 0 0 29.963419
-2.679224 3.9701161 4.7704096 0 0 0 0 29.968367
-2.6752999 3.6861479 4.7828345 0 0 0 0 29.973314
-2.7466667 3.5321908 4.9651217 0 0 0 0 29.97826
-2.7237601 3.2573144 4.999517 0 0 0 0 29.983208
-2.7719631 3.9088213 4.7606106 0 0 0 0 29.988155
-2.7530274 3.6188974 4.7710304 0 0 0 0 29.993101
-2.8193955 3.4659679 4.9613109 0 0 0 0 29.998049
-2.77947 3.1811311 4.9867063 0 0 0 0 30.002996
-2.8586843 3.8395388 4.7438173 0 0 0 0 30.007942
-2.8247387 3.5436561 4.7502322 0 0 0 0 30.01289
-2.8881176 3.3957546 4.9535012 0 0 0 0 30.017838
-2.835191 3.108959 4.979888 0 0 0 0 30.022783
-2.940393 3.7642684 4.7220268 0 0 0 0 30.027731
-2.8984599 3.4724228 4.7374277 0 0 0 0 30.032677
-2.9558377 3.3245499 4.947691 0 0 0 0 30.037624
-2.8879077 3.0337939 4.9700699 0 0 0 0 30.042572
-3.0221019 3.6890073 4.7042346 0 0 0 0 30.047518
-2.9731839 3.4021957 4.728621 0 0 0 0 30.052465
-3.0165465 3.2463541 4.9308834 0 0 0 0 30.057413
-2.941633 2.9616354 4.9652467 0 0 0 0 30.062359
-3.1038151 3.6147525 4.6884394 0 0 0 0 30.067307
-3.0459073 3.3309777 4.7198119 0 0 0 0 30.072254
-3.0802615 3.1711643 4.9230723 0 0 0 0 30.0772
-2.9923561 2.8874853 4.9584227 0 0 0 0 30.082148
-3.1815147 3.5345092 4.6696472 0 0 0 0 30.087095
-3.1386738 3.2807496 4.7449856 0 0 0 0 30.092041
-3.1389697 3.0919867 4.9112611 0 0 0 0 30.096989
-3.0380688 2.8073425 4.9446011 0 0 0 0 30.101936
-3.2582214 3.4562762 4.6538496 0 0 0 0 30.106882
-3.2354422 3.2315195 4.7751594 0 0 0 0 30.11183
-3.19368 3.0118196 4.8964472 0 0 0 0 30.116777
-3.0877974 2.7342064 4.9427714 0 0 0 0 30.121723
-3.3329175 3.37305 4.6360559 0 0 0 0 30.126671
-3.3342142 3.1842952 4.8113294 0 0 0 0 30.131618
-3.2543986 2.9356503 4.8916297 0 0 0 0 30.136564
-3.1345258 2.6590757 4.9369407 0 0 0 0 30.141512
-3.4064085 3.2894962 4.6187983 0 0 0 0 29.89863
-3.4267035 3.1247594 4.8350692 0 0 0 0 29.903578
-3.3067851 2.8542151 4.8783951 0 0 0 0 29.908525
-3.1768529 2.5797088 4.9267192 0 0 0 0 29.913471
-3.4780884 3.2062716 4.6050115 0 0 0 0 29.918419
-3.491385 3.0415623 4.8252749 0 0 0 0 29.923367
-3.3604786 2.7730505 4.868588 0 0 0 0 29.928312
-3.2175629 2.5015819 4.9158955 0 0 0 0 29.93326
-3.5457578 3.1180584 4.5882263 0 0 0 0 29.938206
-3.553067 2.9573758 4.8144784 0 0 0 0 29.943153
-3.4141788 2.6938944 4.8627758 0 0 0 0 29.948101
-3.2612758 2.4254601 4.9140697 0 0 0 0 29.953047
-3.614434 3.0318511 4.5754371 0 0 0 0 29.957994
-3.6137459 2.8711951 4.8036819 0 0 0 0 29.962942
-3.4658761 2.6127467 4.8569632 0 0 0 0 29.967888
-3.2979853 2.3453493 4.9032431 0 0 0 0 29.972836
-3.7091513 2.9656157 4.5976357 0 0 0 0 29.977783
-3.6764336 2.7880194 4.7988801 0 0 0 0 29.982729
-3.5115705 2.5286124 4.846149 0 0 0 0 29.987677
-3.3367019 2.2682455 4.9004116 0 0 0 0 29.992624
-3.8178866 2.908366 4.6378288 0 0 0 0 29.99757
-3.7301047 2.6968627 4.7860818 0 0 0 0 30.002518
-3.5602729 2.4474797 4.841331 0 0 0 0 30.007465
-3.3764236 2.1921415 4.8985777 0 0 0 0 30.012411
-3.9346254 2.8541117 4.6900215 0 0 0 0 30.017359
-3.7867885 2.6097064 4.7782779 0 0 0 0 30.022306
-3.6049685 2.3623571 4.8335133 0 0 0 0 30.027252
-3.4111443 2.1140501 4.8937411 0 0 0 0 30.0322
-4.021317 2.7759042 4.7072258 0 0 0 0 30.037148
-3.8394639 2.518563 4.769475 0 0 0 0 30.042093
-3.6476703 2.2782423 4.8256917 0 0 0 0 30.047041
-3.4418654 2.0339656 4.8839035 0 0 0 0 30.051987
-4.0879836 2.6837313 4.703434 0 0 0 0 30.056934
-3.8861401 2.4254336 4.7556686 0 0 0 0 30.061882
-3.6903701 2.1931338 4.820869 0 0 0 0 30.066828
-3.4785931 1.9578807 4.8860626 0 0 0 0 30.071775
-4.1456356 2.5835755 4.6906447 0 0 0 0 30.076723
-3.9438269 2.3382952 4.7578592 0 0 0 0 30.081669
-3.730072 2.1070318 4.8130445 0 0 0 0 30.086617
-3.5043125 1.8748112 4.8742223 0 0 0 0 30.091564
-4.1992879 2.4824347 4.6778522 0 0 0 0 30.09651
-3.9885051 2.24418 4.7470484 0 0 0 0 30.101458
-3.7647736 2.0189424 4.8022175 0 0 0 0 30.106405
-3.537044 1.79774 4.8753767 0 0 0 0 30.111351
-4.2569427 2.3822937 4.6720586 0 0 0 0 30.116299
-4.0321822 2.1490724 4.7382369 0 0 0 0 30.121246
-3.8034821 1.9338539 4.7993865 0 0 0 0 30.126192
-3.5657761 1.7186751 4.8715296 0 0 0 0 30.13114
-4.3105998 2.2811644 4.6642613 0 0 0 0 30.136087
-4.0798674 2.0569646 4.7364211 0 0 0 0 30.141033
-3.8441937 1.8497664 4.8005538 0 0 0 0 30.145981
-3.5925112 1.6396173 4.8676791 0 0 0 0 30.150928
-4.366262 2.1820407 4.6634603 0 0 0 0 30.155874
-4.1155467 1.9588779 4.7226038 0 0 0 0 30.160822
-3.8749001 1.7606977 4.7927198 0 0 0 0 30.165768
-3.6182473 1.5605677 4.8668265 0 0 0 0 30.170715
-4.4079103 2.0739419 4.6486602 0 0 0 0 30.175663
-4.1572304 1.8637902 4.7197847 0 0 0 0 30.180611
-3.9066079 1.6716316 4.7878842 0 0 0 0 30.185558
-3.6399846 1.4795226 4.8599725 0 0 0 0 30.190502
-4.4515662 1.9678457 4.6388569 0 0 0 0 30.19545
-4.1979175 1.7687082 4.7179632 0 0 0 0 30.200397
-3.9373238 1.5845723 4.7850437 0 0 0 0 30.205345
-3.6617267 1.3994814 4.8551154 0 0 0 0 30.210293
-4.5002275 1.8647503 4.63905 0 0 0 0 30.21524
-4.2326026 1.6706402 4.7121391 0 0 0 0 30.220184
-3.9620352 1.4935236 4.7762027 0 0 0 0 30.225132
-3.6864693 1.320443 4.8582578 0 0 0 0 30.23008
-4.5408826 1.7566706 4.6322427 0 0 0 0 30.235027
-4.2642918 1.5725808 4.7053113 0 0 0 0 30.239975
-3.9957559 1.4074676 4.7803593 0 0 0 0 30.244919
-3.7072148 1.2404118 4.8573966 0 0 0 0 30.249866
-4.5775433 1.6486027 4.6244297 0 0 0 0 30.254814
-4.3039804 1.4755145 4.7094851 0 0 0 0 30.259762
-4.0214725 1.3174276 4.7785139 0 0 0 0 30.264709
-3.7209659 1.1593908 4.8485308 0 0 0 0 30.269657
-4.6162019 1.5395374 4.6216183 0 0 0 0 30.274601
-4.3346734 1.3774674 4.7076526 0 0 0 0 30.279549
-4.0421953 1.2273979 4.7726636 0 0 0 0 30.284496
-3.745718 1.0813603 4.8556666 0 0 0 0 30.289444
-4.6548657 1.4314775 4.6218023 0 0 0 0 30.294392
-4.3523645 1.2744427 4.6938162 0 0 0 0 30.299339
-4.0659175 1.1373683 4.7728133 0 0 0 0 30.304283
-3.7624722 1.0013442 4.8557982 0 0 0 0 30.309231
-4.6855283 1.3204352 4.6169834 0 0 0 0 30.314178
-4.3810616 1.1754062 4.6939793 0 0 0 0 30.319126
-4.0876441 1.047344 4.7719603 0 0 0 0 30.324074
-3.7772286 0.92033035 4.8529286 0 0 0 0 30.329021
-4.7131958 1.2094014 4.6111598 0 0 0 0 30.333965
-4.4047589 1.0743808 4.6911397 0 0 0 0 30.338913
-4.1073737 0.95732611 4.7711034 0 0 0 0 30.343861
-3.7969873 0.8413161 4.8600578 0 0 0 0 30.348808
-4.7408638 1.0983751 4.6103349 0 0 0 0 30.353756
-4.4274616 0.97436184 4.6902966 0 0 0 0 30.3587
-4.1261039 0.8663131 4.771246 0 0 0 0 30.363647
-3.8027503 0.75932199 4.8521805 0 0 0 0 30.368595
-4.7627535 0.98473108 4.6053762 0 0 0 0 30.140213
-4.4493508 0.87179959 4.6913218 0 0 0 0 30.145161
-4.1420012 0.77483839 4.7712498 0 0 0 0 30.150108
-3.814656 0.67893338 4.8511634 0 0 0 0 30.155054
-4.7903996 0.87270606 4.608561 0 0 0 0 30.160002
-4.4690342 0.77078873 4.6924858 0 0 0 0 30.164949
-4.1537175 0.68283772 4.767396 0 0 0 0 30.169895
-3.8294034 0.59893048 4.857295 0 0 0 0 30.174843
-4.8130474 0.75969541 4.6107411 0 0 0 0 30.17979
-4.4877176 0.66878295 4.6946483 0 0 0 0 30.184738
-4.1674356 0.59183985 4.7695403 0 0 0 0 30.189682
-3.8351572 0.51794225 4.8544202 0 0 0 0 30.19463
-4.8287039 0.64669931 4.6079144 0 0 0 0 30.199577
-4.5044036 0.56678647 4.6988072 0 0 0 0 30.204525
-4.184154 0.50084198 4.7776847 0 0 0 0 30.209473
-3.8439112 0.43695098 4.8555465 0 0 0 0 30.21442
-4.5150952 0.46379986 4.6969624 0 0 0 0 30.224312
-4.1888785 0.40786183 4.7728224 0 0 0 0 30.229259
-3.8586648 0.35695606 4.8666735 0 0 0 0 30.234207
-0.55765027 0.046693716 0.52389657 0 0 0 0 30.239155
-4.1986065 0.31687826 4.7759585 0 0 0 0 30.249046
-3.8574271 0.27498493 4.8607912 0 0 0 0 30.253994
-0.55659842 0.033702377 0.52193165 0 0 0 0 30.258942
-0.5445587 0.029788287 0.55893356 0 0 0 0 30.263889
-4.2053361 0.22490363 4.7790933 0 0 0 0 30.268837
-3.7412765 0.18915024 4.709837 0 0 0 0 30.273781
-0.5335142 0.016811656 0.5469619 0 0 0 0 30.283676
-4.2010732 0.13194597 4.7712193 0 0 0 0 30.288624
-3.4992282 0.10246599 4.4028001 0 0 0 0 30.293571
-0.52351171 0.0067707621 0.48998225 0 0 0 0 30.298519
-0.52347165 0.0048346054 0.53698939 0 0 0 0 30.303463
-3.5040157 0.029490847 4.4089069 0 0 0 0 30.313358
-0.49948055 -0.0041836156 0.4669992 0 0 0 0 30.318306
-0.51742959 -0.0061486852 0.53101802 0 0 0 0 30.323254
-3.504812 -0.042478222 4.4110088 0 0 0 0 30.333145
-0.49943194 -0.016175782 0.46703297 0 0 0 0 30.338093
-0.51438612 -0.017136594 0.52804846 0 0 0 0 30.34304
-3.5335777 -0.1174761 4.4511309 0 0 0 0 30.352936
-0.49139106 -0.027154755 0.46006012 0 0 0 0 30.357883
-0.50834209 -0.029120103 0.52207804 0 0 0 0 30.362827
-3.8470745 -0.2077992 4.8514533 0 0 0 0 30.372723
-0.48834738 -0.038141306 0.45809031 0 0 0 0 30.37767
-0.50529873 -0.040106885 0.52010816 0 0 0 0 30.382618
-3.8628383 -0.28977612 4.8775711 0 0 0 0 30.392509
-0.48729947 -0.050129592 0.4591229 0 0 0 0 30.397457
-0.50525391 -0.051098149 0.52113998 0 0 0 0 30.402405
-3.8666129 -0.37173536 4.8916807 0 0 0 0 30.4123
-0.4882541 -0.061122119 0.46115524 0 0 0 0 30.417244
-0.50120866 -0.063082345 0.51917034 0 0 0 0 30.422192
-3.8593991 -0.45368129 4.8927813 0 0 0 0 30.432087
-0.48820648 -0.073111936 0.46318802 0 0 0 0 30.437035
-0.5081569 -0.075082548 0.52820748 0 0 0 0 30.441982
-3.8531885 -0.53462517 4.8978796 0 0 0 0 30.451874
-0.50314248 -0.088124573 0.47923368 0 0 0 0 30.456821
-0.51310426 -0.088079765 0.53524423 0 0 0 0 30.461769
-3.8419845 -0.61556232 4.897974 0 0 0 0 30.471664
-0.51905102 -0.10107711 0.54428142 0 0 0 0 30.481556
-3.8397701 -0.69850773 4.9110746 0 0 0 0 30.491451
-0.4940595 -0.11008888 0.47629002 0 0 0 0 30.496399
-0.56594473 -0.12412859 0.59735584 0 0 0 0 30.501343
-3.8275738 -0.77844054 4.9131646 0 0 0 0 30.511238
-0.55491185 -0.13410278 0.58837813 0 0 0 0 30.521133
-4.1001711 -0.9662773 4.7915578 0 0 0 0 30.526081
-3.8193686 -0.86137587 4.9222589 0 0 0 0 30.531025
-0.55189091 -0.15014836 0.53940827 0 0 0 0 30.535973
-0.55486095 -0.14809011 0.59241188 0 0 0 0 30.54092
-4.0869455 -1.0581909 4.8026567 0 0 0 0 30.545868
-3.8051748 -0.94230217 4.9263458 0 0 0 0 30.550816
-4.7570496 -1.4259889 4.7335005 0 0 0 0 30.555763
-4.0189295 -1.1745172 4.3597512 0 0 0 0 30.560707
-4.073719 -1.1511017 4.8167553 0 0 0 0 30.565655
-3.7889822 -1.024225 4.929431 0 0 0 0 30.570602
-4.7098055 -1.533824 4.7265902 0 0 0 0 30.57555
-4.1804385 -1.3256403 4.5700221 0 0 0 0 30.580498
-4.0385299 -1.2369879 4.8048306 0 0 0 0 30.585445
-3.7747929 -1.105149 4.9365153 0 0 0 0 30.590389
-4.6925235 -1.6506994 4.7517071 0 0 0 0 30.595337
-4.371881 -1.4967911 4.8193312 0 0 0 0 30.600285
-3.9933569 -1.3198595 4.7848954 0 0 0 0 30.605232
-3.7665927 -1.1890759 4.9546051 0 0 0 0 30.61018
-4.6576014 -1.7610765 4.7626801 0 0 0 0 30.801132
-4.349947 -1.5992645 4.8353295 0 0 0 0 30.806076
-3.8296349 -1.358268 4.622776 0 0 0 0 30.811024
-3.7446628 -1.2697018 4.9546313 0 0 0 0 30.815971
-4.6243649 -1.8739321 4.77877 0 0 0 0 30.820919
-4.3157439 -1.6991342 4.8424077 0 0 0 0 30.825867
-3.7974691 -1.4421616 4.6198421 0 0 0 0 30.830814
-3.729491 -1.3526233 4.9667068 0 0 0 0 30.835758
-4.5881357 -1.9857833 4.7938561 0 0 0 0 30.840706
