# .PCD v0.7 - Point Cloud Data file format
VERSION 0.7
FIELDS x y z normal_x normal_y normal_z intensity curvature
SIZE 4 4 4 4 4 4 4 4
TYPE F F F F F F F F
COUNT 1 1 1 1 1 1 1 1
WIDTH 946
HEIGHT 1
VIEWPOINT 0 0 0 1 0 0 0
POINTS 946
DATA ascii
3.8599627 1.5997543 -0.42691359 0 0 0 0 74.245361
3.8661706 1.7134731 -0.43079972 0 0 0 0 74.265144
5.6576686 2.5796046 -0.45348871 0 0 0 0 74.279991
3.8662374 1.8245198 -0.43364868 0 0 0 0 74.284935
8.5215054 3.7887731 -0.15681645 0 0 0 0 74.289879
5.6490946 2.7341402 -0.45822445 0 0 0 0 74.299774
3.8706226 1.9413419 -0.43751812 0 0 0 0 74.304726
8.4892883 4.0056133 -0.16531606 0 0 0 0 74.309669
6.6856565 3.2905033 -0.34333843 0 0 0 0 74.314613
5.6728792 2.9129596 -0.46514112 0 0 0 0 74.319565
3.8627677 2.0538208 -0.44031215 0 0 0 0 74.324509
8.4755907 4.2314653 -0.17492571 0 0 0 0 74.32946
3.8696439 2.1795228 -0.44518551 0 0 0 0 74.344299
8.4788036 4.4734254 -0.18462497 0 0 0 0 74.349243
3.8734834 2.3043871 -0.44903973 0 0 0 0 74.36409
8.4658833 4.7132587 -0.19521958 0 0 0 0 74.369034
8.4500284 4.9542561 -0.2067927 0 0 0 0 74.388824
8.440937 5.2089081 -0.21839133 0 0 0 0 74.408607
8.4175549 5.4583302 -0.22990169 0 0 0 0 74.428398
8.4051361 5.7251854 -0.24346031 0 0 0 0 74.448189
8.3909044 5.9951448 -0.25600207 0 0 0 0 74.467972
8.3865852 6.2815919 -0.27058646 0 0 0 0 74.487762
8.335721 6.5405345 -0.28389838 0 0 0 0 74.507553
7.9424582 6.5247254 -0.28530857 0 0 0 0 74.527336
7.834044 6.7511716 -0.52927625 0 0 0 0 74.532288
7.7834992 6.6924391 -0.29502419 0 0 0 0 74.547127
7.8643017 7.1018496 -0.54699886 0 0 0 0 74.552071
7.7722025 6.9973168 -0.31253311 0 0 0 0 74.566917
7.8575478 7.4092555 -0.33337098 0 0 0 0 74.290871
7.9952898 7.9297671 -0.59156942 0 0 0 0 74.295822
7.939939 7.8372302 -0.35733372 0 0 0 0 74.310661
8.0031185 8.3117104 -0.61110091 0 0 0 0 74.315605
7.9378576 8.2026892 -0.37782204 0 0 0 0 74.330452
7.1064472 7.7232289 -0.55897146 0 0 0 0 74.335396
7.8429532 8.4810553 -0.39481407 0 0 0 0 74.350235
7.5615764 8.6187105 -0.61675882 0 0 0 0 74.355186
7.1826959 8.6164188 -0.80324912 0 0 0 0 74.36013
6.7979398 8.5984316 -0.99172169 0 0 0 0 74.365074
7.6268272 8.6288118 -0.40618101 0 0 0 0 74.370026
7.1882706 8.5807171 -0.60733777 0 0 0 0 74.374969
6.8186193 8.5809288 -0.78188431 0 0 0 0 74.379921
6.6131225 8.7855587 -0.98523784 0 0 0 0 74.384865
7.2650781 8.6022253 -0.40882054 0 0 0 0 74.389816
6.867538 8.5889568 -0.60019988 0 0 0 0 74.39476
6.6156349 8.7289925 -0.77833366 0 0 0 0 74.399704
6.246295 8.7161808 -0.94989854 0 0 0 0 74.404655
6.9283171 8.5933285 -0.41259965 0 0 0 0 74.409599
6.6268587 8.6890068 -0.60146511 0 0 0 0 74.414551
6.2899451 8.7184887 -0.76118577 0 0 0 0 74.419495
5.9467072 8.7242899 -0.92489696 0 0 0 0 74.424438
6.6269598 8.6095619 -0.41857749 0 0 0 0 74.42939
6.3547459 8.74471 -0.59958124 0 0 0 0 74.434334
5.9900131 8.7216263 -0.74718857 0 0 0 0 74.439285
4.1596146 6.3996363 -0.65823776 0 0 0 0 74.444229
6.4266109 8.7525082 -0.43004963 0 0 0 0 74.449173
6.0459585 8.7333202 -0.59354496 0 0 0 0 74.454124
4.1978502 6.4033456 -0.5344851 0 0 0 0 74.459068
3.9455199 6.3981528 -0.64081317 0 0 0 0 74.46402
6.1233411 8.7518482 -0.4350349 0 0 0 0 74.468964
4.2414489 6.4157925 -0.42875665 0 0 0 0 74.473915
3.9833283 6.3948851 -0.52406728 0 0 0 0 74.478859
3.7514725 6.4156189 -0.62549448 0 0 0 0 74.483803
4.2903037 6.4139266 -0.31908333 0 0 0 0 74.488754
4.0245633 6.4014611 -0.42433098 0 0 0 0 74.493698
3.7717469 6.3852739 -0.51366931 0 0 0 0 74.49865
3.8938456 7.0447373 -0.67056441 0 0 0 0 74.503593
4.0744181 6.4005537 -0.32266286 0 0 0 0 74.508537
3.8138251 6.3898115 -0.42094132 0 0 0 0 74.513489
3.8900554 6.9576087 -0.55065805 0 0 0 0 74.518433
3.6977336 7.0793562 -0.65720624 0 0 0 0 74.523384
3.8688977 6.3936362 -0.32630125 0 0 0 0 74.528328
3.989213 7.0541735 -0.46318242 0 0 0 0 74.533279
3.7257698 7.0445852 -0.54843879 0 0 0 0 74.538223
4.1562452 8.4614191 -0.7683332 0 0 0 0 74.543167
4.0449357 7.0509448 -0.36555672 0 0 0 0 74.548119
3.7772512 7.0566254 -0.4607631 0 0 0 0 74.553062
4.2119718 8.4551611 -0.64971101 0 0 0 0 74.558014
3.9178967 8.4733105 -0.75072324 0 0 0 0 74.562958
3.8394573 7.0630679 -0.371167 0 0 0 0 74.567902
4.2849779 8.4930487 -0.55414319 0 0 0 0 74.572853
3.9806392 8.4867115 -0.64212024 0 0 0 0 74.577797
3.6719816 8.4565821 -0.73210144 0 0 0 0 74.582748
3.6557441 7.1070633 -0.37787688 0 0 0 0 74.587692
4.0454164 8.5030251 -0.55252749 0 0 0 0 74.592636
3.7367291 8.4708872 -0.63051039 0 0 0 0 74.597588
3.4326572 8.4505224 -0.71350724 0 0 0 0 74.602531
4.1162148 8.5009766 -0.46100098 0 0 0 0 74.607483
3.7982395 8.4833832 -0.5489009 0 0 0 0 74.612427
3.4915402 8.4501371 -0.61989743 0 0 0 0 74.617378
3.2059503 8.4558067 -0.69798017 0 0 0 0 74.622322
3.8757334 8.4950018 -0.46639988 0 0 0 0 74.627266
3.5561566 8.4654799 -0.54630458 0 0 0 0 74.632217
3.2645135 8.4504414 -0.61137503 0 0 0 0 74.637161
2.9753256 8.4442911 -0.68144912 0 0 0 0 74.642113
3.6377549 8.4798899 -0.47182697 0 0 0 0 74.647057
3.327976 8.4638548 -0.54477704 0 0 0 0 74.652
3.0404823 8.4505939 -0.6028716 0 0 0 0 74.656952
2.752018 8.4383955 -0.66495776 0 0 0 0 74.661896
3.4083586 8.475337 -0.4782953 0 0 0 0 74.666847
3.0990908 8.4492588 -0.5422616 0 0 0 0 74.671791
2.8149605 8.4418259 -0.59436935 0 0 0 0 74.676735
2.5349612 8.4371786 -0.65050054 0 0 0 0 74.681686
3.178695 8.4658022 -0.48376745 0 0 0 0 74.68663
2.8778372 8.4462776 -0.5417797 0 0 0 0 74.691582
2.5965366 8.4346838 -0.5859111 0 0 0 0 74.696526
2.3166871 8.4320335 -0.63603932 0 0 0 0 74.701477
2.9526417 8.4490719 -0.48927259 0 0 0 0 74.706421
2.658478 8.4411993 -0.54031211 0 0 0 0 74.711365
2.3824766 8.4343262 -0.57947123 0 0 0 0 74.716316
2.1030214 8.4196367 -0.62161785 0 0 0 0 74.72126
2.7344947 8.448946 -0.49680611 0 0 0 0 74.726212
2.4431605 8.4369144 -0.53986925 0 0 0 0 74.731155
2.1668837 8.4240475 -0.57103378 0 0 0 0 74.736099
1.8919004 8.4171267 -0.60719836 0 0 0 0 74.741051
2.5215657 8.4525509 -0.50336808 0 0 0 0 74.745995
2.2275138 8.4266481 -0.53943127 0 0 0 0 74.750946
1.9573773 8.4154501 -0.56463355 0 0 0 0 74.75589
1.684328 8.4064217 -0.59381294 0 0 0 0 74.760841
2.3025758 8.4393196 -0.50999033 0 0 0 0 74.509918
2.015116 8.4229755 -0.53909403 0 0 0 0 74.514862
1.7461314 8.4136276 -0.55831063 0 0 0 0 74.519806
1.4760126 8.4023466 -0.58152205 0 0 0 0 74.524757
2.0919325 8.4297304 -0.51659167 0 0 0 0 74.529701
1.8091538 8.4251528 -0.54070902 0 0 0 0 74.534653
1.5392407 8.3978281 -0.55194348 0 0 0 0 74.539597
1.2706029 8.3944798 -0.56815261 0 0 0 0 74.54454
1.8856033 8.4259281 -0.52421248 0 0 0 0 74.549492
1.6006857 8.3994322 -0.53934515 0 0 0 0 74.554436
1.3375369 8.4037914 -0.5465793 0 0 0 0 74.559387
1.0718253 8.3982811 -0.55680984 0 0 0 0 74.564331
1.6767378 8.4122572 -0.53082895 0 0 0 0 74.569275
1.3999337 8.4053516 -0.54098725 0 0 0 0 74.574226
1.1359583 8.3937321 -0.54123724 0 0 0 0 74.57917
0.86928833 8.388278 -0.54546022 0 0 0 0 74.584122
1.4730209 8.4013214 -0.53847486 0 0 0 0 74.589066
1.1978014 8.4043474 -0.54262865 0 0 0 0 74.594017
0.93527544 8.3816319 -0.53490275 0 0 0 0 74.598961
0.67218006 8.3859997 -0.53413486 0 0 0 0 74.603905
1.2695222 8.3943911 -0.54611534 0 0 0 0 74.608856
0.99856168 8.4011908 -0.54329121 0 0 0 0 74.6138
0.73623264 8.3814726 -0.53056139 0 0 0 0 74.618752
0.47525743 8.3686981 -0.52183062 0 0 0 0 74.623695
1.0701194 8.3892508 -0.55477953 0 0 0 0 74.628639
0.79860479 8.385066 -0.54496598 0 0 0 0 74.633591
0.54179955 8.3740606 -0.5262599 0 0 0 0 74.638535
0.28019375 8.3673315 -0.51151538 0 0 0 0 74.643486
0.87155747 8.3810692 -0.56245244 0 0 0 0 74.64843
0.60065061 8.3688402 -0.54565322 0 0 0 0 74.653381
0.34409726 8.3618298 -0.52194214 0 0 0 0 74.658325
0.084801808 8.3599844 -0.50120515 0 0 0 0 74.663269
0.67469126 8.3858271 -0.57211739 0 0 0 0 74.668221
0.40412495 8.3605595 -0.54733759 0 0 0 0 74.673164
0.14910267 8.3624821 -0.51762319 0 0 0 0 74.678116
-0.11232036 8.3577509 -0.49187496 0 0 0 0 74.68306
0.47879577 8.3715115 -0.57981443 0 0 0 0 74.688004
0.20781124 8.3562851 -0.5500167 0 0 0 0 74.692955
-0.047444563 8.3532133 -0.51430672 0 0 0 0 74.697899
-0.30609235 8.3433228 -0.48058322 0 0 0 0 74.70285
0.28071198 8.3723507 -0.58947444 0 0 0 0 74.707794
0.012550368 8.3529654 -0.55270034 0 0 0 0 74.712738
-0.24293892 8.3449001 -0.51099473 0 0 0 0 74.71769
-0.50445193 8.3551998 -0.4722226 0 0 0 0 74.722633
0.085027762 8.362051 -0.59816498 0 0 0 0 74.727585
-0.18420218 8.3407221 -0.55538535 0 0 0 0 74.732529
-0.4372161 8.3405352 -0.50768423 0 0 0 0 74.73748
-0.69856 8.3348026 -0.46193472 0 0 0 0 74.742424
-0.11287326 8.3478775 -0.60684496 0 0 0 0 74.747368
-0.37940872 8.3384209 -0.55806565 0 0 0 0 74.752319
-0.63360012 8.3342953 -0.50436115 0 0 0 0 74.757263
-0.89369273 8.3325014 -0.4536134 0 0 0 0 74.762215
-0.30880305 8.351635 -0.61751181 0 0 0 0 74.767159
-0.57745314 8.3392906 -0.56172121 0 0 0 0 74.772102
-0.8297168 8.3330574 -0.50203156 0 0 0 0 74.777054
-1.0924903 8.336421 -0.44525754 0 0 0 0 74.781998
-0.50521964 8.3464146 -0.62718678 0 0 0 0 74.786949
-0.77299577 8.3310204 -0.56540531 0 0 0 0 74.791893
-1.0287809 8.3329945 -0.50067943 0 0 0 0 74.796844
-1.2890537 8.3262053 -0.43593538 0 0 0 0 74.801788
-0.70245993 8.3262272 -0.63687617 0 0 0 0 74.806732
-0.9699387 8.3338547 -0.57006323 0 0 0 0 74.811684
-1.226061 8.3288383 -0.49834386 0 0 0 0 74.816628
-1.4899096 8.3292589 -0.42856461 0 0 0 0 74.821579
-0.90128249 8.3321791 -0.64851701 0 0 0 0 74.826523
-1.1696408 8.3228283 -0.57372093 0 0 0 0 74.831467
-1.4236706 8.3187008 -0.49601337 0 0 0 0 74.836418
-1.6883675 8.3211727 -0.42022443 0 0 0 0 74.841362
-1.1009771 8.3221636 -0.65917331 0 0 0 0 74.846313
-1.3650103 8.2995567 -0.57742387 0 0 0 0 74.851257
-1.6266739 8.3198872 -0.49462944 0 0 0 0 74.856201
-1.8896562 8.3162575 -0.41185954 0 0 0 0 74.861153
-1.2990052 8.306057 -0.6698482 0 0 0 0 74.866096
-1.5689499 8.3028078 -0.5830307 0 0 0 0 74.871048
-1.826508 8.3058872 -0.49328709 0 0 0 0 74.875992
-2.0933337 8.3044739 -0.4044871 0 0 0 0 74.880943
-1.5001065 8.3071585 -0.682477 0 0 0 0 74.885887
-1.772056 8.3030195 -0.58864611 0 0 0 0 74.890831
-2.0300066 8.29811 -0.4919101 0 0 0 0 74.895782
-2.2984037 8.3037949 -0.39708847 0 0 0 0 74.900726
-1.7039682 8.2944012 -0.69410557 0 0 0 0 74.905678
-1.9737635 8.2921476 -0.59328544 0 0 0 0 74.910622
-2.2361226 8.2974977 -0.49150419 0 0 0 0 74.915565
-2.506469 8.3032913 -0.38966814 0 0 0 0 74.920517
-1.9084507 8.2887001 -0.70671886 0 0 0 0 74.925461
-2.1822546 8.2856665 -0.5998717 0 0 0 0 74.930412
-2.4436774 8.2889643 -0.49109855 0 0 0 0 74.935356
-2.7152503 8.2898197 -0.38226008 0 0 0 0 74.9403
-2.1139321 8.2830639 -0.71932411 0 0 0 0 74.945251
-2.3914135 8.285244 -0.60644364 0 0 0 0 74.950195
-2.6551163 8.2826586 -0.4906624 0 0 0 0 74.955147
-2.927695 8.2825689 -0.37481734 0 0 0 0 74.960091
-2.3255765 8.2747746 -0.73289031 0 0 0 0 74.965042
-2.6001735 8.2737913 -0.61203271 0 0 0 0 74.969986
-2.868284 8.2814674 -0.49120608 0 0 0 0 74.97493
-3.1423094 8.2724457 -0.36836278 0 0 0 0 74.979881
-2.5271928 8.2725163 -0.74565697 0 0 0 0 75.818375
-2.8085542 8.2752218 -0.61871195 0 0 0 0 75.823318
-3.0748692 8.2780828 -0.48986951 0 0 0 0 75.82827
-3.350894 8.2684727 -0.35997802 0 0 0 0 75.833214
-2.7445719 8.2698164 -0.76114696 0 0 0 0 75.838158
-3.0197258 8.2571478 -0.6252656 0 0 0 0 75.843109
-3.2911038 8.2582922 -0.49038982 0 0 0 0 75.848053
-3.5767756 8.2722645 -0.35439676 0 0 0 0 75.853004
-2.96134 8.2600803 -0.77565014 0 0 0 0 75.857948
-3.2387803 8.2415314 -0.63276035 0 0 0 0 75.862892
-3.5179765 8.2631521 -0.49180004 0 0 0 0 75.867844
-3.8060396 8.2692461 -0.34780073 0 0 0 0 75.872787
-3.1795008 8.2434235 -0.79015237 0 0 0 0 75.877739
-3.4677546 8.2455187 -0.64115721 0 0 0 0 75.882683
-3.7439711 8.247941 -0.49224401 0 0 0 0 75.887634
-4.032042 8.2530355 -0.34124488 0 0 0 0 75.892578
-3.4061482 8.2362728 -0.80558121 0 0 0 0 75.897522
-3.6944659 8.2363701 -0.64958733 0 0 0 0 75.902473
-3.9763424 8.2441206 -0.49362624 0 0 0 0 75.907417
-4.2693 8.250494 -0.33559042 0 0 0 0 75.912369
-3.6401839 8.240571 -0.82394135 0 0 0 0 75.917313
-3.9291158 8.2286825 -0.65895933 0 0 0 0 75.922256
-4.211 8.2354336 -0.49599847 0 0 0 0 75.927208
-4.5100045 8.2401466 -0.3299222 0 0 0 0 75.932152
-3.8695049 8.2215748 -0.83936626 0 0 0 0 75.937103
-4.1621566 8.2139053 -0.66735131 0 0 0 0 75.942047
-4.4537005 8.2262125 -0.49831468 0 0 0 0 75.946991
-4.7481585 8.2216539 -0.32328182 0 0 0 0 75.951942
-4.111094 8.2163076 -0.85768545 0 0 0 0 75.956886
-4.4094052 8.2139683 -0.67862254 0 0 0 0 75.961838
-4.6985612 8.214119 -0.49961874 0 0 0 0 75.966782
-5.0045066 8.2182255 -0.31849292 0 0 0 0 75.971733
-4.35674 8.2102823 -0.87697643 0 0 0 0 75.976677
-4.6555533 8.1979551 -0.68892324 0 0 0 0 75.981621
-4.955802 8.2137604 -0.50381899 0 0 0 0 75.986572
-5.2593598 8.2057114 -0.31272593 0 0 0 0 75.991516
-4.6050043 8.1934013 -0.89626354 0 0 0 0 75.996468
-4.9074664 8.1862869 -0.69917637 0 0 0 0 76.001411
-5.214704 8.2014866 -0.50602353 0 0 0 0 76.006355
-5.5276256 8.2039843 -0.3068493 0 0 0 0 76.011307
-4.8573198 8.1757593 -0.91552246 0 0 0 0 76.016251
-5.1710925 8.1803055 -0.711339 0 0 0 0 76.021202
-5.4777274 8.187459 -0.51020068 0 0 0 0 76.026146
-5.8088279 8.2040081 -0.30287927 0 0 0 0 76.031097
-5.1192384 8.1656876 -0.93670261 0 0 0 0 76.036041
-5.446537 8.1780109 -0.72441322 0 0 0 0 76.040985
-5.761755 8.1916609 -0.5142048 0 0 0 0 76.045937
-6.0848742 8.1887274 -0.29696536 0 0 0 0 76.05088
-5.3922029 8.1552544 -0.9588055 0 0 0 0 76.055832
-5.726151 8.172965 -0.73846102 0 0 0 0 76.060776
-6.0400376 8.1735172 -0.51827943 0 0 0 0 76.06572
-6.3707414 8.1770239 -0.29197684 0 0 0 0 76.070671
-5.6831398 8.1638861 -0.98375499 0 0 0 0 76.075615
-6.008604 8.1530685 -0.75150907 0 0 0 0 76.080566
-6.3290844 8.1600056 -0.52327132 0 0 0 0 76.08551
-6.680954 8.1777325 -0.28780037 0 0 0 0 76.090454
-5.9702663 8.1512814 -1.0077599 0 0 0 0 76.095406
-6.2968855 8.1365223 -0.76551038 0 0 0 0 76.100349
-6.6339426 8.1504116 -0.52914655 0 0 0 0 76.105301
-6.9945011 8.1726379 -0.28360742 0 0 0 0 76.110245
-6.2695007 8.1373777 -1.0336815 0 0 0 0 76.115196
-6.6055884 8.1311703 -0.78235251 0 0 0 0 76.12014
-6.956213 8.1518373 -0.53588355 0 0 0 0 76.125084
-7.3118362 8.1537514 -0.27940646 0 0 0 0 76.130035
-6.5842142 8.1333838 -1.0614797 0 0 0 0 76.134979
-6.9368649 8.1341257 -0.80002463 0 0 0 0 76.139931
-7.2830424 8.1435232 -0.54260123 0 0 0 0 76.144875
-7.6532321 8.1522741 -0.27601191 0 0 0 0 76.149818
-6.9081473 8.1259251 -1.0902175 0 0 0 0 76.15477
-7.2641129 8.1198425 -0.81774777 0 0 0 0 76.159714
-7.617485 8.1246395 -0.54927969 0 0 0 0 76.164665
-7.9992385 8.1400576 -0.27159899 0 0 0 0 76.169609
-7.2349277 8.1036205 -1.1189551 0 0 0 0 76.174553
-7.60429 8.1073141 -0.83637691 0 0 0 0 76.179504
-7.9808807 8.1254501 -0.55872709 0 0 0 0 76.184448
-8.1772413 7.9460325 -0.26161212 0 0 0 0 76.1894
-7.5784121 8.0872917 -1.1495667 0 0 0 0 76.194344
-7.9645562 8.0939417 -0.85586619 0 0 0 0 76.199295
-8.3394051 8.1059694 -0.56623566 0 0 0 0 76.204239
-8.7432938 8.1166334 -0.26440507 0 0 0 0 76.209183
-7.9532552 8.083786 -1.1849401 0 0 0 0 76.214134
-8.3358755 8.0802174 -0.87727726 0 0 0 0 76.219078
-8.726615 8.0931473 -0.57553357 0 0 0 0 76.22403
-9.1298113 8.0967607 -0.26071629 0 0 0 0 76.228973
-8.3221188 8.0619287 -1.2183797 0 0 0 0 76.233917
-8.7302294 8.066823 -0.90052605 0 0 0 0 76.238869
-9.1412249 8.0919218 -0.58662242 0 0 0 0 76.243813
-9.5556459 8.0901623 -0.25773326 0 0 0 0 76.248764
-8.7224541 8.0509005 -1.2565831 0 0 0 0 76.253708
-9.1395664 8.0543013 -0.92466736 0 0 0 0 76.258659
-9.5562 8.0667 -0.59774125 0 0 0 0 76.263603
-9.9995718 8.082613 -0.25562361 0 0 0 0 76.268547
-9.1487694 8.0413752 -1.2976018 0 0 0 0 76.273499
-9.5672216 8.0368357 -0.94968641 0 0 0 0 76.278442
-10.001508 8.0542459 -0.60962856 0 0 0 0 76.283394
-10.452217 8.062562 -0.25246906 0 0 0 0 76.288338
-9.5896349 8.0203485 -1.3400935 0 0 0 0 76.024498
-10.031744 8.0210066 -0.97902238 0 0 0 0 76.029442
-10.476042 8.0368252 -0.62391347 0 0 0 0 76.034393
-10.94768 8.0451632 -0.25062573 0 0 0 0 76.039337
-10.059144 8.009161 -1.3868287 0 0 0 0 76.044289
-10.512457 8.0044403 -1.0086858 0 0 0 0 76.049232
-10.971908 8.0161076 -0.63847631 0 0 0 0 76.054176
-11.421701 8.0011702 -0.24737096 0 0 0 0 76.059128
-10.532943 7.975203 -1.4325644 0 0 0 0 76.064072
-11.019261 7.9873772 -1.0411671 0 0 0 0 76.069023
-11.477325 7.9859409 -0.65298402 0 0 0 0 76.073967
-11.034612 7.9448566 -1.4820998 0 0 0 0 76.083862
-11.970314 -7.6045022 -1.4813502 0 0 0 0 76.544273
-11.604138 -8.5339899 -0.23906754 0 0 0 0 76.638268
-11.004002 -9.0118246 -1.4319892 0 0 0 0 76.643211
-11.144422 -8.9440527 -1.008888 0 0 0 0 76.648163
-11.186856 -8.8047361 -0.62536764 0 0 0 0 76.653107
-11.280126 -8.69555 -0.24553607 0 0 0 0 76.658058
-11.043052 -9.4930973 -1.4543914 0 0 0 0 76.663002
-11.136393 -9.3739443 -1.0235434 0 0 0 0 76.667946
-11.259057 -9.2881098 -0.64454037 0 0 0 0 76.672897
-11.20999 -9.0558891 -0.25852311 0 0 0 0 76.677841
-11.001981 -9.9228888 -1.4682788 0 0 0 0 76.682793
-11.088463 -9.7891054 -1.0364568 0 0 0 0 76.687737
-11.157517 -9.6422443 -0.65473884 0 0 0 0 76.692688
-11.212859 -9.4831476 -0.27509862 0 0 0 0 76.697632
-9.0491714 -8.5797472 -1.2229328 0 0 0 0 76.702576
-11.09201 -10.262405 -1.0540965 0 0 0 0 76.707527
-11.130857 -10.078218 -0.67053473 0 0 0 0 76.712471
-11.197718 -9.9104443 -0.2908009 0 0 0 0 76.717422
-11.706836 -11.615553 -1.6077744 0 0 0 0 76.722366
-11.008882 -10.67459 -1.0652537 0 0 0 0 76.72731
-11.131552 -10.553684 -0.68919808 0 0 0 0 76.732262
-11.197779 -10.374928 -0.30945224 0 0 0 0 76.737206
-9.0755682 -9.4612312 -1.2629924 0 0 0 0 76.742157
-11.799576 -11.986974 -1.1656184 0 0 0 0 76.747101
-12.006876 -11.9123 -0.76503623 0 0 0 0 76.752052
-8.8390303 -9.6649694 -1.2499233 0 0 0 0 76.76194
-9.2051153 -9.8164778 -0.925565 0 0 0 0 76.766891
-11.879595 -12.039902 -0.37106338 0 0 0 0 76.776787
-8.7498398 -10.041511 -1.2590781 0 0 0 0 76.781731
-9.4731665 -10.582073 -0.97278869 0 0 0 0 76.786674
-11.439601 -13.745289 -1.6796609 0 0 0 0 76.801521
-9.2464962 -10.833316 -0.97072214 0 0 0 0 76.806465
-11.391058 -14.37083 -1.7058948 0 0 0 0 76.821304
-11.844885 -13.757845 -0.44574565 0 0 0 0 76.836151
-11.370522 -15.063868 -1.7380333 0 0 0 0 76.841095
-11.176198 -15.559616 -1.7461014 0 0 0 0 76.860886
-11.066547 -14.950384 -1.2559502 0 0 0 0 76.865829
-10.616624 -15.547643 -1.6969855 0 0 0 0 76.880669
-10.745594 -15.24913 -1.2536184 0 0 0 0 76.88562
-10.922565 -15.044932 -0.87905502 0 0 0 0 76.890564
-11.15164 -14.892813 -0.50720215 0 0 0 0 76.895515
-10.057714 -15.512621 -1.646834 0 0 0 0 76.900459
-10.386344 -15.492013 -1.2474753 0 0 0 0 76.905403
-10.722385 -15.50698 -0.89711809 0 0 0 0 76.910355
-10.872502 -15.236208 -0.52764434 0 0 0 0 76.915298
-9.5330572 -15.497681 -1.6024747 0 0 0 0 76.92025
-9.8548174 -15.477447 -1.2201648 0 0 0 0 76.925194
-10.177498 -15.467117 -0.88686395 0 0 0 0 76.930138
-10.540718 -15.500527 -0.5463419 0 0 0 0 76.935089
-9.0186119 -15.482532 -1.5592107 0 0 0 0 76.802788
-9.3404579 -15.461323 -1.1959053 0 0 0 0 76.807739
-9.6597834 -15.460238 -0.87864834 0 0 0 0 76.812683
-10.016443 -15.482047 -0.55516231 0 0 0 0 76.817627
-8.5272245 -15.470636 -1.5196179 0 0 0 0 76.822578
-8.8452444 -15.450627 -1.1723411 0 0 0 0 76.827522
-9.1623964 -15.444637 -0.87109178 0 0 0 0 76.832474
-9.5070162 -15.464111 -0.56368673 0 0 0 0 76.837418
-7.6271605 -14.65204 -1.4027033 0 0 0 0 76.842369
-8.3547535 -15.417648 -1.1487137 0 0 0 0 76.847313
-8.6734247 -15.41856 -0.86446369 0 0 0 0 76.852257
-9.0241346 -15.454687 -0.57404017 0 0 0 0 76.857208
-6.0297585 -12.303262 -1.1454247 0 0 0 0 76.862152
-7.8230495 -15.278902 -1.1182219 0 0 0 0 76.867104
-7.7543588 -14.57598 -0.81065142 0 0 0 0 76.872047
-8.5299482 -15.405875 -0.58241767 0 0 0 0 76.876991
-5.7699785 -12.518476 -1.137552 0 0 0 0 76.881943
-7.8334994 -16.21063 -1.1675087 0 0 0 0 76.886887
-7.865469 -15.637116 -0.86642218 0 0 0 0 76.891838
-7.8487329 -14.982264 -0.57555765 0 0 0 0 76.896782
-5.4800677 -12.663329 -1.1247889 0 0 0 0 76.901733
-6.9675117 -15.337032 -1.0852833 0 0 0 0 76.906677
-7.6777964 -16.17564 -0.89352036 0 0 0 0 76.911621
-8.9317932 -18.015545 -0.70841557 0 0 0 0 76.916573
-4.4175858 -10.933814 -0.94568127 0 0 0 0 76.921516
-6.5527048 -15.364881 -1.0702249 0 0 0 0 76.926468
-6.8660688 -15.388051 -0.84504431 0 0 0 0 76.931412
-7.182189 -15.372999 -0.61378717 0 0 0 0 76.936356
-4.1754723 -11.073946 -0.93657959 0 0 0 0 76.941307
-6.1264768 -15.351342 -1.053188 0 0 0 0 76.946251
-6.4342475 -15.362797 -0.84102917 0 0 0 0 76.951202
-6.7527409 -15.369624 -0.62478751 0 0 0 0 76.956146
-3.9325984 -11.218142 -0.92749095 0 0 0 0 76.96109
-4.9169669 -13.225681 -0.89153296 0 0 0 0 76.966042
-6.0200362 -15.36459 -0.83993274 0 0 0 0 76.970985
-6.3347526 -15.356593 -0.63569528 0 0 0 0 76.975937
-3.6934175 -11.391184 -0.92042077 0 0 0 0 76.980881
-4.6141338 -13.353298 -0.88784254 0 0 0 0 76.985832
-5.7013531 -15.596257 -0.85150713 0 0 0 0 76.990776
-5.9252186 -15.351106 -0.6475572 0 0 0 0 76.99572
-2.9876981 -10.025756 -0.79035318 0 0 0 0 77.000671
-4.3230362 -13.527328 -0.88814032 0 0 0 0 77.005615
-5.6590576 -16.651297 -0.90935928 0 0 0 0 77.010567
-5.7212319 -15.899661 -0.68479598 0 0 0 0 77.015511
-2.7485688 -10.079637 -0.77810919 0 0 0 0 77.020454
-3.4203322 -11.649444 -0.7527014 0 0 0 0 77.025406
-4.2922916 -13.681425 -0.74356842 0 0 0 0 77.03035
-5.6603379 -16.926729 -0.74373895 0 0 0 0 77.035301
-2.5240948 -10.195784 -0.76985598 0 0 0 0 77.040245
-3.1546154 -11.74392 -0.74970627 0 0 0 0 77.045189
-3.985203 -13.820339 -0.75093043 0 0 0 0 77.05014
-5.4766269 -17.701498 -0.79317492 0 0 0 0 77.055084
-2.2958224 -10.298139 -0.76161057 0 0 0 0 77.060036
-2.8876083 -11.850504 -0.74773997 0 0 0 0 77.06498
-3.6801329 -13.95915 -0.76028013 0 0 0 0 77.069931
-4.7877479 -16.854876 -0.76976597 0 0 0 0 77.074875
-2.0621004 -10.375781 -0.75136828 0 0 0 0 77.079819
-2.2670074 -10.363008 -0.64389837 0 0 0 0 77.08477
-2.8432164 -11.937277 -0.64816999 0 0 0 0 77.089714
-3.6319852 -14.03311 -0.64971614 0 0 0 0 77.094666
-1.8304886 -10.489371 -0.7441662 0 0 0 0 77.099609
-2.0237954 -10.39713 -0.63965958 0 0 0 0 77.104553
-2.5631583 -11.973517 -0.65119433 0 0 0 0 77.109505
-3.3115809 -14.130759 -0.66811651 0 0 0 0 77.114449
-1.5996501 -10.615951 -0.73897952 0 0 0 0 77.1194
-1.7879084 -10.470904 -0.63742959 0 0 0 0 77.124344
-1.9836287 -10.467628 -0.56903857 0 0 0 0 77.129295
-2.5236149 -12.036956 -0.57755768 0 0 0 0 77.134239
-1.3590775 -10.696031 -0.72979385 0 0 0 0 77.139183
-1.5510285 -10.561776 -0.63723367 0 0 0 0 77.144135
-1.7387766 -10.48984 -0.57179642 0 0 0 0 77.149078
-2.2404687 -12.053358 -0.5895775 0 0 0 0 77.15403
-1.1059641 -10.698727 -0.71558297 0 0 0 0 77.158974
-1.319366 -10.690419 -0.63905871 0 0 0 0 77.163918
-1.4998491 -10.561799 -0.57858813 0 0 0 0 77.168869
-1.702018 -10.547104 -0.52413374 0 0 0 0 77.173813
-0.85813439 -10.723163 -0.70336866 0 0 0 0 77.178764
-1.0734636 -10.746783 -0.63687819 0 0 0 0 77.183708
-1.2605119 -10.626784 -0.58437377 0 0 0 0 77.188652
-1.459875 -10.580187 -0.53689146 0 0 0 0 77.193604
-0.60937017 -10.731642 -0.6901387 0 0 0 0 77.198547
-0.82236499 -10.731344 -0.63162887 0 0 0 0 77.203499
-1.0186549 -10.699943 -0.59119099 0 0 0 0 77.208443
-1.2197261 -10.630196 -0.5506618 0 0 0 0 77.213394
-0.3565754 -10.654227 -0.67181051 0 0 0 0 77.218338
-0.57179999 -10.67382 -0.62331432 0 0 0 0 77.223282
-0.7747581 -10.755201 -0.59799749 0 0 0 0 77.228233
-0.97341967 -10.660542 -0.56344789 0 0 0 0 77.233177
-0.11046666 -10.639539 -0.65853006 0 0 0 0 77.238129
-0.32257903 -10.656295 -0.61805147 0 0 0 0 77.243073
-0.52478182 -10.68963 -0.59766805 0 0 0 0 77.248016
-0.73374116 -10.752616 -0.58028078 0 0 0 0 77.252968
-0.077356331 -10.604494 -0.6107105 0 0 0 0 77.262863
-0.27803084 -10.661944 -0.60037374 0 0 0 0 77.267807
-0.48434699 -10.713054 -0.58998728 0 0 0 0 77.272758
-0.038707089 -10.607922 -0.60097915 0 0 0 0 77.971306
-0.24654569 -10.665755 -0.59957176 0 0 0 0 77.976257
0.15661104 -7.4441633 -0.41957644 0 0 0 0 77.991096
0.0018365331 -10.610353 -0.60927451 0 0 0 0 77.99604
0.32002011 -7.2204762 -0.40941089 0 0 0 0 78.010887
0.18336022 -7.3265758 -0.42358819 0 0 0 0 78.015831
0.33855638 -6.9882083 -0.4121896 0 0 0 0 78.035622
1.7049392 -8.5629892 -0.44743598 0 0 0 0 78.09993
1.9182214 -8.5957689 -0.44102803 0 0 0 0 78.11972
1.7280017 -8.5383797 -0.47257 0 0 0 0 78.124664
2.1132481 -8.5483389 -0.43136734 0 0 0 0 78.139503
1.935735 -8.5457869 -0.47208434 0 0 0 0 78.144455
2.1733487 -7.9930506 -0.39495882 0 0 0 0 78.159294
2.2038143 -7.4309926 -0.3603256 0 0 0 0 78.179085
2.0753527 -6.4447737 -0.30489576 0 0 0 0 78.198868
2.166543 -7.2074547 -0.3957215 0 0 0 0 78.203819
2.0808144 -5.9833951 -0.27723363 0 0 0 0 78.218658
2.138875 -6.5627971 -0.35954061 0 0 0 0 78.223602
2.1438391 -6.9897704 -0.44823146 0 0 0 0 78.228554
2.1071365 -5.6424613 -0.25590587 0 0 0 0 78.238449
2.0787232 -5.9091921 -0.32211006 0 0 0 0 78.243393
2.1608768 -6.5020328 -0.42261302 0 0 0 0 78.248344
2.1378272 -5.3458619 -0.23767717 0 0 0 0 78.258232
2.0782826 -5.4965415 -0.29947877 0 0 0 0 78.263184
2.1422369 -5.9751086 -0.39267588 0 0 0 0 78.268127
2.1271629 -6.283679 -0.48404145 0 0 0 0 78.273079
2.1850657 -5.1243758 -0.22368293 0 0 0 0 78.278023
2.1030424 -5.1985846 -0.28320479 0 0 0 0 78.282967
2.0855031 -5.4158626 -0.35941258 0 0 0 0 78.287918
2.1616497 -5.9231935 -0.46674293 0 0 0 0 78.292862
2.1280148 -4.9306917 -0.26897812 0 0 0 0 78.302757
2.0732658 -5.0335608 -0.33774132 0 0 0 0 78.307701
2.171176 -5.5451961 -0.44623643 0 0 0 0 78.312653
2.1594703 -4.7052579 -0.25686321 0 0 0 0 78.322548
2.0863461 -4.7469258 -0.32339948 0 0 0 0 78.327492
2.0755086 -4.9515724 -0.4066368 0 0 0 0 78.332443
2.1047919 -4.5046868 -0.31116423 0 0 0 0 78.347282
2.0634198 -4.6173587 -0.38803932 0 0 0 0 78.352226
2.0971031 -4.2308373 -0.29669073 0 0 0 0 78.367065
2.0593941 -4.3327093 -0.37157571 0 0 0 0 78.372017
2.142988 -4.0823936 -0.29079783 0 0 0 0 78.386856
2.0576258 -4.0772414 -0.35817286 0 0 0 0 78.3918
2.0778511 -3.8891993 -0.35003281 0 0 0 0 78.411591
3.2566559 -5.391284 -0.30789307 0 0 0 0 78.421486
2.0827858 -3.6892264 -0.33976319 0 0 0 0 78.431381
3.0208259 -4.9061351 -0.37538478 0 0 0 0 78.203972
2.1087072 -3.537632 -0.33470422 0 0 0 0 78.208923
4.120316 -5.9584937 -0.23093706 0 0 0 0 78.213867
3.0817454 -4.7565985 -0.37060186 0 0 0 0 78.223763
2.1843426 -3.4770925 -0.33816016 0 0 0 0 78.228706
4.0966005 -5.6496902 -0.21530269 0 0 0 0 78.233658
3.4900382 -4.9744072 -0.29188901 0 0 0 0 78.238602
3.1505134 -4.6265631 -0.36790571 0 0 0 0 78.243553
2.8406355 -4.3035293 -0.4351739 0 0 0 0 78.248497
4.1156344 -5.4135504 -0.20308807 0 0 0 0 78.253448
3.5760052 -4.8584323 -0.28834018 0 0 0 0 78.258392
3.2266123 -4.5079861 -0.36628035 0 0 0 0 78.263336
4.1180086 -5.1714096 -0.19074352 0 0 0 0 78.273232
3.6562936 -4.7371159 -0.28374243 0 0 0 0 78.278183
2.4010186 -3.1927803 -0.26029623 0 0 0 0 78.283127
4.1288834 -4.9548182 -0.1794993 0 0 0 0 78.293022
4.0329156 -4.9860616 -0.30385756 0 0 0 0 78.297966
2.4723933 -3.1370118 -0.26172984 0 0 0 0 78.302917
2.3908 -3.1180608 -0.3381125 0 0 0 0 78.307861
4.0754099 -4.6752872 -0.16669241 0 0 0 0 78.312805
4.064074 -4.7987227 -0.29580459 0 0 0 0 78.317757
2.5560853 -3.0929995 -0.26427108 0 0 0 0 78.322701
2.4854825 -3.0907254 -0.34575883 0 0 0 0 78.327652
4.032434 -4.421422 -0.15500021 0 0 0 0 78.332596
4.0562882 -4.576005 -0.2864151 0 0 0 0 78.337547
3.464637 -4.0057135 -0.35725793 0 0 0 0 78.342491
2.598105 -3.0814929 -0.35556346 0 0 0 0 78.347435
4.0253487 -4.2207837 -0.14564912 0 0 0 0 78.352386
4.0291009 -4.3431149 -0.27486897 0 0 0 0 78.35733
3.5076776 -3.8711572 -0.35336959 0 0 0 0 78.362282
4.0251803 -4.038588 -0.13737614 0 0 0 0 78.372169
4.0823565 -4.2051773 -0.27105147 0 0 0 0 78.377121
3.5757999 -3.7691507 -0.35371324 0 0 0 0 78.382065
4.036098 -3.8720794 -0.13020742 0 0 0 0 78.39196
4.07686 -4.0116448 -0.26272249 0 0 0 0 78.396904
3.6411791 -3.6629777 -0.35303083 0 0 0 0 78.401855
3.2488005 -3.3459594 -0.42870077 0 0 0 0 78.406799
4.0219731 -3.689049 -0.12183141 0 0 0 0 78.411751
4.1105328 -3.8665307 -0.25775185 0 0 0 0 78.416695
3.9316318 -3.7776034 -0.37532178 0 0 0 0 78.421646
3.2849114 -3.2270114 -0.42678511 0 0 0 0 78.42659
4.001503 -3.5116477 -0.11441765 0 0 0 0 78.431534
4.0813379 -3.6675739 -0.24924198 0 0 0 0 78.436485
4.033247 -3.7016544 -0.37895036 0 0 0 0 78.441429
3.3272851 -3.1204586 -0.42693406 0 0 0 0 78.446381
4.0054364 -3.3617492 -0.10822303 0 0 0 0 78.451324
4.0324359 -3.4634304 -0.2395805 0 0 0 0 78.456268
3.9905207 -3.4948745 -0.36832947 0 0 0 0 78.46122
3.3610466 -3.0073831 -0.42601052 0 0 0 0 78.466164
4.0071425 -3.2157247 -0.10201798 0 0 0 0 78.471115
3.9715657 -3.2585676 -0.22983035 0 0 0 0 78.476059
3.9812615 -3.3311629 -0.36201757 0 0 0 0 78.48101
3.393636 -2.897244 -0.42508301 0 0 0 0 78.485954
3.9981751 -3.0640519 -0.095726468 0 0 0 0 78.490898
3.9588439 -3.1026618 -0.22350495 0 0 0 0 78.49585
3.9718986 -3.1694486 -0.35470769 0 0 0 0 78.500793
3.441411 -2.8010366 -0.42628741 0 0 0 0 78.505745
4.0031047 -2.931241 -0.090564772 0 0 0 0 78.510689
3.9535704 -2.9562161 -0.21824798 0 0 0 0 78.515633
3.9735441 -3.0244184 -0.35050333 0 0 0 0 78.520584
3.4949338 -2.7091815 -0.42854053 0 0 0 0 78.525528
4.0127859 -2.8027213 -0.086444125 0 0 0 0 78.530479
3.9470673 -2.8137031 -0.21298787 0 0 0 0 78.535423
3.9875157 -2.8911457 -0.34640652 0 0 0 0 78.540367
3.5156887 -2.5963364 -0.42652291 0 0 0 0 78.545319
3.9391541 -2.6781173 -0.20772792 0 0 0 0 78.555214
4.0175509 -2.7738609 -0.34445125 0 0 0 0 78.560158
3.5700402 -2.5075407 -0.42878705 0 0 0 0 78.565109
3.9466062 -2.5534678 -0.20459652 0 0 0 0 78.574997
4.0050116 -2.631988 -0.33914798 0 0 0 0 78.579948
3.6203964 -2.4185066 -0.43202195 0 0 0 0 78.584892
3.9440906 -2.4282212 -0.20039144 0 0 0 0 78.594788
4.047183 -2.5294559 -0.33930382 0 0 0 0 78.599731
3.6418064 -2.3117151 -0.43001857 0 0 0 0 78.604683
3.9645643 -2.3203807 -0.19838059 0 0 0 0 78.614578
3.9598196 -2.3500388 -0.32739672 0 0 0 0 78.619522
3.6621494 -2.2058599 -0.43000892 0 0 0 0 78.624466
4.0315104 -2.2393727 -0.19774996 0 0 0 0 78.634361
3.9639361 -2.2311997 -0.3242496 0 0 0 0 78.639313
3.7230809 -2.1244793 -0.43333304 0 0 0 0 78.644257
4.8220639 -2.532388 -0.23697576 0 0 0 0 78.654152
4.1902122 -2.230875 -0.34090635 0 0 0 0 78.659096
3.7142382 -2.0048561 -0.42908916 0 0 0 0 78.664047
5.6252894 -2.747051 -0.088025644 0 0 0 0 78.413452
3.9509137 -1.9866365 -0.31771532 0 0 0 0 78.423347
3.7493188 -1.909377 -0.43113765 0 0 0 0 78.428299
3.9291301 -1.8652494 -0.31237653 0 0 0 0 78.443138
3.8179092 -1.8334482 -0.43652463 0 0 0 0 78.448082
3.9344673 -1.7415836 -0.18122615 0 0 0 0 78.457977
3.9393685 -1.7607985 -0.31129622 0 0 0 0 78.462929
3.8252809 -1.7268203 -0.43441975 0 0 0 0 78.467873
3.9503496 -1.6434821 -0.17919648 0 0 0 0 78.477768
3.9241593 -1.6468139 -0.3070161 0 0 0 0 78.482712
3.8490682 -1.6301876 -0.43544957 0 0 0 0 78.487663
3.9612384 -1.5450813 -0.17813 0 0 0 0 78.497551
3.9176266 -1.5383545 -0.30480736 0 0 0 0 78.502502
3.8826554 -1.5371468 -0.43755618 0 0 0 0 78.507446
3.9612799 -1.4440286 -0.17598045 0 0 0 0 78.517342
3.9226589 -1.4375995 -0.30269444 0 0 0 0 78.522293
3.9182439 -1.4442275 -0.43967763 0 0 0 0 78.527237
3.9937801 -1.3529334 -0.17508233 0 0 0 0 78.537132
3.9276297 -1.3378414 -0.30158252 0 0 0 0 78.542076
3.9380608 -1.3473613 -0.43967822 0 0 0 0 78.547028
3.919816 -1.2343128 -0.29937157 0 0 0 0 78.561867
3.9666717 -1.2540262 -0.44174829 0 0 0 0 78.566811
3.932476 -1.1400232 -0.29932386 0 0 0 0 78.581657
3.9707742 -1.1522133 -0.4406268 0 0 0 0 78.586601
3.9283662 -1.0417248 -0.29714763 0 0 0 0 78.60144
3.9914773 -1.0574049 -0.44163698 0 0 0 0 78.606392
6.2397881 -1.484309 -0.063671939 0 0 0 0 78.611336
3.9222052 -0.94430459 -0.29495767 0 0 0 0 78.621231
5.9000664 -1.2697527 -0.056876391 0 0 0 0 78.631126
5.3596067 -1.1560038 -0.23176761 0 0 0 0 78.63607
5.3899279 -1.034763 -0.23181133 0 0 0 0 78.655861
5.4331121 -0.91629982 -0.2319532 0 0 0 0 78.675644
5.4525266 -0.79340428 -0.2319148 0 0 0 0 78.695435
5.5008264 -0.67324734 -0.23309159 0 0 0 0 78.715225
6.3612347 -0.64820039 -0.054341484 0 0 0 0 78.730064
5.5501237 -0.55315137 -0.23527589 0 0 0 0 78.735008
5.6006131 -0.43012518 -0.2364645 0 0 0 0 78.754799
5.6451802 -0.30574271 -0.23760784 0 0 0 0 78.77459
5.7149334 -0.17887013 -0.24093175 0 0 0 0 78.794373
5.7608051 -0.049560666 -0.24307729 0 0 0 0 78.814163
5.825829 0.081597328 -0.24536031 0 0 0 0 78.833954
5.8549867 0.215918 -0.24737592 0 0 0 0 78.853737
5.9213161 0.35200235 -0.25066122 0 0 0 0 78.873528
5.9596233 0.49296036 -0.25266531 0 0 0 0 78.757774
6.0011697 0.63354796 -0.25576201 0 0 0 0 78.777565
6.0500112 0.77870321 -0.25890505 0 0 0 0 78.797356
3.8636041 0.55995399 -0.428253 0 0 0 0 78.807251
6.0615821 0.92009002 -0.25978118 0 0 0 0 78.817139
3.8430481 0.65023631 -0.42696655 0 0 0 0 78.827034
6.0783772 1.0651711 -0.2626898 0 0 0 0 78.836929
5.2695374 0.97682458 -0.40390965 0 0 0 0 78.841873
3.8478506 0.74600631 -0.42885718 0 0 0 0 78.846825
6.1804557 1.2291521 -0.26819384 0 0 0 0 78.85672
5.2834387 1.1070735 -0.40681759 0 0 0 0 78.861664
3.8476069 0.84107912 -0.43071178 0 0 0 0 78.866615
6.218883 1.3839456 -0.272246 0 0 0 0 78.876503
5.2701097 1.2339548 -0.40753096 0 0 0 0 78.881454
3.8464303 0.93721038 -0.43255779 0 0 0 0 78.886398
6.2860436 1.5500271 -0.27749139 0 0 0 0 78.896294
5.3035774 1.3730426 -0.41256842 0 0 0 0 78.901237
3.847436 1.0362158 -0.43441522 0 0 0 0 78.906189
5.3159246 1.5103974 -0.41545361 0 0 0 0 78.921028
3.8454523 1.135402 -0.4362503 0 0 0 0 78.925972
5.3487105 1.6545337 -0.42047819 0 0 0 0 78.940819
3.8404191 1.233771 -0.43806413 0 0 0 0 78.945763
5.3910832 1.8081081 -0.42655852 0 0 0 0 78.960602
3.8333948 1.3322612 -0.439863 0 0 0 0 78.965553
5.4346361 1.9646161 -0.43364307 0 0 0 0 78.980392
3.8388894 1.4390122 -0.4427408 0 0 0 0 78.985336
5.4663472 2.1238415 -0.43963641 0 0 0 0 79.000183
3.83828 1.5441289 -0.44557619 0 0 0 0 79.005127
8.4934969 3.2484994 -0.098128475 0 0 0 0 79.010078
5.5033598 2.2877541 -0.4456614 0 0 0 0 79.019966
3.8501832 1.6575071 -0.45049068 0 0 0 0 79.024918
8.463975 3.4544318 -0.10260721 0 0 0 0 79.029861
5.5613503 2.4674287 -0.45481619 0 0 0 0 79.039757
3.8489497 1.7686732 -0.45331183 0 0 0 0 79.044701
8.4605141 3.6768196 -0.10625155 0 0 0 0 79.049652
5.6032052 2.6450722 -0.46285558 0 0 0 0 79.059547
3.8436086 1.8780849 -0.45610532 0 0 0 0 79.064491
8.4583578 3.9041393 -0.11089753 0 0 0 0 79.069435
5.6041446 2.8081594 -0.46661636 0 0 0 0 79.07933
3.8446782 1.9941224 -0.45993555 0 0 0 0 79.084282
8.4191904 4.1156712 -0.11529531 0 0 0 0 79.089226
3.8449907 2.1142149 -0.46475375 0 0 0 0 79.104065
8.4081268 4.3445368 -0.12087258 0 0 0 0 79.109016
3.8433204 2.2344267 -0.46855697 0 0 0 0 79.123856
8.4390612 4.6049175 -0.12670976 0 0 0 0 79.128799
3.8336182 2.3541236 -0.47130162 0 0 0 0 79.143646
8.4215145 4.8421946 -0.1332255 0 0 0 0 79.14859
3.8459449 2.4905212 -0.47818249 0 0 0 0 79.163429
8.4106951 5.0910859 -0.13977233 0 0 0 0 79.168381
3.8221071 2.6080718 -0.47982582 0 0 0 0 79.18322
8.4158316 5.3550391 -0.14641292 0 0 0 0 79.188164
3.8245952 2.7470708 -0.48562971 0 0 0 0 79.203011
8.4143524 5.6254072 -0.15399441 0 0 0 0 79.207954
3.8242779 2.889246 -0.49140778 0 0 0 0 79.222794
8.4017315 5.8811774 -0.1620068 0 0 0 0 79.945412
3.8255856 3.0292439 -0.49727011 0 0 0 0 79.960258
8.4026289 6.1694551 -0.17157006 0 0 0 0 79.965202
8.391696 6.4604673 -0.1800399 0 0 0 0 79.984993
8.1100426 6.5367813 -0.18282017 0 0 0 0 80.004776
3.8136411 3.4975617 -0.51744306 0 0 0 0 80.019623
7.7718582 6.5574946 -0.1842629 0 0 0 0 80.024567
7.8339357 6.9326591 -0.48314422 0 0 0 0 80.02951
7.7569504 6.8487744 -0.19469972 0 0 0 0 80.044357
7.7673588 7.1980801 -0.49123418 0 0 0 0 80.049301
7.7503438 7.160583 -0.2051657 0 0 0 0 80.06414
7.9788294 7.7488813 -0.51895767 0 0 0 0 80.069092
7.936841 7.6788511 -0.22275323 0 0 0 0 80.083931
7.9700251 8.1059113 -0.53233504 0 0 0 0 80.088875
7.9190764 8.0204067 -0.23508762 0 0 0 0 80.103722
7.9260139 8.4440851 -0.54447734 0 0 0 0 80.108665
7.9235039 8.3966599 -0.24953306 0 0 0 0 80.123505
7.6657228 8.5562 -0.54135275 0 0 0 0 80.128456
7.3520441 8.6350203 -0.80587953 0 0 0 0 80.1334
7.6904511 8.5291443 -0.25658047 0 0 0 0 80.143295
7.3581386 8.6001263 -0.53597933 0 0 0 0 80.148239
6.9779549 8.5898838 -0.7821461 0 0 0 0 80.153191
7.4246206 8.6175861 -0.26244989 0 0 0 0 80.163086
7.0074568 8.5786066 -0.52538401 0 0 0 0 80.16803
6.6660428 8.6110477 -0.76477283 0 0 0 0 80.172974
7.0812621 8.6026459 -0.26489896 0 0 0 0 80.182869
6.6871819 8.5792665 -0.5179801 0 0 0 0 80.18782
6.4338098 8.7224741 -0.7568537 0 0 0 0 80.192764
6.0821743 8.735527 -0.99619478 0 0 0 0 80.197708
6.7595444 8.5973988 -0.2674934 0 0 0 0 80.20266
6.5029988 8.7558546 -0.52131867 0 0 0 0 80.207603
6.1266427 8.7233372 -0.74054497 0 0 0 0 80.212555
4.25633 6.4017982 -0.70716524 0 0 0 0 80.217499
6.555316 8.7421761 -0.27573159 0 0 0 0 80.22245
6.1881595 8.7471895 -0.5139671 0 0 0 0 80.227394
4.2929416 6.4022369 -0.52743554 0 0 0 0 80.232338
4.0335398 6.39046 -0.68650538 0 0 0 0 80.237289
6.2654514 8.7660427 -0.28051606 0 0 0 0 80.242233
5.8873539 8.7386694 -0.50671917 0 0 0 0 80.247185
4.0785027 6.3974061 -0.51582813 0 0 0 0 80.252129
3.8209629 6.3825088 -0.66791582 0 0 0 0 80.257072
5.96663 8.7584171 -0.28328151 0 0 0 0 80.262024
4.1213346 6.4045038 -0.36313531 0 0 0 0 80.266968
3.8644407 6.3825445 -0.50423825 0 0 0 0 80.271919
3.9861226 7.0434794 -0.72010642 0 0 0 0 80.276863
4.1705008 6.4001794 -0.20650859 0 0 0 0 80.281807
3.9060359 6.3867235 -0.35854068 0 0 0 0 80.286758
4.0153747 7.006309 -0.54338086 0 0 0 0 80.291702
3.7677603 7.0389075 -0.70146596 0 0 0 0 80.296654
3.9585161 6.3882155 -0.20892952 0 0 0 0 80.301598
3.7190938 6.4062672 -0.35609907 0 0 0 0 80.306549
3.8218067 7.0472999 -0.53585464 0 0 0 0 80.311493
4.2634335 8.4618845 -0.82493377 0 0 0 0 80.316437
3.759129 6.3854976 -0.21142949 0 0 0 0 80.321388
3.8715944 7.0539727 -0.38921458 0 0 0 0 80.326332
4.3286753 8.4695415 -0.63440782 0 0 0 0 80.331284
4.0133104 8.4612989 -0.80404574 0 0 0 0 80.336227
3.9375606 7.0626383 -0.23969363 0 0 0 0 80.341171
3.6736226 7.0732145 -0.38768855 0 0 0 0 80.346123
4.0851498 8.4795809 -0.62355256 0 0 0 0 80.351067
3.7654896 8.4495621 -0.78419149 0 0 0 0 80.356018
3.7272673 7.0616155 -0.24310686 0 0 0 0 80.360962
4.1494732 8.492341 -0.46401227 0 0 0 0 80.365913
3.8361547 8.4659243 -0.61069232 0 0 0 0 80.370857
3.5303838 8.4490709 -0.76541388 0 0 0 0 80.375801
4.2323523 8.5129538 -0.30059978 0 0 0 0 80.380753
3.9079568 8.4872484 -0.4601948 0 0 0 0 80.385696
3.5986822 8.4605827 -0.59990448 0 0 0 0 80.390648
3.2878108 8.4250078 -0.74461609 0 0 0 0 80.395592
3.9849768 8.4952145 -0.30475822 0 0 0 0 80.400536
3.6660042 8.4751835 -0.45638373 0 0 0 0 80.405487
3.3648901 8.4500141 -0.58915144 0 0 0 0 80.410431
3.0642285 8.4328423 -0.72790951 0 0 0 0 80.415382
3.7440639 8.4956293 -0.30996656 0 0 0 0 80.125702
3.4322755 8.4770336 -0.45365632 0 0 0 0 80.130653
3.1295569 8.4408255 -0.57844126 0 0 0 0 80.135597
2.8396761 8.4348927 -0.71127433 0 0 0 0 80.140549
3.5125318 8.4908638 -0.31423131 0 0 0 0 80.145493
3.1981177 8.4614115 -0.4509173 0 0 0 0 80.150444
2.9074199 8.4404888 -0.56876713 0 0 0 0 80.155388
2.6185198 8.4334965 -0.69560796 0 0 0 0 80.160332
3.2838624 8.4839287 -0.31951973 0 0 0 0 80.165283
2.9743111 8.45117 -0.44824627 0 0 0 0 80.170227
2.6861498 8.4381075 -0.56010139 0 0 0 0 80.175179
2.4009917 8.4258738 -0.67897755 0 0 0 0 80.180122
3.0558803 8.4719543 -0.32482001 0 0 0 0 80.185066
2.7573531 8.4545422 -0.44660378 0 0 0 0 80.190018
2.4707437 8.4333706 -0.55148232 0 0 0 0 80.194962
2.1833315 8.4162664 -0.66334808 0 0 0 0 80.199913
2.8338938 8.4596176 -0.32916462 0 0 0 0 80.204857
2.5352943 8.4402075 -0.44394979 0 0 0 0 80.209808
2.2541535 8.4257107 -0.54285765 0 0 0 0 80.214752
1.97539 8.4180918 -0.64877224 0 0 0 0 80.219696
2.6141429 8.4511614 -0.33451861 0 0 0 0 80.224648
2.3190365 8.4225187 -0.44134355 0 0 0 0 80.229591
2.042367 8.4147596 -0.53427321 0 0 0 0 80.234543
1.7636555 8.4071379 -0.633187 0 0 0 0 80.239487
2.4003105 8.44135 -0.34091806 0 0 0 0 80.244431
2.1105514 8.4334154 -0.44074905 0 0 0 0 80.249382
1.8348126 8.4075642 -0.52671337 0 0 0 0 80.254326
1.5570276 8.3978825 -0.61863631 0 0 0 0 80.259277
2.1876693 8.4344788 -0.34632057 0 0 0 0 80.264221
1.9030691 8.4282293 -0.4401865 0 0 0 0 80.269165
1.6288772 8.4102983 -0.51914871 0 0 0 0 80.274117
1.3548805 8.3963747 -0.60510582 0 0 0 0 80.27906
1.9803832 8.4332981 -0.35275307 0 0 0 0 80.284012
1.6940372 8.4141331 -0.43862528 0 0 0 0 80.288956
1.4253694 8.4038763 -0.5126158 0 0 0 0 80.293907
1.1513627 8.3889523 -0.59157324 0 0 0 0 80.298851
1.7736673 8.4250793 -0.35819989 0 0 0 0 80.303795
1.4922206 8.4196386 -0.43908599 0 0 0 0 80.308746
1.2218686 8.3974628 -0.50508171 0 0 0 0 80.31369
0.95102513 8.384347 -0.57805896 0 0 0 0 80.318642
1.5693749 8.4237347 -0.36465281 0 0 0 0 80.323586
1.2872344 8.4063148 -0.43855163 0 0 0 0 80.328529
1.0192339 8.3890038 -0.4985562 0 0 0 0 80.333481
0.75074202 8.3807526 -0.56554228 0 0 0 0 80.338425
1.364647 8.4154139 -0.37111244 0 0 0 0 80.343376
1.0864264 8.3957472 -0.43804324 0 0 0 0 80.34832
0.82220352 8.3902264 -0.49305639 0 0 0 0 80.353271
0.55214381 8.3720541 -0.55304539 0 0 0 0 80.358215
1.162477 8.399931 -0.37760156 0 0 0 0 80.363159
0.88610792 8.3931751 -0.4385246 0 0 0 0 80.368111
0.62418491 8.3754883 -0.48657343 0 0 0 0 80.373055
0.35566583 8.3652372 -0.54056031 0 0 0 0 80.378006
0.96223807 8.3993673 -0.38408026 0 0 0 0 80.38295
0.68872124 8.38943 -0.43902877 0 0 0 0 80.387894
0.42547897 8.3658142 -0.48007601 0 0 0 0 80.392845
0.16024022 8.3593693 -0.52908051 0 0 0 0 80.397789
0.76367623 8.3937006 -0.39157864 0 0 0 0 80.40274
0.48990795 8.3787689 -0.43853205 0 0 0 0 80.407684
0.23062336 8.3699389 -0.47558451 0 0 0 0 80.412628
-0.037743621 8.3606834 -0.51756871 0 0 0 0 80.41758
0.56804568 8.3868599 -0.39909992 0 0 0 0 80.422523
0.29425997 8.3709288 -0.44005364 0 0 0 0 80.427475
0.033218808 8.3652143 -0.47008669 0 0 0 0 80.432419
-0.23185137 8.343729 -0.50511432 0 0 0 0 80.43737
0.36991939 8.3882008 -0.40658799 0 0 0 0 80.442314
0.098556735 8.3620996 -0.44057524 0 0 0 0 80.447258
-0.16094187 8.3482752 -0.46463183 0 0 0 0 80.452209
-0.42697361 8.3428841 -0.4946253 0 0 0 0 80.457153
0.17342301 8.3674059 -0.41312271 0 0 0 0 80.462105
-0.098713949 8.3603926 -0.44207239 0 0 0 0 80.467049
-0.35623404 8.3454437 -0.46014473 0 0 0 0 80.471992
-0.62378001 8.3471622 -0.4841142 0 0 0 0 80.476944
-0.023027359 8.3636541 -0.42162937 0 0 0 0 80.481888
-0.29411355 8.356576 -0.44358596 0 0 0 0 80.486839
-0.55283624 8.3376961 -0.45565441 0 0 0 0 80.491783
-0.8193388 8.3393507 -0.47363076 0 0 0 0 80.496727
-0.22053069 8.3589754 -0.42912835 0 0 0 0 80.501678
-0.48988783 8.3467808 -0.44510511 0 0 0 0 80.506622
-0.7491343 8.3349485 -0.45215723 0 0 0 0 80.511574
-1.0174552 8.3387213 -0.46311525 0 0 0 0 80.516518
-0.41554734 8.3461361 -0.4376581 0 0 0 0 80.521469
-0.68684787 8.3340645 -0.44661883 0 0 0 0 80.526413
-0.94554985 8.3302145 -0.44766116 0 0 0 0 80.531357
-1.2148306 8.3340511 -0.45361075 0 0 0 0 80.536308
-0.61411953 8.3405447 -0.44614819 0 0 0 0 80.541252
-0.88394737 8.3353958 -0.45010781 0 0 0 0 80.546204
-1.1452231 8.3377209 -0.44511962 0 0 0 0 80.551147
-1.4122614 8.3283901 -0.44310617 0 0 0 0 80.556091
-0.81294799 8.347003 -0.45561579 0 0 0 0 80.561043
-1.0840957 8.3359261 -0.45257381 0 0 0 0 80.565987
-1.3420838 8.3260231 -0.44162905 0 0 0 0 80.570938
-1.6135669 8.3249874 -0.43356746 0 0 0 0 80.575882
-1.0097196 8.3383141 -0.46512216 0 0 0 0 80.580833
-1.2812524 8.3202477 -0.45508733 0 0 0 0 80.585777
-1.5451812 8.3267488 -0.43807006 0 0 0 0 80.590721
-1.8144298 8.3125496 -0.42304543 0 0 0 0 80.595673
-1.2146876 8.3237972 -0.4737767 0 0 0 0 80.361458
-1.4879271 8.3257923 -0.4587054 0 0 0 0 80.366402
-1.7498692 8.3150549 -0.43473911 0 0 0 0 80.371353
-2.0203881 8.3118725 -0.41469571 0 0 0 0 80.376297
-1.4160815 8.3213673 -0.4842428 0 0 0 0 80.381241
-1.690819 8.3144388 -0.4611733 0 0 0 0 80.386192
-1.9481617 8.296402 -0.43125236 0 0 0 0 80.391136
-2.2250612 8.3026361 -0.40514448 0 0 0 0 80.396088
-1.617842 8.3129587 -0.49371454 0 0 0 0 80.401031
-1.891785 8.3019743 -0.46465635 0 0 0 0 80.405975
-2.1578872 8.3035231 -0.42963678 0 0 0 0 80.410927
-2.4323552 8.2995863 -0.39556238 0 0 0 0 80.415871
-1.8219799 8.2986984 -0.50417644 0 0 0 0 80.420822
-2.0972514 8.2978182 -0.46909091 0 0 0 0 80.425766
-2.3644853 8.2964325 -0.42706633 0 0 0 0 80.430717
-2.6403344 8.2855692 -0.38599142 0 0 0 0 80.435661
-2.0284276 8.2956142 -0.51460183 0 0 0 0 80.440605
-2.3060157 8.288867 -0.47250697 0 0 0 0 80.445557
-2.5696487 8.2802448 -0.42452013 0 0 0 0 80.4505
-2.8543108 8.2879686 -0.37734759 0 0 0 0 80.455452
-2.2373152 8.2856808 -0.52601856 0 0 0 0 80.460396
-2.5155995 8.2829866 -0.47691077 0 0 0 0 80.46534
-2.7874832 8.2859011 -0.42284182 0 0 0 0 80.470291
-3.0635386 8.2700424 -0.367771 0 0 0 0 80.475235
-2.4463205 8.2737608 -0.53643626 0 0 0 0 80.480186
-2.731179 8.2774925 -0.48226726 0 0 0 0 80.48513
-3.0003824 8.2742271 -0.42022735 0 0 0 0 80.490074
-3.2848132 8.267911 -0.35907668 0 0 0 0 80.495026
-2.6623979 8.2773266 -0.54977447 0 0 0 0 80.499969
-2.9424477 8.2607164 -0.48667324 0 0 0 0 80.504921
-3.2184045 8.2608824 -0.41857553 0 0 0 0 80.509865
-3.5061579 8.2647943 -0.35138208 0 0 0 0 80.514816
-2.8820233 8.2721062 -0.56209862 0 0 0 0 80.51976
-3.160274 8.2513771 -0.4920164 0 0 0 0 80.524704
-3.4434199 8.2640171 -0.41784304 0 0 0 0 80.529655
-3.7346063 8.2601299 -0.34263483 0 0 0 0 80.534599
-3.0992794 8.2567301 -0.57445568 0 0 0 0 80.539551
-3.3875265 8.2516575 -0.49827144 0 0 0 0 80.544495
-3.6689901 8.2581806 -0.4161194 0 0 0 0 80.549438
-3.9541914 8.2368851 -0.33298326 0 0 0 0 80.55439
-3.3250813 8.2489147 -0.58673453 0 0 0 0 80.559334
-3.6150911 8.2469597 -0.50453073 0 0 0 0 80.564285
-3.8998706 8.2476788 -0.41536164 0 0 0 0 80.569229
-4.1940618 8.2419767 -0.32513106 0 0 0 0 80.574173
-3.5527074 8.2442322 -0.60099328 0 0 0 0 80.579124
-3.8488324 8.2396536 -0.510746 0 0 0 0 80.584068
-4.1327477 8.2373152 -0.4145872 0 0 0 0 80.58902
-4.4373636 8.240283 -0.31726232 0 0 0 0 80.593964
-3.7847009 8.2338228 -0.61522675 0 0 0 0 80.598915
-4.0801425 8.2231913 -0.51699311 0 0 0 0 80.603859
-4.3718009 8.2243443 -0.41376868 0 0 0 0 80.608803
-4.6747975 8.2201977 -0.30846623 0 0 0 0 80.613754
-4.0226908 8.2238045 -0.6304127 0 0 0 0 80.618698
-4.319942 8.2152901 -0.52416068 0 0 0 0 80.62365
-4.6200919 8.2239895 -0.41385838 0 0 0 0 80.628593
-4.9255166 8.2119789 -0.2995488 0 0 0 0 80.633537
-4.2638001 8.2119894 -0.64557654 0 0 0 0 80.638489
-4.5661063 8.2017879 -0.53128755 0 0 0 0 80.643433
-4.8645115 8.205369 -0.41300535 0 0 0 0 80.648384
-5.1857929 8.2113886 -0.29254505 0 0 0 0 80.653328
-4.5110869 8.1975679 -0.66069621 0 0 0 0 80.658279
-4.817081 8.1916075 -0.53937101 0 0 0 0 80.663223
-5.1243448 8.1967468 -0.41301778 0 0 0 0 80.668167
-5.4438744 8.1976461 -0.28357759 0 0 0 0 80.673119
-4.7713666 8.2000103 -0.67868859 0 0 0 0 80.678062
-5.0817227 8.1873093 -0.54833972 0 0 0 0 80.683014
-5.3881779 8.1883898 -0.41399786 0 0 0 0 80.687958
-5.7221704 8.1972113 -0.27543354 0 0 0 0 80.692902
-5.0287123 8.1852465 -0.69572943 0 0 0 0 80.697853
-5.3494844 8.1812162 -0.55728614 0 0 0 0 80.702797
-5.6657324 8.1849174 -0.41486415 0 0 0 0 80.707748
-6.0027833 8.1919279 -0.26827806 0 0 0 0 80.712692
-5.2924857 8.163887 -0.71273053 0 0 0 0 80.717636
-5.627171 8.1767635 -0.56715274 0 0 0 0 80.722588
-5.9493461 8.1808386 -0.41668373 0 0 0 0 80.727531
-6.2814531 8.1695013 -0.25916329 0 0 0 0 80.732483
-5.5796728 8.1690655 -0.73350924 0 0 0 0 80.737427
-5.9021211 8.1521149 -0.57707119 0 0 0 0 80.742378
-6.2318344 8.1626749 -0.41753289 0 0 0 0 80.747322
-6.5913167 8.1771069 -0.25176111 0 0 0 0 80.752266
-5.8687282 8.1603479 -0.75329447 0 0 0 0 80.757217
-6.1858029 8.1320372 -0.58691418 0 0 0 0 80.762161
-6.5375299 8.1580095 -0.419182 0 0 0 0 80.767113
-6.8982472 8.1675091 -0.24340717 0 0 0 0 80.772057
-6.1648483 8.1510906 -0.77502513 0 0 0 0 80.777
-6.5001888 8.1339474 -0.59948629 0 0 0 0 80.781952
