# .PCD v0.7 - Point Cloud Data file format
VERSION 0.7
FIELDS x y z normal_x normal_y normal_z intensity curvature
SIZE 4 4 4 4 4 4 4 4
TYPE F F F F F F F F
COUNT 1 1 1 1 1 1 1 1
WIDTH 935
HEIGHT 1
VIEWPOINT 0 0 0 1 0 0 0
POINTS 935
DATA ascii
-0.37477645 0.10035662 0.029840169 0 0 0 0 44.308594
-0.37481296 0.096323848 0.040832106 0 0 0 0 44.313545
-0.36785552 0.091249853 0.051832762 0 0 0 0 44.318489
-0.3677775 0.09336327 0.016844139 0 0 0 0 44.323441
-0.34187931 0.074185684 0.027851505 0 0 0 0 44.348175
-0.34490246 0.072173558 0.03784465 0 0 0 0 44.353119
-0.34293166 0.069131881 0.04784314 0 0 0 0 44.358063
-0.34587035 0.069253854 0.015842961 0 0 0 0 44.363014
-0.33394313 0.055158105 0.026842216 0 0 0 0 44.387749
-0.34795615 0.05520786 0.037822817 0 0 0 0 44.392693
-0.3509753 0.054192446 0.048819091 0 0 0 0 44.397644
-0.32494819 0.048146147 0.01584943 0 0 0 0 44.402588
-0.33899146 0.03920424 0.026819827 0 0 0 0 44.427322
-0.3530046 0.039254192 0.037800308 0 0 0 0 44.432274
-0.34902823 0.037200287 0.047805373 0 0 0 0 44.437218
-0.32899672 0.0321863 0.015828662 0 0 0 0 44.442162
-0.33604661 0.022202866 0.026807599 0 0 0 0 44.466904
-0.34905812 0.022250244 0.036789689 0 0 0 0 44.471848
-0.34807593 0.021214025 0.046792775 0 0 0 0 44.476791
-0.32705209 0.015190792 0.015814614 0 0 0 0 44.481743
-0.32509494 0.0061566345 0.025812149 0 0 0 0 44.506477
-0.34711415 0.0052548987 0.036775224 0 0 0 0 44.511421
-0.34912601 0.0052365041 0.046776321 0 0 0 0 44.516373
-0.33009788 0.00022191516 0.016797967 0 0 0 0 44.521317
-0.32513952 -0.0088271657 0.025800522 0 0 0 0 44.546051
-0.34915879 -0.0097165015 0.036759924 0 0 0 0 44.551003
-0.34616914 -0.0097618205 0.045769714 0 0 0 0 44.555946
-0.33015469 -0.016761614 0.016779631 0 0 0 0 44.56089
-0.3241908 -0.024816973 0.025787007 0 0 0 0 44.585625
-0.34421459 -0.02672678 0.035749946 0 0 0 0 44.590576
-0.34322071 -0.025763491 0.045759499 0 0 0 0 44.59552
-0.32649824 -0.033871487 0.016532706 0 0 0 0 44.347557
-0.3395406 -0.042816352 0.026504483 0 0 0 0 44.372292
-0.34655643 -0.043801669 0.035493776 0 0 0 0 44.377235
-0.35056221 -0.042807981 0.045494627 0 0 0 0 44.382187
-0.33856156 -0.051787198 0.017491069 0 0 0 0 44.387131
-0.33759704 -0.059811693 0.026489781 0 0 0 0 44.411865
-0.34961289 -0.060767245 0.035470385 0 0 0 0 44.416817
-0.34661126 -0.058812011 0.044486478 0 0 0 0 44.421761
-0.34162411 -0.069752693 0.017464355 0 0 0 0 44.426712
-0.33865416 -0.076789215 0.026469516 0 0 0 0 44.451447
-0.35067192 -0.077747844 0.036449984 0 0 0 0 44.45639
-0.34866858 -0.075783581 0.044464376 0 0 0 0 44.461342
-0.33668765 -0.087765813 0.017451001 0 0 0 0 44.466286
-0.33871982 -0.094775893 0.027447294 0 0 0 0 44.49102
-0.35574186 -0.096701175 0.036415718 0 0 0 0 44.495964
-0.3417131 -0.090805776 0.043463964 0 0 0 0 44.500916
-0.35778916 -0.11162644 0.018372584 0 0 0 0 44.505859
-0.36884573 -0.12258216 0.028339794 0 0 0 0 44.530594
-0.37385014 -0.12157926 0.037338708 0 0 0 0 44.535545
-0.36883077 -0.11663658 0.046368089 0 0 0 0 44.540489
-0.35386223 -0.13063663 0.01935323 0 0 0 0 44.545441
-0.33384413 -0.12977295 0.027413575 0 0 0 0 44.570175
-0.35989037 -0.13564332 0.036352828 0 0 0 0 44.575119
-0.36088294 -0.13266464 0.04536524 0 0 0 0 44.580063
-0.37098998 -0.15852003 0.020267202 0 0 0 0 44.585014
-0.37402982 -0.1665238 0.030257469 0 0 0 0 44.609749
-0.38704643 -0.16747241 0.039235629 0 0 0 0 44.614693
-0.38501915 -0.16150869 0.047263145 0 0 0 0 44.619644
-0.43727902 -0.21211165 0.023008611 0 0 0 0 44.624588
-0.42127171 -0.21223016 0.033057909 0 0 0 0 44.649323
-0.43829626 -0.21415742 0.043025509 0 0 0 0 44.654274
-0.43927079 -0.20817877 0.052047681 0 0 0 0 44.659218
-0.40730575 -0.22327547 0.02305916 0 0 0 0 44.664162
-0.41837728 -0.23622994 0.033017848 0 0 0 0 44.688904
-0.4213579 -0.23123921 0.042033214 0 0 0 0 44.693848
-0.43437052 -0.23119064 0.052014321 0 0 0 0 44.698792
-0.40140745 -0.24629709 0.02402758 0 0 0 0 44.703743
-8.8510027 -5.6317353 0.30906215 0 0 0 0 44.723526
-0.42954841 -0.27015057 0.034919154 0 0 0 0 44.728477
-0.43152115 -0.26416266 0.042939607 0 0 0 0 44.733421
-0.42646343 -0.25321779 0.050989136 0 0 0 0 44.738373
-8.8328409 -5.9217892 0.32008827 0 0 0 0 44.743317
-8.8753366 -5.7821331 0.51046383 0 0 0 0 44.74826
-8.9478951 -5.6592202 0.67872989 0 0 0 0 44.753212
-8.8157654 -6.2248368 0.33106592 0 0 0 0 44.763107
-8.85818 -6.0731683 0.51748168 0 0 0 0 44.768051
-8.9045506 -5.9213958 0.67989093 0 0 0 0 44.773003
-8.9458666 -5.7606583 0.84333944 0 0 0 0 44.777946
-8.7967491 -6.5359001 0.34301692 0 0 0 0 44.78289
-8.8370514 -6.3672318 0.52549332 0 0 0 0 44.787842
-8.8783445 -6.2044744 0.68294859 0 0 0 0 44.792786
-8.927598 -6.0346751 0.84241325 0 0 0 0 44.797737
-8.7687387 -6.8470197 0.35498032 0 0 0 0 44.802681
-8.8179989 -6.672287 0.53446114 0 0 0 0 44.807625
-8.8652401 -6.5024767 0.68692946 0 0 0 0 44.812576
-8.9104156 -6.3216858 0.84143859 0 0 0 0 44.81752
-8.7587385 -7.1822939 0.36996746 0 0 0 0 44.772095
-8.8119555 -7.0015192 0.54445928 0 0 0 0 44.777046
-8.8450251 -6.8047786 0.69204092 0 0 0 0 44.78199
-8.8830805 -6.6060071 0.83962071 0 0 0 0 44.786942
-8.7459555 -7.5283308 0.3847844 0 0 0 0 44.791885
-8.7920389 -7.3275833 0.55435598 0 0 0 0 44.796837
-8.8210106 -7.1168485 0.69599217 0 0 0 0 44.801781
-8.8700171 -6.9110003 0.84057635 0 0 0 0 44.806725
-8.6799784 -7.8426886 0.39779922 0 0 0 0 44.811676
-8.7681789 -7.6616726 0.56422931 0 0 0 0 44.81662
-8.8141441 -7.4508233 0.70283562 0 0 0 0 44.821571
-8.8500013 -7.223033 0.84051746 0 0 0 0 44.826515
-8.2378187 -7.8083072 0.39465821 0 0 0 0 44.831459
-8.5593586 -7.8428631 0.56294537 0 0 0 0 44.836411
-8.7862692 -7.7829213 0.70771956 0 0 0 0 44.841354
-8.8240099 -7.5380998 0.8394556 0 0 0 0 44.846306
-7.8287373 -7.7867308 0.39141768 0 0 0 0 44.85125
-8.1261568 -7.8053946 0.54780096 0 0 0 0 44.856194
-8.4445992 -7.8318763 0.68911904 0 0 0 0 44.861145
-8.7820301 -7.8542628 0.83741564 0 0 0 0 44.866089
-7.428565 -7.7501121 0.38921455 0 0 0 0 44.87104
-7.713933 -7.7638083 0.53363562 0 0 0 0 44.875984
-8.0263863 -7.795289 0.66394687 0 0 0 0 44.880936
-8.3728981 -7.8335843 0.80217254 0 0 0 0 44.88588
-7.0494075 -7.7163682 0.38596666 0 0 0 0 44.890823
-7.336803 -7.7370205 0.52135986 0 0 0 0 44.895775
-7.6412625 -7.7725124 0.64067131 0 0 0 0 44.900719
-7.9515715 -7.7819858 0.76605886 0 0 0 0 44.90567
-6.6952853 -7.6874871 0.38565969 0 0 0 0 44.910614
-6.9706287 -7.7031727 0.50909084 0 0 0 0 44.915558
-7.267077 -7.7396784 0.61841255 0 0 0 0 44.920509
-7.578455 -7.7631102 0.73375034 0 0 0 0 44.925453
-6.3632107 -7.6664729 0.38428873 0 0 0 0 44.930405
-6.6285295 -7.6811862 0.49774066 0 0 0 0 44.935349
-6.9088736 -7.7037568 0.59713793 0 0 0 0 44.940292
-7.2162709 -7.7331777 0.7024619 0 0 0 0 44.945244
-6.2518153 -7.9101396 0.3956216 0 0 0 0 44.950188
-6.316535 -7.6750293 0.48928443 0 0 0 0 44.955139
-6.5757656 -7.6826925 0.57776999 0 0 0 0 44.960083
-6.8670588 -7.6981788 0.67316961 0 0 0 0 44.965034
-6.2281947 -8.2742891 0.41438332 0 0 0 0 44.969978
-6.2685986 -7.9913025 0.50025356 0 0 0 0 44.974922
-6.2949467 -7.706326 0.56315702 0 0 0 0 44.979874
-6.5459795 -7.6840177 0.64575791 0 0 0 0 44.984818
-6.2178507 -8.6803665 0.43597433 0 0 0 0 44.989769
-6.2459712 -8.3544321 0.51501375 0 0 0 0 44.994713
-6.2782431 -8.0593987 0.57194149 0 0 0 0 44.999657
-6.2993727 -7.7424278 0.62696493 0 0 0 0 45.004608
-6.17945 -9.0766134 0.45564571 0 0 0 0 45.009552
-6.2285414 -8.7475338 0.53065825 0 0 0 0 45.014503
-6.2505565 -8.4135447 0.58173829 0 0 0 0 45.019447
-6.2786069 -8.0865059 0.62978452 0 0 0 0 45.024399
-6.1573486 -9.5177727 0.47912973 0 0 0 0 45.029343
-6.1981902 -9.1517181 0.54628444 0 0 0 0 45.034286
-6.2280655 -8.797658 0.59141946 0 0 0 0 45.039238
-6.2650084 -8.4555435 0.63350183 0 0 0 0 45.044182
-6.136476 -9.9929361 0.50549048 0 0 0 0 45.049133
-6.169003 -9.5799036 0.56382197 0 0 0 0 45.054077
-6.1986971 -9.1998167 0.60104746 0 0 0 0 45.059021
-6.2324042 -8.8226976 0.63625646 0 0 0 0 45.063972
-6.1047602 -10.49117 0.5317871 0 0 0 0 45.068916
-6.1531549 -10.059019 0.5851559 0 0 0 0 45.073868
-6.186656 -9.6508837 0.61547154 0 0 0 0 45.078812
-6.1979532 -9.2128639 0.63893169 0 0 0 0 45.083755
-6.0601416 -11.002494 0.5600571 0 0 0 0 45.088707
-6.1214247 -10.555237 0.60645527 0 0 0 0 45.093651
-6.1445632 -10.093132 0.62697637 0 0 0 0 45.098602
-6.1889052 -9.6638899 0.64634687 0 0 0 0 45.103546
-6.0188756 -11.566808 0.59113365 0 0 0 0 45.108498
-6.0838838 -11.079493 0.62766367 0 0 0 0 45.113441
-6.1208529 -10.593275 0.64124346 0 0 0 0 45.118385
-6.1497917 -10.104092 0.64984983 0 0 0 0 45.123337
-5.9829783 -12.186104 0.62600511 0 0 0 0 45.128281
-6.0354743 -11.621828 0.6518243 0 0 0 0 45.133232
-6.0792308 -11.105534 0.6554966 0 0 0 0 45.138176
-6.121985 -10.590234 0.65616888 0 0 0 0 45.14312
-5.8714786 -12.709864 0.65633911 0 0 0 0 45.148071
-5.999536 -12.235102 0.67971152 0 0 0 0 45.153015
-6.0550804 -11.6887 0.67446721 0 0 0 0 45.157967
-6.0884118 -11.111414 0.66237241 0 0 0 0 45.16291
-5.5217128 -12.727043 0.6618582 0 0 0 0 45.167854
-5.8758135 -12.725903 0.69917804 0 0 0 0 45.172806
-5.9948106 -12.252087 0.69056702 0 0 0 0 45.17775
-6.0206647 -11.603809 0.66773337 0 0 0 0 45.182701
-5.2266927 -12.858907 0.67388123 0 0 0 0 45.187645
-5.5168557 -12.716108 0.69380867 0 0 0 0 45.192596
-5.8720021 -12.730852 0.70107001 0 0 0 0 45.19754
-5.9815969 -12.200035 0.67567641 0 0 0 0 45.202484
-5.2237992 -12.844929 0.69583893 0 0 0 0 45.212379
-5.5109982 -12.717037 0.68471998 0 0 0 0 45.217331
-5.8830495 -12.720624 0.67898619 0 0 0 0 45.222275
-5.211833 -12.831863 0.67581046 0 0 0 0 45.237114
-5.5230432 -12.709768 0.65162569 0 0 0 0 45.242065
-5.2253933 -12.803818 0.63050699 0 0 0 0 45.850021
-3.6802995 -13.33655 0.72356093 0 0 0 0 45.874756
-4.3589015 -13.285685 0.65534753 0 0 0 0 45.884651
-3.7178226 -13.396165 0.70117378 0 0 0 0 45.89949
-4.0454941 -13.357732 0.64663678 0 0 0 0 45.904442
-4.4287434 -13.404914 0.5896734 0 0 0 0 45.909386
-4.0591669 -13.310272 0.56268817 0 0 0 0 45.929176
-2.3807077 -13.173634 0.58031464 0 0 0 0 46.00338
-1.3372912 -12.480282 0.72696596 0 0 0 0 46.013275
-1.0376874 -12.375324 0.72890353 0 0 0 0 46.033066
-1.3653699 -12.494755 0.64177841 0 0 0 0 46.03801
-0.75175196 -12.366303 0.73646063 0 0 0 0 46.052849
-1.0656589 -12.376771 0.63576651 0 0 0 0 46.0578
-0.46539989 -12.297284 0.74224377 0 0 0 0 46.072639
-0.77372545 -12.370762 0.63432574 0 0 0 0 46.077583
-0.17742015 -12.282287 0.74883187 0 0 0 0 46.092422
-0.48634005 -12.299719 0.63112015 0 0 0 0 46.097374
-0.78146088 -12.350196 0.50031275 0 0 0 0 46.102318
-1.1037736 -12.430458 0.3623378 0 0 0 0 46.107269
0.10263384 -12.256245 0.75644726 0 0 0 0 46.112213
-0.20119639 -12.263672 0.62878227 0 0 0 0 46.117165
-0.49525669 -12.30713 0.49200216 0 0 0 0 46.122108
-0.8084023 -12.36641 0.34312302 0 0 0 0 46.127052
0.38425186 -12.292235 0.76783633 0 0 0 0 46.132004
0.078755505 -12.254605 0.6293354 0 0 0 0 46.136948
-0.20807014 -12.267073 0.48268488 0 0 0 0 46.141899
-0.52110463 -12.312324 0.32685721 0 0 0 0 46.146843
0.66541207 -12.251211 0.77451432 0 0 0 0 46.151787
0.36051166 -12.273562 0.63078934 0 0 0 0 46.156738
0.07302548 -12.239984 0.47430906 0 0 0 0 46.161682
-0.23593713 -12.277228 0.31051856 0 0 0 0 46.166634
0.94440061 -12.234188 0.78410035 0 0 0 0 46.171577
0.63961619 -12.242503 0.63142729 0 0 0 0 46.176521
0.35477081 -12.262914 0.46774918 0 0 0 0 46.181473
0.050113328 -12.259147 0.2941204 0 0 0 0 46.186417
1.2430387 -12.408357 0.80501127 0 0 0 0 46.191368
0.92175323 -12.207464 0.63008881 0 0 0 0 46.196312
0.63587695 -12.233845 0.46138522 0 0 0 0 46.201263
0.33216026 -12.241051 0.27971622 0 0 0 0 46.206207
1.2205325 -12.364592 0.63906407 0 0 0 0 46.216103
0.91618478 -12.176764 0.4521274 0 0 0 0 46.221046
0.61816788 -12.228985 0.26429978 0 0 0 0 46.225998
1.2207235 -12.370902 0.45197526 0 0 0 0 46.240837
0.89938521 -12.186891 0.24898893 0 0 0 0 46.245781
2.1883383 -12.87225 0.86806756 0 0 0 0 46.250732
1.1993517 -12.322952 0.23704638 0 0 0 0 46.265572
2.1744325 -12.893449 0.67389357 0 0 0 0 46.275467
2.1786792 -12.900673 0.45380965 0 0 0 0 46.300201
2.1722507 -12.910479 0.20522527 0 0 0 0 46.117813
1.8926582 -9.8142557 0.1471771 0 0 0 0 46.137604
2.1568136 -9.9270716 0.13826461 0 0 0 0 46.157387
2.9362266 -12.158624 0.15346628 0 0 0 0 46.177177
2.7402899 -10.272108 0.12010636 0 0 0 0 46.196968
3.6906092 -12.654861 0.13107073 0 0 0 0 46.216751
3.9968729 -12.604982 0.11784889 0 0 0 0 46.236542
4.3179584 -12.58121 0.10356202 0 0 0 0 46.256332
5.657795 -12.767041 1.0166385 0 0 0 0 46.261276
4.9593582 -12.569849 0.39990893 0 0 0 0 46.271172
4.6440296 -12.55948 0.089280397 0 0 0 0 46.276115
5.6920862 -12.791228 0.71756864 0 0 0 0 46.286011
5.271677 -12.510067 0.39474615 0 0 0 0 46.290962
4.9691629 -12.528753 0.07603348 0 0 0 0 46.295906
5.9631691 -12.621176 0.7147404 0 0 0 0 46.305801
5.6097064 -12.491477 0.39048377 0 0 0 0 46.310745
5.3091187 -12.523142 0.063724898 0 0 0 0 46.315697
6.2983694 -12.575608 0.71857738 0 0 0 0 46.325584
5.9526992 -12.477934 0.3872152 0 0 0 0 46.330536
5.6502271 -12.496538 0.049500987 0 0 0 0 46.33548
5.8038006 -10.956829 0.63366479 0 0 0 0 46.345375
6.2998023 -12.449419 0.38201481 0 0 0 0 46.350327
5.9933338 -12.46996 0.036283921 0 0 0 0 46.35527
6.1691093 -10.536517 0.91701275 0 0 0 0 46.360214
5.5846696 -9.9811335 0.58489579 0 0 0 0 46.365166
6.6469154 -12.41892 0.37882483 0 0 0 0 46.37011
6.3523722 -12.453499 0.022064451 0 0 0 0 46.375061
6.4178162 -10.421364 0.92395133 0 0 0 0 46.380005
5.7492352 -9.7493181 0.57710439 0 0 0 0 46.384949
5.6807361 -10.037821 0.30585235 0 0 0 0 46.3899
6.7134376 -12.433063 0.0088672051 0 0 0 0 46.394844
7.1026845 -10.975544 0.99025297 0 0 0 0 46.399796
6.6047316 -10.64268 0.63647002 0 0 0 0 46.404739
5.8384705 -9.7829561 0.2971372 0 0 0 0 46.409691
5.8261285 -10.198748 -0.0024862874 0 0 0 0 46.414635
7.0538359 -10.384131 0.95639098 0 0 0 0 46.419579
7.034647 -10.778863 0.65283257 0 0 0 0 46.42453
6.1306024 -9.7540731 0.29384407 0 0 0 0 46.429474
6.7453885 -9.4647408 0.88924509 0 0 0 0 46.439369
6.7116637 -9.7894211 0.60092336 0 0 0 0 46.444313
7.7613683 -11.737976 0.34965888 0 0 0 0 46.449265
7.0375714 -9.4239416 0.90300506 0 0 0 0 46.45916
7.026752 -9.7637577 0.60767168 0 0 0 0 46.464104
6.8071809 -9.7920027 0.29209274 0 0 0 0 46.469048
5.2061167 -7.7743692 -0.023545772 0 0 0 0 46.473999
7.6211119 -9.7453699 0.95299166 0 0 0 0 46.478943
7.934227 -10.515518 0.66168672 0 0 0 0 46.483894
8.0215635 -10.985873 0.32405505 0 0 0 0 46.488838
5.4810228 -7.7823424 -0.03300336 0 0 0 0 46.49379
8.3278303 -10.177743 1.0158124 0 0 0 0 46.498734
7.8761535 -9.9580793 0.63669467 0 0 0 0 46.503677
5.7421865 -7.7542233 -0.042349104 0 0 0 0 46.513573
8.1029196 -9.4650202 0.96607077 0 0 0 0 46.518524
8.1102715 -9.7898283 0.63582808 0 0 0 0 46.523468
6.1800885 -7.6834393 0.22885141 0 0 0 0 46.528412
10.847336 -12.117929 1.2606518 0 0 0 0 46.538307
10.581681 -12.199287 0.80176461 0 0 0 0 46.543259
6.4601846 -7.6625009 0.22752331 0 0 0 0 46.548203
11.310443 -12.081458 1.2847641 0 0 0 0 46.558098
11.035854 -12.157693 0.81187648 0 0 0 0 46.563042
6.7651882 -7.654747 0.22619949 0 0 0 0 46.567993
4.9729853 -5.800806 -0.049444258 0 0 0 0 46.572937
11.789385 -12.045947 1.3120869 0 0 0 0 46.262474
7.2467899 -7.6211214 0.522367 0 0 0 0 46.267418
5.6679435 -6.1177745 0.18276775 0 0 0 0 46.272369
5.2156582 -5.7967081 -0.056959294 0 0 0 0 46.277313
12.295399 -12.020732 1.3412235 0 0 0 0 46.282265
7.5539403 -7.5893788 0.53012544 0 0 0 0 46.287209
5.70362 -5.8740501 0.17576766 0 0 0 0 46.292152
5.4686327 -5.7975049 -0.064432614 0 0 0 0 46.297104
12.833389 -11.998755 1.3714181 0 0 0 0 46.302048
7.9048486 -7.5919585 0.53984755 0 0 0 0 46.306999
5.6458559 -5.551662 0.16687436 0 0 0 0 46.311943
5.6958961 -5.7571254 -0.071801513 0 0 0 0 46.316887
13.424142 -12.009186 1.4076041 0 0 0 0 46.321838
8.2499332 -7.5695004 0.54865497 0 0 0 0 46.326782
5.6853318 -5.3379693 0.16077471 0 0 0 0 46.331734
13.967422 -11.946269 1.4369737 0 0 0 0 46.341621
8.6278877 -7.56529 0.55946457 0 0 0 0 46.346573
6.3994956 -5.735106 0.17176506 0 0 0 0 46.351517
9.1884775 -7.509728 0.93185657 0 0 0 0 46.361412
6.7883196 -5.6808867 0.43179411 0 0 0 0 46.366364
6.6945233 -5.7262545 0.17242467 0 0 0 0 46.371307
4.4945812 -3.9338169 -0.06235268 0 0 0 0 46.376251
9.5000372 -7.4180832 0.94686651 0 0 0 0 46.381203
7.0525889 -5.635849 0.43852991 0 0 0 0 46.386147
6.9578452 -5.6761775 0.17117733 0 0 0 0 46.391098
4.6847582 -3.9081826 -0.067843668 0 0 0 0 46.396042
9.9349737 -7.4123611 0.97281086 0 0 0 0 46.400986
7.3587146 -5.6111174 0.44627848 0 0 0 0 46.405937
7.2401156 -5.633244 0.170945 0 0 0 0 46.410881
4.9147816 -3.9048309 -0.074334413 0 0 0 0 46.415833
10.417805 -7.4200072 1.0038081 0 0 0 0 46.420776
7.6798291 -5.5875068 0.45605686 0 0 0 0 46.425728
5.3131566 -3.9344487 0.12340312 0 0 0 0 46.430672
5.182662 -3.9217532 -0.080821387 0 0 0 0 46.435616
10.906744 -7.4127045 1.0338787 0 0 0 0 46.440567
8.0259438 -5.5640802 0.46588981 0 0 0 0 46.445511
5.5452986 -3.9121516 0.12399314 0 0 0 0 46.450462
5.4854751 -3.9489219 -0.089272253 0 0 0 0 46.455406
8.4747801 -5.4885888 0.79314119 0 0 0 0 46.46035
8.4059772 -5.5519071 0.47675395 0 0 0 0 46.465302
5.8083925 -3.8970757 0.12362274 0 0 0 0 46.470245
5.6928439 -3.8964286 -0.09461689 0 0 0 0 46.475197
8.8568964 -5.4614825 0.81507045 0 0 0 0 46.480141
6.2268348 -3.9089639 0.34847704 0 0 0 0 46.485085
6.0994201 -3.8912084 0.12427811 0 0 0 0 46.490036
5.4095302 -3.5144711 -0.091730252 0 0 0 0 46.49498
9.281909 -5.4477105 0.84204227 0 0 0 0 46.499931
6.4412656 -3.8445778 0.3541978 0 0 0 0 46.504875
6.4174309 -3.8875444 0.12598437 0 0 0 0 46.509827
9.7429333 -5.432209 0.87010044 0 0 0 0 46.519714
6.8967624 -3.9089622 0.37093589 0 0 0 0 46.524666
6.6020861 -3.7939217 0.1247569 0 0 0 0 46.52961
10.202085 -5.3987045 0.89822769 0 0 0 0 46.539505
7.1402655 -3.8347962 0.37676096 0 0 0 0 46.544449
5.3733974 -2.9683464 -0.095642142 0 0 0 0 46.554344
7.6437011 -3.8285761 0.66587615 0 0 0 0 46.559296
7.5063629 -3.8165338 0.3876335 0 0 0 0 46.56424
7.9550772 -3.7689586 0.68379521 0 0 0 0 46.579079
7.911448 -3.7995675 0.40058705 0 0 0 0 46.58403
8.2655602 -3.695334 0.69976968 0 0 0 0 46.598869
8.2459021 -3.7320864 0.40958881 0 0 0 0 46.603813
8.3099651 -3.4987187 0.69465566 0 0 0 0 46.61866
8.2736158 -3.2704949 0.68249434 0 0 0 0 46.638443
8.1644211 -3.0227249 0.66525519 0 0 0 0 46.658234
4.376791 -1.6514994 -0.08151865 0 0 0 0 46.673073
8.0611715 -2.782999 0.64899969 0 0 0 0 46.678024
4.4544716 -1.5590918 -0.08396481 0 0 0 0 46.692863
8.0765581 -2.5921652 0.64181077 0 0 0 0 46.697807
4.5800395 -1.4830291 -0.087370031 0 0 0 0 46.712646
7.8066034 -2.3161798 0.61334199 0 0 0 0 46.717598
4.7026577 -1.3999517 -0.089752272 0 0 0 0 46.732437
7.6832085 -2.0983951 0.59700161 0 0 0 0 46.75943
7.7286553 -2.1117446 0.34305364 0 0 0 0 46.764381
4.8738976 -1.323897 0.065971754 0 0 0 0 46.769325
4.8792343 -1.3253126 -0.095016576 0 0 0 0 46.774277
7.5358148 -1.8823278 0.57856667 0 0 0 0 46.779221
7.5513625 -1.8804777 0.32961398 0 0 0 0 46.784164
4.9955664 -1.2338285 0.065619729 0 0 0 0 46.789116
5.0867882 -1.2528502 -0.10025129 0 0 0 0 46.79406
7.3654146 -1.6680855 0.55907613 0 0 0 0 46.799011
7.3909602 -1.664338 0.31815296 0 0 0 0 46.803955
5.1412373 -1.1439378 0.065321147 0 0 0 0 46.808899
5.2075448 -1.1517699 -0.10255945 0 0 0 0 46.81385
7.1530128 -1.4555203 0.53648889 0 0 0 0 46.818794
5.4362659 -1.092795 0.23319045 0 0 0 0 46.823746
5.3189173 -1.0532805 0.064097434 0 0 0 0 46.82869
5.2374711 -1.0270317 -0.10396988 0 0 0 0 46.833633
6.9654984 -1.2581443 0.5168969 0 0 0 0 46.838585
5.563045 -0.98778266 0.23491482 0 0 0 0 46.843529
5.583528 -0.97227174 0.065027557 0 0 0 0 46.84848
5.1615291 -0.88353014 -0.10253531 0 0 0 0 46.853424
6.7469435 -1.0675286 0.49521148 0 0 0 0 46.858376
5.755774 -0.88926852 0.2397597 0 0 0 0 46.863319
5.8772044 -0.88248175 0.066058852 0 0 0 0 46.868263
5.1145182 -0.7502355 -0.10207678 0 0 0 0 46.873215
6.4703951 -0.87746614 0.46939769 0 0 0 0 46.878159
5.9935231 -0.78809315 0.24571621 0 0 0 0 46.88311
6.0580721 -0.76686549 0.065948978 0 0 0 0 46.888054
5.1104527 -0.62525129 -0.10255595 0 0 0 0 46.892998
9.4226351 -1.0710191 0.67113471 0 0 0 0 46.897949
5.8812685 -0.60660976 0.062235177 0 0 0 0 46.907845
5.0764012 -0.49805436 -0.10109058 0 0 0 0 46.912788
9.1124363 -0.83472067 0.64244086 0 0 0 0 46.91774
5.8643217 -0.46653196 0.059792709 0 0 0 0 46.927628
5.073319 -0.37607697 -0.10157668 0 0 0 0 46.932579
8.8011551 -0.61040711 0.61369759 0 0 0 0 46.937523
5.853353 -0.32950187 0.058352839 0 0 0 0 46.947418
5.0692472 -0.25309214 -0.1020595 0 0 0 0 46.952362
8.559741 -0.40362245 0.59003872 0 0 0 0 46.957314
5.8283958 -0.19136812 0.056888144 0 0 0 0 46.967209
5.0641756 -0.13010383 -0.10154302 0 0 0 0 46.972153
8.310236 -0.20977242 0.56631106 0 0 0 0 46.977097
5.8074193 -0.056263257 0.055421598 0 0 0 0 46.986992
5.0580778 -0.011107865 -0.10104333 0 0 0 0 46.991943
8.006669 -0.025504293 0.53942615 0 0 0 0 46.996887
5.7894478 0.07882385 0.052963115 0 0 0 0 47.006783
5.055006 0.11086991 -0.10152362 0 0 0 0 47.011726
7.6409874 0.14223942 0.51033771 0 0 0 0 47.016678
6.6848536 0.18436807 0.24640028 0 0 0 0 47.021622
5.7614622 0.21198167 0.051476248 0 0 0 0 47.026573
5.0419211 0.23091803 -0.10103235 0 0 0 0 47.031517
7.2882123 0.29689562 0.48122475 0 0 0 0 47.036461
7.1601577 0.35871953 0.26019883 0 0 0 0 47.041412
7.0033369 0.43903053 0.45821148 0 0 0 0 47.056252
6.8992834 0.5036391 0.24724999 0 0 0 0 47.061195
4.9790316 0.41671851 0.04364565 0 0 0 0 47.066147
3.929913 0.3689909 -0.07586845 0 0 0 0 47.071091
6.7433872 0.57098216 0.4362123 0 0 0 0 47.076042
5.033237 0.48172316 0.18105952 0 0 0 0 47.080986
4.9669275 0.53276771 0.042126432 0 0 0 0 47.085938
4.0577703 0.47901264 -0.078104421 0 0 0 0 47.090881
6.5033836 0.69578284 0.41622847 0 0 0 0 47.095825
4.9911027 0.59300321 0.17745525 0 0 0 0 47.100777
4.9748383 0.65066385 0.041660573 0 0 0 0 47.105721
4.2317371 0.60269552 -0.082180247 0 0 0 0 47.110672
6.241281 0.80675811 0.39513928 0 0 0 0 47.115616
5.0290303 0.7126779 0.17606454 0 0 0 0 47.12056
4.4521451 0.68853438 0.037688695 0 0 0 0 47.125511
4.3797431 0.73156488 -0.085290305 0 0 0 0 47.130455
6.0401702 0.91726685 0.37818393 0 0 0 0 47.135406
5.7618132 0.95006651 0.19770454 0 0 0 0 47.14035
4.5100508 0.8050617 0.037329637 0 0 0 0 47.145302
4.5187969 0.86649817 -0.088393189 0 0 0 0 47.150246
5.8319802 1.0168332 0.3611683 0 0 0 0 47.15519
5.4103823 1.0186988 0.18324223 0 0 0 0 47.160141
4.6120486 0.93325716 0.037118405 0 0 0 0 47.165085
4.8502316 1.0500021 -0.09486565 0 0 0 0 47.170036
5.502562 1.0843381 0.33775064 0 0 0 0 47.17498
5.3623042 1.1360215 0.17965585 0 0 0 0 47.179924
4.7151108 1.0694467 0.035944305 0 0 0 0 47.184875
4.8151135 1.1632152 -0.093441159 0 0 0 0 47.189819
8.4271088 1.8546684 0.50449115 0 0 0 0 47.194771
5.0888305 1.1990678 0.16834387 0 0 0 0 47.199715
5.0256085 1.2630663 0.037471991 0 0 0 0 47.204659
8.0910692 1.9702141 0.47826689 0 0 0 0 47.214554
5.0727682 1.3181502 0.16583769 0 0 0 0 47.219505
5.0436354 1.3938895 0.036090635 0 0 0 0 47.224449
4.2888503 1.2570332 -0.081155069 0 0 0 0 47.229401
7.8163047 2.0828197 0.45890757 0 0 0 0 47.804764
5.097899 1.4463812 0.16581027 0 0 0 0 47.809715
4.3010077 1.2961909 0.033303853 0 0 0 0 47.814659
4.0662537 1.2954851 -0.074243061 0 0 0 0 47.819603
7.6204028 2.2123523 0.44205707 0 0 0 0 47.824554
5.0427985 1.5547814 0.16218849 0 0 0 0 47.829498
4.2628121 1.3934547 0.032670937 0 0 0 0 47.83445
3.9247458 1.3545488 -0.071283333 0 0 0 0 47.839394
5.0207782 1.6729223 0.15868735 0 0 0 0 47.849289
5.0519395 1.7821969 0.035237554 0 0 0 0 47.854233
5.0579429 1.814588 0.15742798 0 0 0 0 47.86908
6.847856 2.4904718 0.38259634 0 0 0 0 47.883919
6.5675745 2.5264616 0.19809864 0 0 0 0 47.888863
5.5557985 2.2571244 0.036560703 0 0 0 0 47.893814
4.9590073 2.120373 -0.091427997 0 0 0 0 47.898758
6.5895023 2.5615227 0.36434665 0 0 0 0 47.903702
6.3663654 2.6180265 0.18907163 0 0 0 0 47.908653
5.5259428 2.3953109 0.036134996 0 0 0 0 47.913597
4.9260588 2.2475829 -0.089910835 0 0 0 0 47.918549
6.3491507 2.632437 0.34613815 0 0 0 0 47.923492
6.199192 2.7143176 0.18214545 0 0 0 0 47.928436
5.9608355 2.7518184 0.036752369 0 0 0 0 47.933388
4.9302721 2.3945029 -0.089219421 0 0 0 0 47.938332
6.1026869 2.6894007 0.32885441 0 0 0 0 47.943283
5.9908423 2.7879434 0.17402388 0 0 0 0 47.948227
5.7172809 2.8016977 0.035444342 0 0 0 0 47.953178
4.9334974 2.5424309 -0.088524193 0 0 0 0 47.958122
5.8802476 2.7491789 0.31163889 0 0 0 0 47.963066
5.6870494 2.805341 0.16343236 0 0 0 0 47.968018
5.5218606 2.8681993 0.034321461 0 0 0 0 47.972961
5.2149973 2.8471768 -0.093488477 0 0 0 0 47.977913
5.6778016 2.8087904 0.29746956 0 0 0 0 47.982857
5.4644799 2.85109 0.1551549 0 0 0 0 47.987801
5.3484654 2.9375303 0.033262804 0 0 0 0 47.992752
5.097806 2.9430475 -0.090299718 0 0 0 0 47.997696
5.5244946 2.8860064 0.2854929 0 0 0 0 48.002647
5.2529035 2.8957565 0.14689803 0 0 0 0 48.007591
5.0745487 2.9416659 0.031682037 0 0 0 0 48.012543
4.9152632 2.9954326 -0.085454643 0 0 0 0 48.017487
5.0502772 2.9343519 0.13963543 0 0 0 0 48.027382
4.8517985 2.966399 0.030310893 0 0 0 0 48.032326
4.7045126 3.0220428 -0.079789221 0 0 0 0 48.037277
4.8707151 2.9807677 0.13246094 0 0 0 0 48.047165
4.668159 3.0048244 0.029091548 0 0 0 0 48.052116
4.4645472 3.0218906 -0.074310951 0 0 0 0 48.05706
4.7162127 3.0349782 0.12737975 0 0 0 0 48.066956
4.4874883 3.0392301 0.027861053 0 0 0 0 48.071899
4.2797828 3.0463064 -0.069595218 0 0 0 0 48.076851
4.3419433 3.089354 0.027782429 0 0 0 0 48.09169
4.1110673 3.0765975 -0.064816386 0 0 0 0 48.096642
4.1692095 3.1157033 0.026534548 0 0 0 0 48.111481
3.9624171 3.1147354 -0.060955957 0 0 0 0 48.116425
3.8479626 3.1766062 -0.057910271 0 0 0 0 48.136215
5.3849711 4.4318771 0.029313918 0 0 0 0 48.151054
5.5071211 4.9483309 0.1270511 0 0 0 0 48.205475
5.3624687 5.0839257 0.028309109 0 0 0 0 48.210419
5.5679836 4.9543424 0.23027867 0 0 0 0 48.220314
5.4033179 5.085144 0.1214672 0 0 0 0 48.225258
5.5268426 5.4895568 0.028555365 0 0 0 0 48.230209
5.0091581 5.252161 -0.070727244 0 0 0 0 48.235153
5.3795047 5.0058708 0.21711542 0 0 0 0 48.240105
5.5656295 5.4827895 0.12167587 0 0 0 0 48.245049
5.0550442 5.2593188 0.02746924 0 0 0 0 48.249992
4.8619957 5.3472853 -0.065598808 0 0 0 0 48.254944
5.4820995 5.6524358 0.11728998 0 0 0 0 48.264839
4.8654928 5.3048134 0.026276471 0 0 0 0 48.269783
4.6623096 5.3778391 -0.06088217 0 0 0 0 48.274727
4.8760438 5.2629514 0.1023401 0 0 0 0 48.046585
4.6312251 5.6085992 -0.058719289 0 0 0 0 48.05648
4.9550462 5.278934 0.18265179 0 0 0 0 48.061432
4.8047705 5.356142 0.1706944 0 0 0 0 48.081215
5.2915649 6.6509018 0.025515085 0 0 0 0 48.09111
4.5271821 5.6196866 0.086255714 0 0 0 0 48.105949
4.0622153 5.3556728 0.023005025 0 0 0 0 48.110901
5.183373 6.7503872 0.092825688 0 0 0 0 48.12574
4.1342511 5.7220693 0.022839364 0 0 0 0 48.130684
5.2288094 6.6916738 0.16274013 0 0 0 0 48.140579
4.1335249 5.6388192 0.073527656 0 0 0 0 48.145531
5.6363888 8.204031 0.025350846 0 0 0 0 48.150475
3.7746134 5.8621697 -0.034334023 0 0 0 0 48.155418
5.6990638 8.1721916 0.091431722 0 0 0 0 48.165314
4.8967333 7.4919086 0.024543636 0 0 0 0 48.170265
3.846199 6.2955651 -0.032200757 0 0 0 0 48.175209
5.8110533 8.179945 0.15980497 0 0 0 0 48.180153
4.9463439 7.4492373 0.077540196 0 0 0 0 48.185104
5.0470262 8.1326771 0.023789542 0 0 0 0 48.190048
3.4292045 5.9178419 -0.023790829 0 0 0 0 48.195
5.5240221 8.1582756 0.14310376 0 0 0 0 48.199944
3.6934936 5.8473301 0.05757723 0 0 0 0 48.204887
3.4060392 5.7788038 0.020596195 0 0 0 0 48.209839
4.4390869 8.1087713 -0.031683531 0 0 0 0 48.214783
5.2500877 8.1485071 0.12648417 0 0 0 0 48.219734
3.4761405 5.7920752 0.051875286 0 0 0 0 48.224678
3.3103366 5.9285498 0.021086341 0 0 0 0 48.22963
3.7227602 7.1974387 -0.020334244 0 0 0 0 48.234573
3.5744131 5.8261213 0.082314476 0 0 0 0 48.239517
3.3276806 5.8472643 0.047823098 0 0 0 0 48.244469
3.2319465 6.1161628 0.020785829 0 0 0 0 48.249413
3.9369719 8.0726929 -0.017895319 0 0 0 0 48.254364
3.3772728 5.7957306 0.071768351 0 0 0 0 48.259308
3.2604167 6.0488095 0.042611036 0 0 0 0 48.264252
4.0188756 8.061821 0.022319227 0 0 0 0 48.269203
3.6928334 8.0446072 -0.01153154 0 0 0 0 48.274147
3.3038659 5.9783425 0.062458657 0 0 0 0 48.279099
3.6861861 7.2363729 0.041940089 0 0 0 0 48.284042
3.782932 8.0557022 0.021799024 0 0 0 0 48.288994
3.4587672 8.0254459 -0.0051059527 0 0 0 0 48.293938
3.2031655 6.1241827 0.051922046 0 0 0 0 48.298882
3.868942 8.0509024 0.038049955 0 0 0 0 48.303833
3.5437932 8.0256128 0.021163628 0 0 0 0 48.308777
3.2307434 8.0112448 0.00035435279 0 0 0 0 48.313728
3.9861538 8.0698605 0.05148235 0 0 0 0 48.318672
3.6349397 8.0358 0.031492632 0 0 0 0 48.323616
3.3198326 8.0174065 0.020659879 0 0 0 0 48.328568
3.0107489 8.0009785 0.0068498668 0 0 0 0 48.333511
3.7491362 8.0508137 0.037900012 0 0 0 0 48.338463
3.4120102 8.0296116 0.024999995 0 0 0 0 48.343407
3.0957878 7.9991999 0.021110034 0 0 0 0 48.348351
2.7885914 7.9707341 0.013250133 0 0 0 0 48.353302
3.5221667 8.0376902 0.024366552 0 0 0 0 48.358246
3.1900477 8.0194206 0.018490357 0 0 0 0 48.363197
2.8767123 7.976963 0.020552756 0 0 0 0 48.368141
2.5786555 7.9674006 0.018797521 0 0 0 0 48.373093
3.2961073 8.0135651 0.010784886 0 0 0 0 48.378036
2.9669135 7.9882441 0.011883182 0 0 0 0 48.38298
2.6678321 7.9786482 0.020124665 0 0 0 0 48.387932
2.3685968 7.9490719 0.024276599 0 0 0 0 48.392876
3.0791755 8.0053663 -0.001705631 0 0 0 0 48.397827
2.7569828 7.9819655 0.0054169605 0 0 0 0 48.402771
2.4567473 7.9553547 0.019578859 0 0 0 0 48.407715
2.1615703 7.9347224 0.029779103 0 0 0 0 48.412666
2.8641453 7.9851551 -0.014246454 0 0 0 0 48.41761
2.5459757 7.9666948 -9.3410417e-05 0 0 0 0 48.422562
2.2517438 7.9420166 0.019090498 0 0 0 0 48.427505
1.9605433 7.9203291 0.035294529 0 0 0 0 48.432449
2.6490817 7.9609499 -0.026806863 0 0 0 0 48.437401
2.339946 7.9483929 -0.0066067004 0 0 0 0 48.442345
2.0487208 7.9266624 0.019596446 0 0 0 0 48.447296
1.7957313 8.0536451 0.041554961 0 0 0 0 48.45224
2.4451571 7.9536581 -0.039266311 0 0 0 0 48.457191
2.1349218 7.9310827 -0.012114752 0 0 0 0 48.462135
1.8538067 7.9242506 0.019178407 0 0 0 0 48.467079
1.6082314 8.1031504 0.047386333 0 0 0 0 48.472031
2.2431724 7.9393511 -0.05075378 0 0 0 0 48.476974
1.9369488 7.9197235 -0.018580498 0 0 0 0 48.481926
1.6787184 8.0216866 0.018253312 0 0 0 0 48.48687
2.0452201 7.9290152 -0.062215127 0 0 0 0 48.496765
1.7409317 7.9033484 -0.024065362 0 0 0 0 48.501709
1.4993305 8.0831528 0.019156886 0 0 0 0 48.50666
1.845898 7.9118676 -0.074582763 0 0 0 0 48.28447
1.5539486 7.9290419 -0.030201139 0 0 0 0 48.289421
1.6530112 7.9094734 -0.085990809 0 0 0 0 48.30426
1.3797895 8.017478 -0.036164377 0 0 0 0 48.309212
1.4610267 7.8950753 -0.097451009 0 0 0 0 48.324051
1.1942906 8.0640097 -0.042340416 0 0 0 0 48.328995
0.91053569 7.9870524 0.017643679 0 0 0 0 48.333946
1.2679929 7.8746905 -0.10894177 0 0 0 0 48.343834
1.0119151 8.1255207 -0.048443384 0 0 0 0 48.348785
1.088522 7.9232001 -0.12009625 0 0 0 0 48.363625
0.81030267 8.0361805 -0.053261351 0 0 0 0 48.368568
0.90718812 7.9877396 -0.13318506 0 0 0 0 48.383415
0.71938664 7.9953299 -0.14554282 0 0 0 0 48.403198
-0.10074968 7.3099899 0.086449511 0 0 0 0 48.418045
0.53710198 8.0658808 -0.15760869 0 0 0 0 48.422989
-0.26550549 7.2073259 0.090650097 0 0 0 0 48.437828
-0.18987539 7.2520456 0.016081855 0 0 0 0 48.452675
-0.42977846 7.1636629 0.095112033 0 0 0 0 48.457619
-0.11531647 7.2838354 -0.07254602 0 0 0 0 48.467514
-0.35439903 7.1764073 0.015400543 0 0 0 0 48.472458
-0.5976817 7.1650348 0.099763952 0 0 0 0 48.477409
-0.023395479 7.3555412 -0.17395243 0 0 0 0 48.482353
-0.28013751 7.1712136 -0.076393351 0 0 0 0 48.487297
-0.52327293 7.1798105 0.015058947 0 0 0 0 48.492249
-0.7674036 7.1884255 0.10450839 0 0 0 0 48.497192
-0.19240659 7.2189674 -0.18091728 0 0 0 0 48.502144
-0.44791624 7.1846313 -0.081687786 0 0 0 0 48.507088
-0.68644673 7.1471648 0.015569304 0 0 0 0 48.512032
-0.93452132 7.1637974 0.10904384 0 0 0 0 48.516983
-0.35872212 7.1663861 -0.18950292 0 0 0 0 48.521927
-0.61140209 7.1130066 -0.085352801 0 0 0 0 48.526878
-0.86462629 7.2346544 0.015578131 0 0 0 0 48.531822
-1.0948632 7.1121163 0.11347359 0 0 0 0 48.536774
-0.52769446 7.1548409 -0.19991335 0 0 0 0 48.541718
-0.79139805 7.2205448 -0.092258871 0 0 0 0 48.546661
-1.0204682 7.1209588 0.014741281 0 0 0 0 48.551613
-1.2617921 7.1104951 0.11810943 0 0 0 0 48.556557
-0.70020896 7.1983352 -0.2110873 0 0 0 0 48.561508
-0.95010066 7.1228871 -0.096031755 0 0 0 0 48.566452
-1.1874754 7.1083608 0.014327482 0 0 0 0 48.571396
-1.4317813 7.1018977 0.12370515 0 0 0 0 48.576347
-0.8645429 7.1437488 -0.2196817 0 0 0 0 48.581291
-1.1180559 7.1153173 -0.10042562 0 0 0 0 48.586243
-1.3574494 7.0997915 0.013923042 0 0 0 0 48.591187
-1.5998265 7.0862923 0.12827288 0 0 0 0 48.59613
-1.0335681 7.1262107 -0.22912316 0 0 0 0 48.601082
-1.2879838 7.1107717 -0.10581216 0 0 0 0 48.606026
-1.5264262 7.0912132 0.014519737 0 0 0 0 48.610977
-1.7717972 7.0797234 0.13287006 0 0 0 0 48.615921
-1.2035245 7.1166897 -0.23953231 0 0 0 0 48.620872
-1.4590116 7.0942388 -0.11125667 0 0 0 0 48.625816
-1.698359 7.0876689 0.014130346 0 0 0 0 48.63076
-1.9554204 7.1152525 0.1386264 0 0 0 0 48.635712
-1.3735836 7.0951681 -0.24899715 0 0 0 0 48.640656
-1.6319255 7.0917215 -0.11564415 0 0 0 0 48.645607
-1.8888495 7.1372833 0.01393286 0 0 0 0 48.650551
-2.1206582 7.0766344 0.14309347 0 0 0 0 48.655495
-1.5503625 7.1067166 -0.26033112 0 0 0 0 48.660446
-1.8213893 7.1423616 -0.12283458 0 0 0 0 48.66539
-2.0502076 7.0826564 0.013337102 0 0 0 0 48.670341
-2.2888629 7.0420446 0.14756966 0 0 0 0 48.675285
-1.7262605 7.1042566 -0.27072728 0 0 0 0 48.680237
-1.9847399 7.0877662 -0.12643565 0 0 0 0 48.685181
-2.2165003 7.0360751 0.012763466 0 0 0 0 48.690125
-2.5039685 7.1398458 0.15452501 0 0 0 0 48.695076
-1.9081032 7.1078601 -0.28311232 0 0 0 0 48.70002
-2.1490638 7.0361876 -0.13102739 0 0 0 0 48.704971
-2.4227717 7.111835 0.012641274 0 0 0 0 48.709915
-2.0724504 7.0523014 -0.29172248 0 0 0 0 48.71981
-2.3407383 7.0618534 -0.13733986 0 0 0 0 48.724754
-2.2592201 7.06495 -0.30308175 0 0 0 0 48.739594
-3.6626141 7.6844168 0.010307051 0 0 0 0 48.783112
-3.608855 7.7068911 -0.18441716 0 0 0 0 48.797951
-3.5359831 7.7363019 -0.40006107 0 0 0 0 48.81279
-6.5386596 7.0283408 0.26651865 0 0 0 0 49.025513
-6.4741831 6.9960828 0.00056096487 0 0 0 0 49.040352
-6.7028174 6.8828068 0.26846018 0 0 0 0 49.045303
-6.4335632 6.9790545 -0.27038777 0 0 0 0 49.055199
-6.6680756 6.8808212 -0.00043509889 0 0 0 0 49.060143
-6.8679643 6.7392802 0.27140555 0 0 0 0 49.065086
-6.3956237 6.9911771 -0.56820858 0 0 0 0 49.070038
-6.6294775 6.8598356 -0.27640849 0 0 0 0 49.074982
-6.8322983 6.7273073 -0.0015347438 0 0 0 0 49.079933
-7.1591187 6.7138195 0.27957019 0 0 0 0 49.084877
-6.5697994 6.8407831 -0.57631874 0 0 0 0 49.089821
-6.8055978 6.7174411 -0.28048846 0 0 0 0 49.094772
-7.1581783 6.7311912 -0.002324672 0 0 0 0 49.099716
-7.2419682 6.4876099 0.27833876 0 0 0 0 49.104668
-6.7657752 6.7135906 -0.5863806 0 0 0 0 49.109612
-7.1166663 6.6962481 -0.29135764 0 0 0 0 49.114555
-7.1507626 6.4192052 -0.0037222889 0 0 0 0 49.119507
-7.2125702 6.1734433 0.27498573 0 0 0 0 49.124451
-7.0500751 6.6632032 -0.60431713 0 0 0 0 49.129402
-7.0815015 6.3569951 -0.28681159 0 0 0 0 49.134346
-7.1383052 6.1131706 -0.0040828022 0 0 0 0 49.139297
-7.1969628 5.8843946 0.27171037 0 0 0 0 49.144241
-7.0179515 6.3209538 -0.59479433 0 0 0 0 49.149185
-7.0770168 6.0550208 -0.28517538 0 0 0 0 49.154137
-7.1227255 5.8221092 -0.0043689804 0 0 0 0 49.159081
-7.1703691 5.5942559 0.26745507 0 0 0 0 49.164032
-7.0075421 6.0119057 -0.58817697 0 0 0 0 49.168976
-7.0565276 5.754899 -0.28149244 0 0 0 0 49.17392
-7.0991411 5.5319829 -0.0056333663 0 0 0 0 49.178871
-7.1545763 5.3282056 0.26428089 0 0 0 0 49.183815
-6.9811625 5.7007098 -0.57953167 0 0 0 0 49.188766
-7.0379214 5.4687977 -0.27875236 0 0 0 0 49.19371
-7.0853839 5.2629371 -0.0058281166 0 0 0 0 49.198662
-7.1337523 5.0661163 0.26013523 0 0 0 0 49.203606
-6.957294 5.4109035 -0.57104981 0 0 0 0 49.747139
-7.023973 5.1980705 -0.27525046 0 0 0 0 49.75209
-7.0654192 5.0031428 -0.0062971055 0 0 0 0 49.757034
-7.109807 4.8132706 0.25667205 0 0 0 0 49.761978
-6.948657 5.1398711 -0.5653137 0 0 0 0 49.76693
-6.9983234 4.9278989 -0.27246597 0 0 0 0 49.771873
-7.0466285 4.7480516 -0.0074597746 0 0 0 0 49.776825
-7.1048255 4.5793118 0.25357282 0 0 0 0 49.781769
-6.9310203 4.8697524 -0.55855185 0 0 0 0 49.786713
-6.9815335 4.6738114 -0.27063048 0 0 0 0 49.791664
-7.0287442 4.5039678 -0.0085743759 0 0 0 0 49.796608
-7.078886 4.3411651 0.25050735 0 0 0 0 49.801559
-6.9013453 4.6045246 -0.55173665 0 0 0 0 49.806503
-6.9656801 4.4277272 -0.26776156 0 0 0 0 49.811455
-7.0098057 4.2668695 -0.0086549213 0 0 0 0 49.816399
-7.0767884 4.1212325 0.24746302 0 0 0 0 49.821342
-6.8994355 4.3655577 -0.54687226 0 0 0 0 49.826294
-6.059638 3.654433 -0.23003946 0 0 0 0 49.831238
-0.36205715 0.20978746 0.014721697 0 0 0 0 49.855972
-0.38504919 0.21393365 0.027684331 0 0 0 0 49.860924
-0.31314987 0.19047217 -0.01022971 0 0 0 0 49.865868
-0.34610268 0.19871338 0.0017256922 0 0 0 0 49.870811
-0.35722378 0.18576065 0.014656683 0 0 0 0 49.895554
-0.39716363 0.19605584 0.028602909 0 0 0 0 49.900497
-0.30731964 0.16643059 -0.0092920102 0 0 0 0 49.905441
-0.34525141 0.17672245 0.0016596289 0 0 0 0 49.910393
-0.38227236 0.17500508 0.014574299 0 0 0 0 49.935127
-0.41523963 0.18223771 0.028524425 0 0 0 0 49.940071
-0.3263661 0.15562479 -0.010358141 0 0 0 0 49.945023
-0.35833701 0.16185825 0.0015897668 0 0 0 0 49.949966
-0.43523848 0.17350481 0.014460051 0 0 0 0 49.974701
-0.4233712 0.16232976 0.028442753 0 0 0 0 49.979652
-0.42226097 0.1644678 -0.00053458032 0 0 0 0 49.98954
-0.43539819 0.15052487 0.014384691 0 0 0 0 50.014275
-0.43449441 0.14344949 0.028357293 0 0 0 0 50.019226
-0.40237755 0.14237684 -0.015555399 0 0 0 0 50.02417
-0.39250711 0.13220954 0.00042671725 0 0 0 0 50.029121
-0.38168913 0.11305215 0.014386027 0 0 0 0 50.053856
-0.3707898 0.10489494 0.026380783 0 0 0 0 50.0588
-0.36263981 0.10901644 -0.012572199 0 0 0 0 50.063751
-0.36671799 0.10398629 0.0013966336 0 0 0 0 50.068695
-0.35088927 0.085787214 0.014374301 0 0 0 0 50.09343
-0.34295988 0.080661803 0.025375793 0 0 0 0 50.098373
-0.33882692 0.08380539 -0.010593025 0 0 0 0 50.103325
-0.33402574 0.0656491 0.014359023 0 0 0 0 50.133003
-0.31710345 0.059445668 0.024380118 0 0 0 0 50.137955
-0.33103266 0.059682701 0.003351676 0 0 0 0 50.14785
-0.32419401 0.044527009 0.024323884 0 0 0 0 50.177528
-0.30710903 0.043531787 -0.0076292944 0 0 0 0 50.18248
-0.3251422 0.042644963 0.0033209117 0 0 0 0 50.187424
-0.31924528 0.031545639 0.014305633 0 0 0 0 50.212158
-0.32329488 0.028534872 0.024284141 0 0 0 0 50.217102
-0.31351307 0.028494323 -0.0079360083 0 0 0 0 49.9561
-0.32955489 0.026587844 0.003015429 0 0 0 0 49.961044
-0.30965701 0.015362684 0.014038423 0 0 0 0 49.985779
-0.31969646 0.013406634 0.024006002 0 0 0 0 49.99073
-0.32074702 0.00047984591 0.013971751 0 0 0 0 50.025352
-0.31271169 -0.0034803771 -0.0080167074 0 0 0 0 50.035248
-0.32975379 -0.0053772684 0.0029317003 0 0 0 0 50.040199
-0.32387558 -0.016517997 0.022920864 0 0 0 0 50.069878
-0.31681186 -0.019426564 -0.0080698719 0 0 0 0 50.074829
-0.32285461 -0.021423891 0.0029082997 0 0 0 0 50.079773
-0.32296762 -0.031510133 0.022885876 0 0 0 0 50.109451
-0.3209219 -0.036372509 -0.0081284726 0 0 0 0 50.114403
-0.32496494 -0.038388178 0.0028550597 0 0 0 0 50.119347
-0.32014069 -0.062455907 0.012808191 0 0 0 0 50.183662
-0.33017817 -0.064406432 0.021775177 0 0 0 0 50.188606
-0.33119693 -0.07329794 0.0027367612 0 0 0 0 50.198502
-0.31924391 -0.078448005 0.012767145 0 0 0 0 50.223236
-0.32828158 -0.080407642 0.021736762 0 0 0 0 50.22818
-0.33131889 -0.091280311 0.002682643 0 0 0 0 50.238075
-0.3324039 -0.098353259 0.021671398 0 0 0 0 50.267761
-0.35047445 -0.11602329 -0.010463761 0 0 0 0 50.272705
-0.34949347 -0.11509053 0.0015482852 0 0 0 0 50.277657
-0.33063793 -0.13528872 0.011557536 0 0 0 0 50.341965
-0.32763019 -0.13235998 0.020585293 0 0 0 0 50.346909
-0.36482108 -0.16285084 -0.011668951 0 0 0 0 50.35186
-0.40207317 -0.18660213 0.01013263 0 0 0 0 50.381538
-0.32523641 -0.18730946 -0.0088316929 0 0 0 0 50.17939
-0.36048687 -0.21206737 0.0099728135 0 0 0 0 50.209068
-0.38559785 -0.22187881 0.018858191 0 0 0 0 50.21402
-0.39483383 -0.25177622 0.01871671 0 0 0 0 50.253593
-8.6272907 -5.9637437 -0.63090795 0 0 0 0 50.258545
-8.681284 -5.8864822 -0.37868038 0 0 0 0 50.263489
-8.715023 -5.7902675 -0.15430151 0 0 0 0 50.268433
-8.7779121 -5.7097893 0.070917122 0 0 0 0 50.273384
-8.5949926 -6.2509513 -0.63130313 0 0 0 0 50.278328
-8.6398582 -6.1607604 -0.38198534 0 0 0 0 50.283279
-8.7027149 -6.0782576 -0.16175686 0 0 0 0 50.288223
-8.7584505 -5.9818354 0.061561581 0 0 0 0 50.293175
-8.5386496 -6.5323887 -0.63060504 0 0 0 0 50.298119
-8.6357422 -6.4676948 -0.38556188 0 0 0 0 50.303062
-8.6733618 -6.3604107 -0.16813841 0 0 0 0 50.308014
-8.7239933 -6.2540159 0.051244341 0 0 0 0 50.312958
-8.5599251 -6.8810825 -0.63546592 0 0 0 0 50.317909
-8.6106224 -6.773819 -0.39007899 0 0 0 0 50.322853
-8.6561708 -6.6594515 -0.17464219 0 0 0 0 50.327797
-8.7127485 -6.5479875 0.041749261 0 0 0 0 50.332748
-8.5209045 -7.1963511 -0.63699335 0 0 0 0 50.337692
-8.5724669 -7.0750694 -0.39353845 0 0 0 0 50.342644
-8.6411142 -6.9724689 -0.18222581 0 0 0 0 50.347588
-8.6925268 -6.8440375 0.031265546 0 0 0 0 50.352531
-8.5021276 -7.5374279 -0.63971132 0 0 0 0 50.357483
-8.5656977 -7.4180155 -0.40029961 0 0 0 0 50.362427
-8.6130466 -7.2836075 -0.18976696 0 0 0 0 50.367378
-8.655302 -7.1392469 0.020830549 0 0 0 0 50.372322
-8.431036 -7.8430066 -0.63910675 0 0 0 0 50.377274
-8.5459242 -7.7590923 -0.40501881 0 0 0 0 50.382217
-8.5911684 -7.6146841 -0.19842966 0 0 0 0 50.387161
-8.6483965 -7.4681697 0.009136606 0 0 0 0 50.392113
-7.9796801 -7.7912631 -0.60862833 0 0 0 0 50.397057
-8.2135344 -7.8161459 -0.39442524 0 0 0 0 50.402008
-8.4533777 -7.8468513 -0.20426933 0 0 0 0 50.406952
-8.6224775 -7.7952652 -0.003498279 0 0 0 0 50.411896
-7.5744896 -7.7580833 -0.58137041 0 0 0 0 50.416847
-7.7982874 -7.7809896 -0.38112968 0 0 0 0 50.421791
-8.0219631 -7.7967939 -0.20085351 0 0 0 0 50.426743
-8.2687588 -7.8234129 -0.014697798 0 0 0 0 50.431686
-7.1983919 -7.7356262 -0.55724585 0 0 0 0 50.436638
-7.4090667 -7.7485986 -0.36791846 0 0 0 0 50.441582
-7.6256909 -7.7624078 -0.19961289 0 0 0 0 50.446526
-7.8694534 -7.7889938 -0.025449259 0 0 0 0 50.451477
-6.8291998 -7.7031121 -0.53308702 0 0 0 0 50.456421
-7.0449066 -7.7229772 -0.35580942 0 0 0 0 50.461372
-7.2635913 -7.7467055 -0.19956063 0 0 0 0 50.466316
-7.5012794 -7.7682967 -0.035355285 0 0 0 0 50.47126
-6.4830503 -7.6753864 -0.51001483 0 0 0 0 50.476212
-6.6916795 -7.6902604 -0.34369251 0 0 0 0 50.481155
-6.9113803 -7.718924 -0.19847241 0 0 0 0 50.486107
-7.134995 -7.7355952 -0.044202894 0 0 0 0 50.491051
-6.1569653 -7.6554651 -0.49003646 0 0 0 0 50.495995
-6.3615675 -7.6703258 -0.33370337 0 0 0 0 50.500946
-6.5661316 -7.6870837 -0.1973805 0 0 0 0 50.50589
-6.7856779 -7.6997366 -0.054079741 0 0 0 0 50.510841
-6.0564175 -7.9093628 -0.48708892 0 0 0 0 50.515785
-6.093019 -7.7108107 -0.32619396 0 0 0 0 50.520737
-6.2449465 -7.6620259 -0.19638875 0 0 0 0 50.525681
-6.4635372 -7.6826305 -0.064126417 0 0 0 0 50.530624
-6.0258517 -8.2685766 -0.49087897 0 0 0 0 50.535576
-6.0764337 -8.0688782 -0.3330175 0 0 0 0 50.54052
-6.1199474 -7.8701091 -0.20214055 0 0 0 0 50.545471
-6.1644735 -7.6733198 -0.073276088 0 0 0 0 50.550415
-5.994545 -8.6547937 -0.49580854 0 0 0 0 50.555359
-6.0459042 -8.4320784 -0.33983162 0 0 0 0 50.56031
-6.0861921 -8.2103233 -0.21182786 0 0 0 0 50.565254
-6.122436 -7.9845958 -0.085791737 0 0 0 0 50.570206
-5.9695287 -9.0709534 -0.5009132 0 0 0 0 50.57515
-6.0135493 -8.8132906 -0.34773654 0 0 0 0 50.580093
-6.0557051 -8.5785027 -0.22267108 0 0 0 0 50.585045
-6.0987883 -8.3366957 -0.099571787 0 0 0 0 50.589989
-5.9315891 -9.494235 -0.50602216 0 0 0 0 50.59494
-5.9875898 -9.235445 -0.35587326 0 0 0 0 50.599884
-6.0315065 -8.9766197 -0.23468944 0 0 0 0 50.604836
-6.0703506 -8.7108316 -0.11545485 0 0 0 0 50.609779
-5.8980455 -9.9584789 -0.51135784 0 0 0 0 50.614723
-5.9557972 -9.6746502 -0.36508536 0 0 0 0 50.619675
-5.9913645 -9.3798876 -0.2466931 0 0 0 0 50.624619
-6.0350347 -9.0970335 -0.13138422 0 0 0 0 50.62957
-5.8638849 -10.46272 -0.51890182 0 0 0 0 50.634514
-5.916214 -10.134931 -0.37438804 0 0 0 0 50.639458
-5.963654 -9.8280354 -0.25996685 0 0 0 0 50.644409
-6.0009489 -9.5072145 -0.14944439 0 0 0 0 50.649353
-5.8177309 -10.989965 -0.52569801 0 0 0 0 50.410179
-5.8798642 -10.638066 -0.38411149 0 0 0 0 50.415131
-5.9209461 -10.290207 -0.27348536 0 0 0 0 50.420074
-5.9619899 -9.939332 -0.16584295 0 0 0 0 50.425026
-5.76191 -11.535412 -0.53236461 0 0 0 0 50.42997
-5.8450642 -11.187291 -0.39585561 0 0 0 0 50.434914
-5.8867493 -10.798405 -0.28902265 0 0 0 0 50.439865
-5.9345961 -10.428436 -0.18730177 0 0 0 0 50.444809
-5.71979 -12.154728 -0.54045004 0 0 0 0 50.44976
-5.7974415 -11.754632 -0.40866154 0 0 0 0 50.454704
-5.8478703 -11.339643 -0.30571988 0 0 0 0 50.459656
-5.8932981 -10.92667 -0.20877314 0 0 0 0 50.4646
-5.608891 -12.688703 -0.54491502 0 0 0 0 50.469543
-5.7339888 -12.338134 -0.4195109 0 0 0 0 50.474495
-5.8013816 -11.921945 -0.32460994 0 0 0 0 50.479439
-5.8432336 -11.448984 -0.23134744 0 0 0 0 50.48439
-5.2469416 -12.677133 -0.52390474 0 0 0 0 50.489334
-5.5363007 -12.680915 -0.42376384 0 0 0 0 50.494278
-5.7390285 -12.517397 -0.34352836 0 0 0 0 50.499229
-5.787569 -12.013341 -0.25612524 0 0 0 0 50.504173
-4.9534335 -12.820896 -0.51087546 0 0 0 0 50.509125
-5.1956425 -12.704085 -0.41598883 0 0 0 0 50.514069
-5.4626966 -12.685894 -0.35067466 0 0 0 0 50.519012
-5.7599311 -12.686424 -0.28454202 0 0 0 0 50.523964
-5.1392326 -12.732854 -0.35406834 0 0 0 0 50.538803
-5.4079294 -12.679592 -0.2985816 0 0 0 0 50.543755
-5.1007447 -12.759349 -0.31318766 0 0 0 0 50.563538
-2.0922003 -13.181239 -0.3671709 0 0 0 0 50.687218
-2.065469 -13.192472 -0.36423618 0 0 0 0 50.711952
-1.0897064 -12.446984 -0.30269507 0 0 0 0 50.746574
-0.78978437 -12.334904 -0.28630903 0 0 0 0 50.766365
-1.0665414 -12.422053 -0.32757449 0 0 0 0 50.771317
-0.5039506 -12.337688 -0.27255335 0 0 0 0 50.786156
-0.76980782 -12.332895 -0.3213138 0 0 0 0 50.7911
-1.032724 -12.445028 -0.39067057 0 0 0 0 50.796051
-0.21655631 -12.281498 -0.25748622 0 0 0 0 50.805939
-0.48395449 -12.336632 -0.31756178 0 0 0 0 50.81089
-0.73372716 -12.330853 -0.39227206 0 0 0 0 50.815834
-1.0085241 -12.434791 -0.47662318 0 0 0 0 50.820786
0.068577215 -12.253283 -0.24456778 0 0 0 0 50.825729
-0.19737059 -12.263391 -0.31140715 0 0 0 0 50.830681
-0.44886664 -12.336538 -0.39753181 0 0 0 0 50.835625
-0.71451122 -12.321529 -0.4862417 0 0 0 0 50.840569
0.35056496 -12.240049 -0.23073368 0 0 0 0 50.84552
0.086770788 -12.237123 -0.30750015 0 0 0 0 50.850464
-0.16334434 -12.272249 -0.39942485 0 0 0 0 50.855415
-0.42663383 -12.3282 -0.50049657 0 0 0 0 50.860359
0.63426149 -12.25783 -0.21905328 0 0 0 0 50.865303
0.36878812 -12.223842 -0.30366433 0 0 0 0 50.870255
0.12182375 -12.245948 -0.4045133 0 0 0 0 50.875198
-0.14128251 -12.284862 -0.51249719 0 0 0 0 50.88015
0.91349274 -12.229813 -0.20835678 0 0 0 0 51.740685
0.64750564 -12.252613 -0.30331251 0 0 0 0 51.745628
0.39800131 -12.231504 -0.41097873 0 0 0 0 51.75058
0.13922288 -12.240252 -0.52783704 0 0 0 0 51.755524
1.1955185 -12.213735 -0.19545317 0 0 0 0 51.760468
0.93257916 -12.234512 -0.29938945 0 0 0 0 51.765419
0.61467224 -10.956824 -0.37139973 0 0 0 0 51.770363
0.42220142 -12.237028 -0.54200327 0 0 0 0 51.775314
1.5008351 -12.367887 -0.18640643 0 0 0 0 51.780258
1.1302762 -11.357597 -0.27403608 0 0 0 0 51.785202
0.96780747 -12.235193 -0.42335105 0 0 0 0 51.790154
0.63173276 -10.876324 -0.49296474 0 0 0 0 51.795097
1.4064797 -11.427406 -0.27361229 0 0 0 0 51.804993
1.1599839 -11.311239 -0.39474937 0 0 0 0 51.809937
0.99313164 -12.233641 -0.57133108 0 0 0 0 51.814888
1.6724088 -9.9048214 -0.12548006 0 0 0 0 51.819832
1.510656 -10.30657 -0.24219179 0 0 0 0 51.824783
