# .PCD v0.7 - Point Cloud Data file format
VERSION 0.7
FIELDS x y z normal_x normal_y normal_z intensity curvature
SIZE 4 4 4 4 4 4 4 4
TYPE F F F F F F F F
COUNT 1 1 1 1 1 1 1 1
WIDTH 978
HEIGHT 1
VIEWPOINT 0 0 0 1 0 0 0
POINTS 978
DATA ascii
-0.47143391 -0.040813249 0.39953065 0 0 0 0 20.260279
-0.45948097 -0.033758976 0.42354524 0 0 0 0 20.265224
-0.46858355 -0.027631149 0.47151408 0 0 0 0 20.270172
-0.47642919 -0.06380266 0.40662092 0 0 0 0 20.299854
-0.45645905 -0.05477098 0.42364872 0 0 0 0 20.304802
-0.45152324 -0.045692462 0.45564207 0 0 0 0 20.309748
-0.48543629 -0.087777153 0.41870424 0 0 0 0 20.33943
-0.46346045 -0.076751813 0.4337315 0 0 0 0 20.344378
-0.46453825 -0.06765487 0.4717111 0 0 0 0 20.349323
-0.49143916 -0.11275864 0.42879665 0 0 0 0 20.379005
-0.47647873 -0.10071164 0.45080531 0 0 0 0 20.383953
-0.47154164 -0.089633651 0.4827936 0 0 0 0 20.388901
-0.54155046 -0.1386088 0.47876966 0 0 0 0 20.398794
-0.48649684 -0.11468083 0.46283919 0 0 0 0 20.403742
-0.56460136 -0.15853795 0.50378907 0 0 0 0 20.418583
-0.45649025 -0.10768325 0.47091591 0 0 0 0 20.428476
-5.0900936 -1.5982147 4.7661929 0 0 0 0 20.43837
-0.45548332 -0.11768404 0.47296458 0 0 0 0 20.448263
-5.0491381 -1.7162569 4.7696099 0 0 0 0 20.458158
-0.51856834 -0.15957019 0.50594348 0 0 0 0 20.463104
-0.46149564 -0.12966073 0.48300233 0 0 0 0 20.468052
-4.9961596 -1.8293282 4.7640405 0 0 0 0 20.477945
-4.7192092 -1.6152927 4.8391323 0 0 0 0 20.482893
-0.48054242 -0.14659494 0.50702298 0 0 0 0 20.487841
-4.954215 -1.9463581 4.7724547 0 0 0 0 20.497734
-4.6822472 -1.7213324 4.8425074 0 0 0 0 20.502682
-4.4102197 -1.4983754 4.8855658 0 0 0 0 20.507627
-4.9072614 -2.0603979 4.7778721 0 0 0 0 20.517523
-4.6442876 -1.8283701 4.8468871 0 0 0 0 20.522469
-4.3792529 -1.5964118 4.8889065 0 0 0 0 20.527416
-4.8532968 -2.1724515 4.7792993 0 0 0 0 20.53731
-4.6013217 -1.9324155 4.8492689 0 0 0 0 20.542257
-4.3452787 -1.6934574 4.8892508 0 0 0 0 20.547205
-4.8033504 -2.2844832 4.7887163 0 0 0 0 20.557098
-4.5613699 -2.038444 4.8576484 0 0 0 0 20.562046
-4.3103061 -1.7895007 4.890594 0 0 0 0 20.566992
-4.0652909 -1.5374986 4.9455185 0 0 0 0 20.571939
-4.7473936 -2.3945274 4.7941408 0 0 0 0 20.576885
-4.506382 -2.1365159 4.8520408 0 0 0 0 20.581833
-4.2823606 -1.8895125 4.9029303 0 0 0 0 20.586781
-4.0443316 -1.6295168 4.9538193 0 0 0 0 20.591726
-4.6868038 -2.5011954 4.7973137 0 0 0 0 20.324095
-4.4688139 -2.2421439 4.8661504 0 0 0 0 20.329042
-4.242753 -1.9841764 4.9040084 0 0 0 0 20.333988
-4.0187278 -1.719164 4.9588442 0 0 0 0 20.338936
-4.6328654 -2.6122212 4.8097415 0 0 0 0 20.343884
-4.414844 -2.3421981 4.8675504 0 0 0 0 20.348829
-4.2037878 -2.0792146 4.9083619 0 0 0 0 20.353777
-3.9877479 -1.8082108 4.9581642 0 0 0 0 20.358725
-4.5719142 -2.7182612 4.818171 0 0 0 0 20.36367
-4.3648906 -2.4432321 4.8759427 0 0 0 0 20.368618
-4.1598172 -2.1732607 4.9107227 0 0 0 0 20.373566
-3.9557769 -1.8972477 4.9614859 0 0 0 0 20.378511
-4.5039501 -2.8213177 4.8216076 0 0 0 0 20.383459
-4.3199544 -2.547245 4.8913302 0 0 0 0 20.388407
-4.1168504 -2.2673008 4.915081 0 0 0 0 20.393353
-3.9197938 -1.9852995 4.9598131 0 0 0 0 20.3983
-4.4400063 -2.9253488 4.8340373 0 0 0 0 20.403248
-4.2589788 -2.6423054 4.8917303 0 0 0 0 20.408194
-4.0708809 -2.3603454 4.9184422 0 0 0 0 20.413141
-3.8888319 -2.0753255 4.9671335 0 0 0 0 20.418089
-4.3750629 -3.0293803 4.846468 0 0 0 0 20.423035
-4.1990099 -2.7373574 4.8951268 0 0 0 0 20.427982
-4.0229135 -2.453388 4.9228072 0 0 0 0 20.43293
-3.8548653 -2.1653581 4.9724593 0 0 0 0 20.437876
-4.2990942 -3.1254406 4.8499022 0 0 0 0 20.442823
-4.1420579 -2.8343897 4.9055214 0 0 0 0 20.447769
-3.9759521 -2.5454226 4.9301667 0 0 0 0 20.452717
-3.816895 -2.2533953 4.9767885 0 0 0 0 20.457664
-4.2321563 -3.2284653 4.8653326 0 0 0 0 20.46261
-4.0770888 -2.9264414 4.9099202 0 0 0 0 20.467558
-3.9269905 -2.6374581 4.9375296 0 0 0 0 20.472506
-3.7759202 -2.3414395 4.9791241 0 0 0 0 20.477451
-4.1521869 -3.3205249 4.8697639 0 0 0 0 20.482399
-4.0131278 -3.0204849 4.9173207 0 0 0 0 20.487347
-3.8790407 -2.7314801 4.9498949 0 0 0 0 20.492292
-3.7319393 -2.42749 4.9794602 0 0 0 0 20.49724
-4.0762324 -3.4155672 4.8801923 0 0 0 0 20.502188
-3.9491677 -3.1125257 4.9257154 0 0 0 0 20.507133
-3.8260803 -2.822515 4.9582624 0 0 0 0 20.512081
-3.6899707 -2.5155265 4.9847965 0 0 0 0 20.517029
-4.0002871 -3.5105991 4.8946199 0 0 0 0 20.521975
-3.8832088 -3.2035651 4.9351106 0 0 0 0 20.526922
-3.7650962 -2.907577 4.9576325 0 0 0 0 20.53187
-3.6480067 -2.6045582 4.9921341 0 0 0 0 20.536816
-3.9153194 -3.5986559 4.9010496 0 0 0 0 20.541763
-3.8072286 -3.2886298 4.9365129 0 0 0 0 20.546711
-3.7101369 -2.9976103 4.967 0 0 0 0 20.551657
-3.5980241 -2.6886115 4.9924765 0 0 0 0 20.556604
-3.8323612 -3.6877015 4.9114757 0 0 0 0 20.561552
-3.7412837 -3.3806539 4.9519095 0 0 0 0 20.566498
-3.6511762 -3.0856457 4.9763713 0 0 0 0 20.571445
-3.5520618 -2.7766426 5.0008192 0 0 0 0 20.576391
-3.7484059 -3.7747424 4.9238982 0 0 0 0 20.581339
-3.6653085 -3.4637105 4.9563046 0 0 0 0 20.586287
-3.5912156 -3.1736815 4.985744 0 0 0 0 20.591232
-3.5051019 -2.8656714 5.0101657 0 0 0 0 20.59618
-3.6618838 -3.8594582 4.9369841 0 0 0 0 20.601128
-3.5927627 -3.5504205 4.9703493 0 0 0 0 20.606073
-3.5276337 -3.2594032 4.9947519 0 0 0 0 20.611021
-3.4534945 -2.9513912 5.0191312 0 0 0 0 20.615969
-3.5749307 -3.9435027 4.9503932 0 0 0 0 20.620914
-3.5208156 -3.6374509 4.9857354 0 0 0 0 20.625862
-3.4636729 -3.344444 5.004117 0 0 0 0 20.63081
-3.3975167 -3.0354476 5.0204778 0 0 0 0 20.635756
-3.4879806 -4.0265422 4.9657984 0 0 0 0 20.640703
-3.4388423 -3.7165127 4.9911208 0 0 0 0 20.645651
-3.3946991 -3.4255004 5.0084815 0 0 0 0 20.650597
-3.3425517 -3.1204884 5.0278239 0 0 0 0 20.655544
-3.3940158 -4.1025977 4.9762001 0 0 0 0 20.660492
-3.3578708 -3.7945709 4.9975014 0 0 0 0 20.665438
-3.3287442 -3.5105348 5.0208488 0 0 0 0 20.670385
-3.2865887 -3.2055266 5.036171 0 0 0 0 20.675333
-3.2980428 -4.175662 4.9835973 0 0 0 0 20.680279
-3.2749071 -3.8726201 5.007885 0 0 0 0 20.685226
-3.2557738 -3.5905886 5.0272174 0 0 0 0 20.690172
-3.2256155 -3.2875783 5.0405207 0 0 0 0 20.69512
-3.2091062 -4.2576847 5.006001 0 0 0 0 20.700068
-3.1979656 -3.9566433 5.0272698 0 0 0 0 20.705013
-3.1817989 -3.667645 5.0325794 0 0 0 0 20.709961
-3.1716735 -3.377593 5.0578742 0 0 0 0 20.714909
-3.1121445 -4.3297348 5.0193958 0 0 0 0 20.719854
-3.1119945 -4.0296993 5.035645 0 0 0 0 20.724802
-3.1168694 -3.7576509 5.0559545 0 0 0 0 20.72975
-3.111717 -3.4636261 5.0692301 0 0 0 0 20.734695
-3.019202 -4.4057617 5.0407906 0 0 0 0 20.739643
-3.0290475 -4.1087284 5.054028 0 0 0 0 20.744591
-3.0368898 -3.8307133 5.060317 0 0 0 0 20.749537
-3.0457439 -3.543678 5.0745821 0 0 0 0 20.754484
-2.9202383 -4.474813 5.0541801 0 0 0 0 20.759432
-2.9410837 -4.1807752 5.0664024 0 0 0 0 20.764378
-2.9569104 -3.9037759 5.0646787 0 0 0 0 20.769325
-2.9787796 -3.6247203 5.0839376 0 0 0 0 20.774273
-2.8072135 -4.5189266 5.0455351 0 0 0 0 20.779219
-2.8491037 -4.2468395 5.0727696 0 0 0 0 20.784166
-2.8809595 -3.9838057 5.081049 0 0 0 0 20.789114
-2.9088054 -3.7037742 5.0892935 0 0 0 0 20.79406
-2.6167476 -4.4322815 4.8940268 0 0 0 0 21.469553
-2.6776996 -4.1931462 4.9393415 0 0 0 0 21.474501
-2.7949045 -4.0527458 5.0837784 0 0 0 0 21.479446
-2.8377786 -3.784694 5.0980616 0 0 0 0 21.484394
-2.5177822 -4.4933224 4.910378 0 0 0 0 21.489342
-2.5756662 -4.2362571 4.9266577 0 0 0 0 21.494287
-2.6134803 -3.9752836 4.9089684 0 0 0 0 21.499235
-2.6703835 -3.7302051 4.9312792 0 0 0 0 21.504183
-2.4208248 -4.5553527 4.9307265 0 0 0 0 21.509129
-2.4826841 -4.2963138 4.9349947 0 0 0 0 21.514076
-2.540544 -4.0562892 4.9343157 0 0 0 0 21.519024
-2.5964031 -3.8032587 4.9366112 0 0 0 0 21.52397
-2.3218682 -4.6153817 4.9520741 0 0 0 0 21.528917
-2.3957348 -4.365334 4.9573402 0 0 0 0 21.533865
-2.4565673 -4.1223383 4.9436493 0 0 0 0 21.538811
-2.5174046 -3.8693309 4.9349351 0 0 0 0 21.543758
-2.2208982 -4.6694236 4.96841 0 0 0 0 21.548704
-2.3017578 -4.4243841 4.9686747 0 0 0 0 21.553652
-2.3766172 -4.1973596 4.963995 0 0 0 0 21.558599
-2.4484661 -3.954339 4.9582834 0 0 0 0 21.563545
-2.1149132 -4.7144799 4.9797344 0 0 0 0 21.568493
-2.205781 -4.4804325 4.9810057 0 0 0 0 21.573441
-2.2936602 -4.2673869 4.9823332 0 0 0 0 21.578386
-2.3725002 -4.029377 4.9706211 0 0 0 0 21.583334
-2.0119426 -4.7645202 4.9970627 0 0 0 0 21.588282
-2.1118155 -4.5394683 4.9983392 0 0 0 0 21.593227
-2.2046833 -4.3304362 4.9926667 0 0 0 0 21.598175
-2.2955427 -4.1064053 4.9869642 0 0 0 0 21.603123
-1.9089779 -4.8145537 5.0173907 0 0 0 0 21.608068
-2.0158463 -4.5955071 5.014668 0 0 0 0 21.613016
-2.1147068 -4.3914838 5.0039968 0 0 0 0 21.617964
-2.2145698 -4.1764507 4.9972982 0 0 0 0 21.62291
-1.8009886 -4.8526106 5.0287004 0 0 0 0 21.627857
-1.9148483 -4.6395745 5.0199785 0 0 0 0 21.632805
-2.0257471 -4.4575143 5.0223351 0 0 0 0 21.637751
-2.1336129 -4.2514787 5.0146427 0 0 0 0 21.642698
-1.6940081 -4.8926578 5.0440111 0 0 0 0 21.647646
-1.8178887 -4.6956024 5.0413079 0 0 0 0 21.652592
-1.9317636 -4.5135684 5.0316601 0 0 0 0 21.657539
-2.0486412 -4.3215237 5.0259829 0 0 0 0 21.662487
-1.5900555 -4.9406748 5.0713344 0 0 0 0 21.667433
-1.7179161 -4.7466431 5.0576305 0 0 0 0 21.67238
-1.8357753 -4.5676279 5.0389829 0 0 0 0 21.677326
-1.9606655 -4.3875723 5.0363188 0 0 0 0 21.682274
-1.4800725 -4.9767237 5.0866408 0 0 0 0 21.687222
-1.6149313 -4.7896948 5.0699406 0 0 0 0 21.692167
-1.7418065 -4.6256657 5.0553102 0 0 0 0 21.697115
-1.8716938 -4.4546165 5.0486579 0 0 0 0 21.702063
-1.3720943 -5.0107641 5.1049371 0 0 0 0 21.707008
-1.5139657 -4.8397269 5.0902615 0 0 0 0 21.711956
-1.6418099 -4.6727319 5.0606232 0 0 0 0 21.716904
-1.7787114 -4.5166721 5.0569925 0 0 0 0 21.721849
-1.2641203 -5.0457997 5.1252356 0 0 0 0 21.726797
-1.410991 -4.8837667 5.1075716 0 0 0 0 21.731745
-1.5458493 -4.731761 5.080955 0 0 0 0 21.736691
-1.6857349 -4.5787206 5.0683265 0 0 0 0 21.741638
-1.1531321 -5.0728483 5.1405206 0 0 0 0 21.746586
-1.3070123 -4.9248099 5.1238756 0 0 0 0 21.751532
-1.448897 -4.7917819 5.1052904 0 0 0 0 21.756479
-1.5897551 -4.638773 5.0786605 0 0 0 0 21.761427
-1.0421401 -5.0968995 5.154798 0 0 0 0 21.766373
-1.2010351 -4.9648509 5.1411815 0 0 0 0 21.77132
-1.3459136 -4.8388333 5.1176062 0 0 0 0 21.776268
-1.495801 -4.706799 5.100008 0 0 0 0 21.781214
-0.9311614 -5.1239362 5.1750817 0 0 0 0 21.786161
-1.0940585 -5.0028906 5.1594834 0 0 0 0 21.791107
-1.2429322 -4.8858824 5.1309214 0 0 0 0 21.796055
-1.3978342 -4.7698383 5.1163511 0 0 0 0 21.801003
-0.82117605 -5.145977 5.1933513 0 0 0 0 21.805948
-0.98404628 -5.0259638 5.1637554 0 0 0 0 21.810896
-1.1389616 -4.9349198 5.1492429 0 0 0 0 21.815844
-1.2978656 -4.8298788 5.1326904 0 0 0 0 21.820789
-0.70817441 -5.1600337 5.2056074 0 0 0 0 21.825737
-0.8791092 -5.0759635 5.19908 0 0 0 0 21.830685
-1.0339947 -4.983954 5.1695652 0 0 0 0 21.83563
-1.1948912 -4.8869257 5.147028 0 0 0 0 21.840578
-0.59821653 -5.1900468 5.2358942 0 0 0 0 21.845526
-0.76910901 -5.1000223 5.209353 0 0 0 0 21.850471
-0.9270165 -5.0269976 5.1858768 0 0 0 0 21.855419
-1.0909307 -4.9479585 5.1673756 0 0 0 0 21.860367
-0.486224 -5.2030911 5.2531452 0 0 0 0 21.865313
-0.65912712 -5.1290636 5.2276373 0 0 0 0 21.87026
-0.81904405 -5.0700355 5.2051892 0 0 0 0 21.875208
-0.98395085 -4.9990096 5.1807051 0 0 0 0 21.880154
-0.37423083 -5.2151356 5.2703929 0 0 0 0 21.885101
-0.54915583 -5.1600924 5.2509251 0 0 0 0 21.890049
-0.70907533 -5.1130691 5.2265053 0 0 0 0 21.894995
-0.87597722 -5.051054 5.1970377 0 0 0 0 21.899942
-0.26224783 -5.228168 5.2926426 0 0 0 0 21.904888
-0.43715355 -5.1771502 5.2621846 0 0 0 0 21.909836
-0.59809548 -5.1501131 5.2438087 0 0 0 0 21.914783
-0.76602226 -5.1090808 5.2213879 0 0 0 0 21.919729
-0.15024932 -5.2342143 5.3088756 0 0 0 0 21.924677
-0.32417297 -5.202188 5.2824631 0 0 0 0 21.929625
-0.48510751 -5.1831641 5.2581058 0 0 0 0 21.93457
-0.65404868 -5.1581249 5.2387195 0 0 0 0 21.939518
-0.037666366 -5.2349639 5.3230958 0 0 0 0 21.693178
-0.2126192 -5.225915 5.3057289 0 0 0 0 21.698126
-0.37154728 -5.2149034 5.2763891 0 0 0 0 21.703072
-0.53948313 -5.1998749 5.2520223 0 0 0 0 21.708019
0.073324434 -5.2400007 5.343327 0 0 0 0 21.712967
-0.098633483 -5.2439561 5.324996 0 0 0 0 21.717913
-0.25756666 -5.2459464 5.2946873 0 0 0 0 21.72286
-0.42351064 -5.2459192 5.270359 0 0 0 0 21.727808
0.18530995 -5.2440305 5.3665576 0 0 0 0 21.732754
0.015363473 -5.2560058 5.3402495 0 0 0 0 21.737701
-0.14058736 -5.2759886 5.3139882 0 0 0 0 21.742647
-0.30553585 -5.2879643 5.2886901 0 0 0 0 21.747595
0.29731563 -5.2400799 5.3817687 0 0 0 0 21.752542
0.12933704 -5.275033 5.3655176 0 0 0 0 21.757488
-0.023615779 -5.3060217 5.3372879 0 0 0 0 21.762436
-0.18557791 -5.3359942 5.3140378 0 0 0 0 21.767384
0.40929851 -5.2421055 5.4069934 0 0 0 0 21.772329
0.24532188 -5.2880697 5.3867764 0 0 0 0 21.777277
0.093371525 -5.3290687 5.3545713 0 0 0 0 21.782225
-0.064605646 -5.3760362 5.3343682 0 0 0 0 21.78717
0.52130508 -5.2331519 5.423192 0 0 0 0 21.792118
0.36032844 -5.2901244 5.4000063 0 0 0 0 21.797066
0.21434055 -5.3570986 5.3798733 0 0 0 0 21.802011
0.058428958 -5.3881345 5.3306375 0 0 0 0 21.806959
0.6323027 -5.2261877 5.4433932 0 0 0 0 21.811907
0.47730616 -5.3021531 5.4252625 0 0 0 0 21.816853
0.33532885 -5.3751454 5.3981509 0 0 0 0 21.8218
0.1824666 -5.3982358 5.3259034 0 0 0 0 21.826748
0.74527019 -5.2281957 5.4766183 0 0 0 0 21.831694
0.59330058 -5.3051939 5.4444962 0 0 0 0 21.836641
0.4563258 -5.3881984 5.4134173 0 0 0 0 21.841589
0.3064889 -5.4113202 5.3281755 0 0 0 0 21.846535
0.85627073 -5.2162323 5.4968066 0 0 0 0 21.851482
0.71127927 -5.3122211 5.4707417 0 0 0 0 21.85643
0.57834989 -5.3872752 5.4186525 0 0 0 0 21.861376
0.42960554 -5.3834882 5.2933517 0 0 0 0 21.866323
0.96727985 -5.199275 5.5139837 0 0 0 0 21.871269
0.82828349 -5.3082695 5.4869604 0 0 0 0 21.876217
0.6964193 -5.3673906 5.4058361 0 0 0 0 21.881165
0.55171311 -5.3576465 5.2625299 0 0 0 0 21.88611
1.0772808 -5.1833091 5.5351605 0 0 0 0 21.891058
0.94628185 -5.3043113 5.5061803 0 0 0 0 21.896006
0.81646842 -5.3524861 5.4020352 0 0 0 0 21.900951
0.6747793 -5.3467665 5.248744 0 0 0 0 21.905899
1.1882751 -5.1683359 5.5593414 0 0 0 0 21.910847
1.0642701 -5.3013425 5.5304012 0 0 0 0 21.915792
0.93947577 -5.3535442 5.4152756 0 0 0 0 21.92074
0.79785544 -5.3278923 5.2319393 0 0 0 0 21.925688
1.2953069 -5.1383948 5.5684795 0 0 0 0 21.930634
1.1832559 -5.2993717 5.5556264 0 0 0 0 21.935581
1.0614958 -5.3456111 5.4244928 0 0 0 0 21.940529
0.92388248 -5.3279738 5.2351828 0 0 0 0 21.945475
1.4052992 -5.1204166 5.5946507 0 0 0 0 21.950422
1.3012687 -5.2834225 5.5708175 0 0 0 0 21.95537
1.1884723 -5.3536391 5.4517555 0 0 0 0 21.960316
1.0538566 -5.3470078 5.2604766 0 0 0 0 21.965263
1.5123144 -5.0924578 5.6117935 0 0 0 0 21.970211
1.4182776 -5.2674685 5.588006 0 0 0 0 21.975157
1.3134723 -5.3506861 5.4699893 0 0 0 0 21.980104
1.173969 -5.3071604 5.2306175 0 0 0 0 21.98505
1.6193355 -5.0605025 5.6269264 0 0 0 0 21.989998
1.537264 -5.2574925 5.6152115 0 0 0 0 21.994946
1.436496 -5.335753 5.4791913 0 0 0 0 21.999891
1.3019915 -5.3012333 5.2378502 0 0 0 0 22.004839
1.7273341 -5.0345259 5.6520748 0 0 0 0 22.009787
1.6552757 -5.2365389 5.6323905 0 0 0 0 22.014732
1.5644782 -5.3337817 5.5064316 0 0 0 0 22.01968
1.4379483 -5.3202496 5.2721539 0 0 0 0 22.024628
1.8333495 -5.0025635 5.6702051 0 0 0 0 22.029573
1.7732816 -5.2155786 5.6525683 0 0 0 0 22.034521
1.695451 -5.3348026 5.5376844 0 0 0 0 22.039469
1.5719346 -5.3242888 5.2954192 0 0 0 0 22.044415
1.938367 -4.9666009 5.6883249 0 0 0 0 22.049362
1.8942646 -5.2015967 5.6827674 0 0 0 0 22.05431
1.8284107 -5.3388109 5.5749474 0 0 0 0 22.059256
1.7059344 -5.3213401 5.3136683 0 0 0 0 22.064203
2.0453641 -4.9366183 5.7154613 0 0 0 0 22.069151
2.0122712 -5.1756339 5.7039332 0 0 0 0 22.074097
1.9613831 -5.3338284 5.6081891 0 0 0 0 22.079044
1.8449078 -5.3243661 5.3439403 0 0 0 0 22.083992
2.1493855 -4.896657 5.7325697 0 0 0 0 22.088938
2.1292858 -5.1456766 5.7220883 0 0 0 0 22.093885
2.0993321 -5.3368258 5.6514573 0 0 0 0 22.098831
1.9838843 -5.3253946 5.3732066 0 0 0 0 22.103779
2.2484202 -4.8497047 5.7446527 0 0 0 0 22.108727
2.2482872 -5.1187077 5.7462535 0 0 0 0 22.113672
2.2392719 -5.3398132 5.6997299 0 0 0 0 22.11862
2.1248631 -5.3224244 5.4024673 0 0 0 0 22.123568
2.3534224 -4.8137236 5.7707715 0 0 0 0 22.128513
2.364305 -5.0827503 5.7643929 0 0 0 0 22.133461
2.3742518 -5.3248339 5.7319512 0 0 0 0 22.138409
2.2728055 -5.3304214 5.4477654 0 0 0 0 22.143354
2.4564397 -4.7707548 5.7908707 0 0 0 0 22.148302
2.478333 -5.0418 5.7785163 0 0 0 0 22.15325
2.5112259 -5.3098488 5.7671762 0 0 0 0 22.158195
2.3670557 -5.2126722 5.3666787 0 0 0 0 22.163143
2.5540545 -4.7205129 5.8059878 0 0 0 0 21.924553
2.5989032 -5.0115342 5.8097363 0 0 0 0 21.929501
2.653748 -5.3025565 5.8155041 0 0 0 0 21.934446
2.5633335 -5.3151941 5.5163536 0 0 0 0 21.939394
2.6540709 -4.6755404 5.8270769 0 0 0 0 21.944342
2.7109344 -4.9645844 5.823843 0 0 0 0 21.949287
2.7857621 -5.2666035 5.8356738 0 0 0 0 21.954235
2.7103088 -5.3002162 5.5506001 0 0 0 0 21.959183
2.7521014 -4.6225781 5.8431444 0 0 0 0 21.964128
2.8299358 -4.9266081 5.8509841 0 0 0 0 21.969076
2.9237418 -5.2406192 5.8708768 0 0 0 0 21.974024
2.8592844 -5.2842383 5.5848479 0 0 0 0 21.97897
2.845144 -4.5646248 5.8541903 0 0 0 0 21.983917
2.9449568 -4.8806477 5.8700986 0 0 0 0 21.988865
3.0537641 -5.1966686 5.8890243 0 0 0 0 21.993811
3.0251813 -5.2931929 5.6531839 0 0 0 0 21.998758
2.9421659 -4.5126529 5.8742576 0 0 0 0 22.003706
3.0569799 -4.8306861 5.8891983 0 0 0 0 22.008652
3.1837831 -5.1517138 5.9091687 0 0 0 0 22.013599
3.1960723 -5.3021431 5.7245297 0 0 0 0 22.018545
3.0352058 -4.4526949 5.8872991 0 0 0 0 22.023493
3.1739836 -4.7847066 5.9173169 0 0 0 0 22.02844
3.31779 -5.1077476 5.9353228 0 0 0 0 22.033386
3.3689663 -5.3060946 5.795867 0 0 0 0 22.038334
3.1322227 -4.3987164 5.9103622 0 0 0 0 22.043282
3.2899947 -4.7357335 5.9424257 0 0 0 0 22.048227
3.4517889 -5.0637727 5.965477 0 0 0 0 22.053175
3.5737476 -5.3479552 5.9153504 0 0 0 0 22.058123
3.2541292 -4.378643 5.9815502 0 0 0 0 22.063068
3.3960426 -4.6717887 5.9524822 0 0 0 0 22.068016
3.5818131 -5.0088172 5.9855981 0 0 0 0 22.072964
3.7396922 -5.3239441 5.9686093 0 0 0 0 22.077909
3.3989453 -4.383491 6.0928373 0 0 0 0 22.082857
3.5110521 -4.6178102 5.9795785 0 0 0 0 22.087805
3.7128291 -4.954854 6.0097232 0 0 0 0 22.092751
3.9026554 -5.289948 6.0148396 0 0 0 0 22.097698
3.5348053 -4.3723764 6.1860714 0 0 0 0 22.102646
3.6170955 -4.5518584 5.9926305 0 0 0 0 22.107592
3.8458338 -4.899878 6.0398502 0 0 0 0 22.112539
4.0666213 -5.2509518 6.0610604 0 0 0 0 22.117487
3.6417871 -4.320363 6.2271571 0 0 0 0 22.122433
3.7261238 -4.4878922 6.0126925 0 0 0 0 22.12738
3.9748564 -4.8369155 6.0629511 0 0 0 0 22.132328
4.2275968 -5.2049608 6.1042595 0 0 0 0 22.137274
3.7338216 -4.2523937 6.2451782 0 0 0 0 22.142221
3.8301647 -4.4179354 6.0277314 0 0 0 0 22.147167
4.1038804 -4.7709532 6.0860453 0 0 0 0 22.152115
4.3716345 -5.1320171 6.1223645 0 0 0 0 22.157063
3.8198762 -4.1754394 6.255168 0 0 0 0 22.162008
3.971076 -4.3868694 6.0999284 0 0 0 0 22.166956
4.2289109 -4.6999927 6.1071205 0 0 0 0 22.171904
4.5216522 -5.0640564 6.1494927 0 0 0 0 22.176849
3.9099104 -4.1044664 6.274179 0 0 0 0 22.181797
4.1448798 -4.3857141 6.2202554 0 0 0 0 22.186745
4.3519478 -4.6240363 6.1261811 0 0 0 0 22.19169
4.6796427 -5.0010705 6.1896472 0 0 0 0 22.196638
3.9989498 -4.030498 6.2911811 0 0 0 0 22.201586
4.2957678 -4.3546276 6.3044701 0 0 0 0 22.206532
4.4749832 -4.5470767 6.1462393 0 0 0 0 22.211479
4.8306561 -4.9261012 6.2207613 0 0 0 0 22.216427
4.0849905 -3.9535272 6.3081717 0 0 0 0 22.221373
4.4227409 -4.295609 6.3525772 0 0 0 0 22.22632
4.6000094 -4.4691076 6.171299 0 0 0 0 22.231268
4.9647174 -4.8331676 6.2318029 0 0 0 0 22.236214
4.1720252 -3.8785508 6.3281684 0 0 0 0 22.241161
4.5287766 -4.2136402 6.3735929 0 0 0 0 22.246109
4.7310166 -4.3941216 6.2053771 0 0 0 0 22.251055
5.1117401 -4.7482004 6.2608871 0 0 0 0 22.256002
4.25806 -3.8015738 6.3481593 0 0 0 0 22.260948
4.627831 -4.1256847 6.3865824 0 0 0 0 22.265896
4.9118729 -4.3630123 6.3066473 0 0 0 0 22.270844
5.2617502 -4.6642213 6.29598 0 0 0 0 22.275789
4.3351226 -3.7146184 6.356111 0 0 0 0 22.280737
4.7328668 -4.0407124 6.4085898 0 0 0 0 22.285685
5.1306357 -4.3548284 6.4510407 0 0 0 0 22.29063
5.3968015 -4.5642719 6.3140082 0 0 0 0 22.295578
4.4191589 -3.6346405 6.3760915 0 0 0 0 22.300526
4.8408899 -3.9567287 6.436605 0 0 0 0 22.305471
5.2855835 -4.2857885 6.5151768 0 0 0 0 22.310419
5.5338445 -4.4613128 6.3370342 0 0 0 0 22.315367
4.5011983 -3.5526633 6.3950644 0 0 0 0 22.320312
4.9379416 -3.8627656 6.4525785 0 0 0 0 22.32526
5.4056268 -4.1858239 6.537178 0 0 0 0 22.330208
5.6868429 -4.3703175 6.3801165 0 0 0 0 22.335154
4.5772519 -3.4646966 6.4080129 0 0 0 0 22.340101
5.0419679 -3.7737796 6.4805756 0 0 0 0 22.345049
5.5256648 -4.0848527 6.5621777 0 0 0 0 22.349995
5.9415927 -4.3491278 6.5355468 0 0 0 0 22.354942
4.6562948 -3.3787203 6.425972 0 0 0 0 22.35989
5.1390185 -3.6768146 6.4975429 0 0 0 0 22.364836
5.6417122 -3.9778857 6.584157 0 0 0 0 22.369783
6.1704125 -4.2989893 6.6618629 0 0 0 0 22.374729
4.7383261 -3.2937322 6.4499393 0 0 0 0 22.379677
5.2320695 -3.575845 6.5154934 0 0 0 0 22.384624
5.7577562 -3.8689144 6.6081319 0 0 0 0 22.38957
6.3174329 -4.1860027 6.6998858 0 0 0 0 22.394518
4.8124084 -3.2037804 6.4668775 0 0 0 0 22.420595
5.328145 -3.4778903 6.5384521 0 0 0 0 22.425543
5.875823 -3.7609529 6.6391053 0 0 0 0 22.430489
6.38866 -4.0221677 6.6616435 0 0 0 0 22.435436
4.8864574 -3.1128058 6.4828176 0 0 0 0 22.440384
5.427176 -3.378902 6.5664196 0 0 0 0 22.44533
5.9729061 -3.6370094 6.6460123 0 0 0 0 22.450277
6.406961 -3.8273931 6.5722456 0 0 0 0 22.455225
4.9545202 -3.0168412 6.4927354 0 0 0 0 22.460171
5.5062551 -3.2659514 6.5723195 0 0 0 0 22.465118
6.0729742 -3.5140493 6.6609282 0 0 0 0 22.470064
6.4681516 -3.6625302 6.5329947 0 0 0 0 22.475012
5.0285597 -2.9248559 6.5136738 0 0 0 0 22.479959
5.6022873 -3.1629615 6.6002731 0 0 0 0 22.484905
6.1870079 -3.3970616 6.6918836 0 0 0 0 22.489853
6.5882072 -3.5285597 6.5569234 0 0 0 0 22.494801
5.101603 -2.8298721 6.5336041 0 0 0 0 22.499746
5.6853485 -3.0519934 6.6151862 0 0 0 0 22.504694
6.2920589 -3.2730846 6.7158074 0 0 0 0 22.509642
6.7192359 -3.3995664 6.593884 0 0 0 0 22.514587
5.1586819 -2.7269173 6.5364876 0 0 0 0 22.519535
5.765409 -2.9370215 6.6310844 0 0 0 0 22.524483
6.3472152 -3.1221886 6.6905794 0 0 0 0 22.529428
6.8362856 -3.261586 6.6217995 0 0 0 0 22.534376
5.231719 -2.631927 6.5594187 0 0 0 0 22.539324
5.8484612 -2.8240421 6.6509938 0 0 0 0 22.54427
6.375421 -2.9613307 6.6412802 0 0 0 0 22.549217
6.9443517 -3.1166158 6.6426835 0 0 0 0 22.554165
5.301755 -2.5349331 6.5833406 0 0 0 0 22.559111
5.9305124 -2.7090604 6.6718974 0 0 0 0 22.564058
6.3966331 -2.7994754 6.5889664 0 0 0 0 22.569006
7.0464239 -2.9666474 6.6615458 0 0 0 0 22.573952
5.3468556 -2.4249935 6.5761881 0 0 0 0 22.578899
5.9965959 -2.5851033 6.677752 0 0 0 0 22.583847
6.4457798 -2.6495669 6.5677323 0 0 0 0 22.588793
7.1534791 -2.8176615 6.6894212 0 0 0 0 22.59374
5.4128971 -2.324002 6.5980945 0 0 0 0 22.598686
6.0656672 -2.4621341 6.6896152 0 0 0 0 22.603634
6.5188642 -2.5116055 6.5765705 0 0 0 0 22.608582
7.2735081 -2.6706545 6.7303252 0 0 0 0 22.613527
5.4719572 -2.2190266 6.61098 0 0 0 0 22.618475
6.1457133 -2.3411431 6.7145042 0 0 0 0 22.623423
6.6019292 -2.3746278 6.5954294 0 0 0 0 22.628368
7.3645883 -2.5106847 6.7471476 0 0 0 0 22.633316
5.5370002 -2.1150343 6.6328797 0 0 0 0 22.638264
6.2097878 -2.2151737 6.7253528 0 0 0 0 22.643209
6.6829877 -2.2346401 6.618279 0 0 0 0 22.648157
7.4456763 -2.3457162 6.7609415 0 0 0 0 22.653105
5.5850778 -2.0050704 6.6377349 0 0 0 0 22.658051
6.270864 -2.0862031 6.7361903 0 0 0 0 22.662998
6.7650423 -2.095649 6.6431332 0 0 0 0 22.667946
7.478848 -2.1668117 6.7336178 0 0 0 0 22.672892
5.6491113 -1.9000674 6.6646314 0 0 0 0 22.677839
6.3139739 -1.9512597 6.7299819 0 0 0 0 22.682787
6.8271284 -1.94868 6.6529336 0 0 0 0 22.687733
7.5040245 -1.9849074 6.7042737 0 0 0 0 22.69268
5.7001758 -1.78909 6.6764917 0 0 0 0 22.697628
6.336122 -1.8103464 6.7047229 0 0 0 0 22.702574
6.906179 -1.8046811 6.6807737 0 0 0 0 22.707521
7.5112228 -1.8020195 6.6628952 0 0 0 0 22.712467
5.7392645 -1.6741322 6.6763215 0 0 0 0 22.717415
6.3542743 -1.6684352 6.6774554 0 0 0 0 22.722363
6.9662609 -1.6537046 6.6935639 0 0 0 0 22.727308
7.5114274 -1.6171342 6.6185002 0 0 0 0 22.732256
5.7973075 -1.5641348 6.6991982 0 0 0 0 22.737204
6.3674297 -1.5265256 6.6481795 0 0 0 0 22.742149
7.0253386 -1.5027236 6.708353 0 0 0 0 22.747097
7.5245953 -1.4382168 6.592144 0 0 0 0 22.752045
5.8463664 -1.4491479 6.7150478 0 0 0 0 22.75699
6.3805795 -1.3846092 6.6219044 0 0 0 0 22.761938
7.0903978 -1.3517243 6.7331543 0 0 0 0 22.766886
7.5197916 -1.2563221 6.5507498 0 0 0 0 22.771832
5.8784595 -1.3311908 6.7128606 0 0 0 0 22.776779
6.408689 -1.2476579 6.6156688 0 0 0 0 22.781727
7.1394811 -1.1957426 6.7459164 0 0 0 0 22.786673
7.5109792 -1.076417 6.5133533 0 0 0 0 22.79162
5.9285121 -1.2151983 6.7317119 0 0 0 0 22.796568
6.4318061 -1.1097124 6.605423 0 0 0 0 22.801514
7.1785784 -1.0377709 6.751657 0 0 0 0 22.806461
7.5261197 -0.90047234 6.500011 0 0 0 0 22.811409
5.9675789 -1.0972151 6.7435389 0 0 0 0 22.816355
6.4668908 -0.97273678 6.6122026 0 0 0 0 22.821302
7.2236571 -0.87978113 6.7674088 0 0 0 0 22.826248
7.5242805 -0.72354263 6.475637 0 0 0 0 22.831196
6.0126352 -0.97822207 6.7613754 0 0 0 0 22.836143
6.5139508 -0.8367396 6.6320066 0 0 0 0 22.841089
7.2627425 -0.7187947 6.7801452 0 0 0 0 22.846037
7.5294223 -0.54759514 6.4612784 0 0 0 0 22.850985
6.0526958 -0.85723102 6.7772002 0 0 0 0 22.85593
6.5430408 -0.6967653 6.6367702 0 0 0 0 22.860878
7.3038192 -0.55880088 6.7968884 0 0 0 0 22.865826
7.5205798 -0.37165964 6.4378963 0 0 0 0 22.870771
6.0877657 -0.73524809 6.7880135 0 0 0 0 22.875719
6.5761166 -0.5577783 6.6485443 0 0 0 0 22.880667
7.3359032 -0.39580914 6.8106093 0 0 0 0 22.885612
7.5117259 -0.1967115 6.420517 0 0 0 0 22.89056
6.1147928 -0.61196268 6.7919431 0 0 0 0 23.484344
6.6141105 -0.41743803 6.6664481 0 0 0 0 23.489292
7.3509474 -0.23249133 6.8093948 0 0 0 0 23.49424
8.155777 -0.024555042 6.9624162 0 0 0 0 23.499186
6.1498508 -0.48797008 6.8077664 0 0 0 0 23.504133
6.6351943 -0.27545792 6.6722112 0 0 0 0 23.509081
7.368041 -0.068509281 6.8151059 0 0 0 0 23.514027
8.1648855 0.1624268 6.9660678 0 0 0 0 23.518974
6.1639476 -0.36200947 6.8025494 0 0 0 0 23.523922
6.6532793 -0.13347842 6.6769695 0 0 0 0 23.528868
7.3901191 0.09648817 6.8298264 0 0 0 0 23.533815
8.1799755 0.35242555 6.9797254 0 0 0 0 23.538763
5.9554768 -0.22642401 6.5549192 0 0 0 0 23.543709
6.6733584 0.010507992 6.6857285 0 0 0 0 23.548656
7.3952203 0.26246762 6.8315153 0 0 0 0 23.553602
8.1671009 0.54139745 6.9733367 0 0 0 0 23.55855
5.9855304 -0.10342462 6.5727386 0 0 0 0 23.563498
6.690434 0.15549961 6.6964817 0 0 0 0 23.568443
7.4033103 0.42845747 6.8392105 0 0 0 0 23.573391
8.1821785 0.73240983 6.9939957 0 0 0 0 23.578339
6.0115895 0.020570602 6.5875497 0 0 0 0 23.583284
6.6945286 0.29947543 6.6962147 0 0 0 0 23.588232
7.4044042 0.59544641 6.844893 0 0 0 0 23.59318
8.1563072 0.92138356 6.9855871 0 0 0 0 23.598125
6.0236697 0.14554854 6.5903354 0 0 0 0 23.603073
6.7105989 0.44647327 6.7099638 0 0 0 0 23.608021
7.3995028 0.76143217 6.8475685 0 0 0 0 23.612967
8.1404161 1.1103742 6.9881983 0 0 0 0 23.617914
6.0457273 0.27154735 6.6061373 0 0 0 0 23.622862
6.7096901 0.59245509 6.7116861 0 0 0 0 23.627808
7.3876071 0.92941511 6.847229 0 0 0 0 23.632755
8.1155291 1.298363 6.9877968 0 0 0 0 23.637703
6.0568051 0.39952958 6.6109171 0 0 0 0 23.642649
6.7137723 0.73944449 6.7184167 0 0 0 0 23.647596
7.3757005 1.0944077 6.8518958 0 0 0 0 23.652544
8.0956259 1.4873669 6.9964037 0 0 0 0 23.65749
6.0598888 0.5265075 6.6116853 0 0 0 0 23.662437
6.7078605 0.88743234 6.7221289 0 0 0 0 23.667383
7.3617935 1.262403 6.8575554 0 0 0 0 23.672331
8.0647306 1.6753659 6.9999952 0 0 0 0 23.677279
6.0729513 0.65650618 6.6254663 0 0 0 0 23.682224
6.7059388 1.0354282 6.7308488 0 0 0 0 23.687172
7.3388953 1.4273906 6.8572063 0 0 0 0 23.69212
8.0188541 1.8593501 6.9925694 0 0 0 0 23.697065
6.0730357 0.78548539 6.6262279 0 0 0 0 23.702013
6.6840482 1.1813977 6.7215395 0 0 0 0 23.706961
7.3159895 1.5943877 6.8618546 0 0 0 0 23.711906
7.9869452 2.0473628 7.0031614 0 0 0 0 23.716854
6.0721188 0.9154669 6.6279869 0 0 0 0 23.721802
6.6761289 1.330394 6.7292495 0 0 0 0 23.726748
7.292079 1.761389 6.8685026 0 0 0 0 23.731695
7.925076 2.2273424 6.9897184 0 0 0 0 23.736643
6.0761843 1.0474654 6.639751 0 0 0 0 23.741589
6.663209 1.4793925 6.7369523 0 0 0 0 23.746536
7.2441974 1.9213661 6.8571234 0 0 0 0 23.751484
7.8681889 2.4073386 6.9862862 0 0 0 0 23.75643
6.0692711 1.1794456 6.6394973 0 0 0 0 23.761377
6.6333137 1.6253693 6.7296324 0 0 0 0 23.766325
7.2052975 2.0853603 6.8567538 0 0 0 0 23.771271
7.8082986 2.5863383 6.9838524 0 0 0 0 23.776218
6.0543637 1.3084217 6.6352367 0 0 0 0 23.781164
6.6084027 1.7723613 6.7313199 0 0 0 0 23.786112
7.1703849 2.249366 6.8633928 0 0 0 0 23.791059
7.7414122 2.7623348 6.9784131 0 0 0 0 23.796005
6.0564203 1.4454323 6.6529918 0 0 0 0 23.800953
6.5834889 1.920357 6.7350078 0 0 0 0 23.805901
7.1154962 2.4083519 6.8550081 0 0 0 0 23.810846
7.6715212 2.9373367 6.9749727 0 0 0 0 23.815794
6.0425048 1.5774174 6.653729 0 0 0 0 23.820742
6.5475855 2.066344 6.7316813 0 0 0 0 23.825687
7.0665908 2.570354 6.8566294 0 0 0 0 23.830635
7.5906405 3.1083293 6.9645224 0 0 0 0 23.835583
6.0186005 1.7083933 6.6474519 0 0 0 0 23.840528
6.5146737 2.2133389 6.7333589 0 0 0 0 23.845476
7.0027013 2.7253413 6.847239 0 0 0 0 23.850424
7.500762 3.2743206 6.9510674 0 0 0 0 23.85537
6.0016789 1.8443871 6.6521788 0 0 0 0 23.860317
6.4687762 2.3573225 6.7260213 0 0 0 0 23.865265
6.9457979 2.8843427 6.8468552 0 0 0 0 23.870211
7.4158721 3.4413226 6.9446211 0 0 0 0 23.875158
5.9637918 1.9723481 6.6348853 0 0 0 0 23.880106
6.4178824 2.4993024 6.7156801 0 0 0 0 23.885052
6.8808975 3.0393422 6.8434668 0 0 0 0 23.889999
7.3189926 3.6023145 6.9301667 0 0 0 0 23.894947
6.0736365 2.1545634 6.7857471 0 0 0 0 23.899893
6.3729701 2.6433005 6.7163467 0 0 0 0 23.90484
6.8030114 3.1883276 6.8300681 0 0 0 0 23.909786
7.2250991 3.7633202 6.9237194 0 0 0 0 23.914734
6.1245785 2.3206899 6.8765383 0 0 0 0 23.919682
6.3220644 2.7862937 6.7130065 0 0 0 0 23.924627
6.7221236 3.3353143 6.8166699 0 0 0 0 23.929575
7.1262107 3.92032 6.9132729 0 0 0 0 23.934523
6.0896707 2.4586754 6.8732343 0 0 0 0 23.939468
6.2591734 2.924273 6.699656 0 0 0 0 23.944416
6.6542096 3.4893274 6.820282 0 0 0 0 23.949364
7.0193214 4.0723214 6.901823 0 0 0 0 23.954309
6.0463614 2.5949917 6.8656754 0 0 0 0 23.676428
6.2258291 3.0786333 6.7230616 0 0 0 0 23.681376
6.562933 3.6316385 6.8045912 0 0 0 0 23.686321
6.9020586 4.2186351 6.8820596 0 0 0 0 23.691269
6.0114441 2.7349908 6.8693619 0 0 0 0 23.696217
6.2018628 3.23769 6.7587318 0 0 0 0 23.701162
6.4620614 3.7666132 6.7801743 0 0 0 0 23.70611
6.7821794 4.3606296 6.8635979 0 0 0 0 23.711058
5.9695334 2.8749852 6.8690372 0 0 0 0 23.716003
6.2198153 3.4228301 6.8474274 0 0 0 0 23.720951
6.3761597 3.9096177 6.7747703 0 0 0 0 23.725899
6.6652923 4.5026307 6.849143 0 0 0 0 23.730844
5.9256201 3.0139823 6.8697119 0 0 0 0 23.735792
6.2357678 3.6129723 6.9371104 0 0 0 0 23.74074
6.2662859 4.0385942 6.7493525 0 0 0 0 23.745686
6.5324192 4.6336169 6.8236833 0 0 0 0 23.750633
5.8607426 3.1419444 6.847373 0 0 0 0 23.755581
6.1808348 3.7640009 6.9517465 0 0 0 0 23.760527
6.1853638 4.183619 6.7559562 0 0 0 0 23.765474
6.3995423 4.7606049 6.799233 0 0 0 0 23.770422
5.8098302 3.2799423 6.8470402 0 0 0 0 23.775368
6.0979395 3.9019933 6.9413595 0 0 0 0 23.780315
6.1902947 4.3907962 6.8615928 0 0 0 0 23.785261
6.2646608 4.8845978 6.7767854 0 0 0 0 23.790209
5.753922 3.4169366 6.8437014 0 0 0 0 23.795156
6.0130444 4.0369849 6.9299765 0 0 0 0 23.800102
6.2071953 4.6160092 6.9892173 0 0 0 0 23.80505
6.1537337 5.0266371 6.784348 0 0 0 0 23.809998
5.6920161 3.5509298 6.8383598 0 0 0 0 23.814943
5.9201541 4.1679721 6.9145885 0 0 0 0 23.819891
6.0633531 4.7229533 6.9397883 0 0 0 0 23.824839
6.2205219 5.3199821 6.9929333 0 0 0 0 23.829784
5.6261158 3.6829166 6.8290162 0 0 0 0 23.834732
5.8262601 4.2959609 6.9002061 0 0 0 0 23.83968
5.9684224 4.8669906 6.9503756 0 0 0 0 23.844625
6.0706439 5.4339705 6.9654846 0 0 0 0 23.849573
5.5612044 3.8179164 6.8266702 0 0 0 0 23.854521
5.7123957 4.411921 6.8658133 0 0 0 0 23.859467
5.8265643 4.9709492 6.9089589 0 0 0 0 23.864414
5.9127712 5.537951 6.9320421 0 0 0 0 23.869362
5.4833121 3.9448972 6.8113174 0 0 0 0 23.874308
5.6115017 4.5359116 6.8504291 0 0 0 0 23.879255
5.6976829 5.0849323 6.8835473 0 0 0 0 23.884203
5.7658763 5.6499553 6.9136047 0 0 0 0 23.889149
5.4143972 4.0809021 6.8109651 0 0 0 0 23.894096
5.5046148 4.6548929 6.8290448 0 0 0 0 23.899044
5.5997367 5.2269855 6.9021378 0 0 0 0 23.90399
5.6129861 5.7539525 6.8901744 0 0 0 0 23.908937
5.3324995 4.2058878 6.7976131 0 0 0 0 23.913883
5.4017129 4.7778912 6.8176618 0 0 0 0 23.918831
5.4608583 5.3299632 6.8717322 0 0 0 0 23.923779
5.454102 5.8489404 6.8607516 0 0 0 0 23.928724
5.2565832 4.3398962 6.797255 0 0 0 0 23.933672
5.2928143 4.8948851 6.8022809 0 0 0 0 23.93862
5.3269658 5.4379559 6.8503275 0 0 0 0 23.943565
5.3051944 5.9509525 6.8463345 0 0 0 0 23.948513
5.1606994 4.4578691 6.7738938 0 0 0 0 23.953461
5.1789212 5.0078731 6.7829008 0 0 0 0 23.958406
5.1980577 5.548965 6.8389268 0 0 0 0 23.963354
5.1403098 6.033937 6.8139272 0 0 0 0 23.968302
5.0777836 4.5868754 6.7715359 0 0 0 0 23.973248
5.0700116 5.1248775 6.7735229 0 0 0 0 23.978195
5.0401998 5.6249146 6.7895436 0 0 0 0 23.983143
4.9844055 6.1239424 6.7945232 0 0 0 0 23.988089
4.9778934 4.7028556 6.7511744 0 0 0 0 23.993036
4.9730721 5.256916 6.7851386 0 0 0 0 23.997984
4.9172668 5.7409492 6.7931471 0 0 0 0 24.00293
4.8334856 6.2189641 6.7851195 0 0 0 0 24.007877
4.8829861 4.823854 6.7418137 0 0 0 0 24.012825
4.8441873 5.3548932 6.7567649 0 0 0 0 24.017771
4.762393 5.817915 6.7527695 0 0 0 0 24.022718
4.6556134 6.275928 6.7387419 0 0 0 0 24.027664
4.7820849 4.9418454 6.7274494 0 0 0 0 24.032612
4.7192898 5.455883 6.7363935 0 0 0 0 24.03756
4.6384525 5.9319568 6.7603779 0 0 0 0 24.042505
4.4867225 6.3389106 6.70437 0 0 0 0 24.047453
4.6801791 5.0588431 6.7160869 0 0 0 0 24.052401
4.6063638 5.5729055 6.7360144 0 0 0 0 24.057346
4.4795756 5.9999213 6.7190132 0 0 0 0 24.062294
4.3327971 6.4209328 6.6949902 0 0 0 0 24.067242
4.5722771 5.1708355 6.7007241 0 0 0 0 24.072187
4.4505138 5.6378398 6.678659 0 0 0 0 24.077135
4.3206944 6.0648904 6.6796551 0 0 0 0 24.082083
4.1678901 6.4839301 6.6696277 0 0 0 0 24.087029
4.4633718 5.2838316 6.6873598 0 0 0 0 24.091976
4.32061 5.7308335 6.6592979 0 0 0 0 24.096924
4.1937447 6.1719384 6.6902752 0 0 0 0 24.10187
3.9949956 6.53091 6.6332817 0 0 0 0 24.106817
4.3424826 5.3818088 6.6610036 0 0 0 0 24.111765
4.1857085 5.8178244 6.6369405 0 0 0 0 24.116711
4.0328612 6.2299061 6.649929 0 0 0 0 24.121658
3.8290858 6.5839057 6.6069388 0 0 0 0 24.126606
4.2255816 5.4867992 6.6426435 0 0 0 0 24.131552
4.0667672 5.9288611 6.6435676 0 0 0 0 24.136499
3.881952 6.298903 6.6275811 0 0 0 0 24.141445
3.6641693 6.6369081 6.5845976 0 0 0 0 24.146393
4.1043735 5.587091 6.6228766 0 0 0 0 23.907429
3.9325528 6.018168 6.6277761 0 0 0 0 23.912374
3.7207625 6.3501825 6.5907931 0 0 0 0 23.917322
3.4939725 6.6752 6.5517988 0 0 0 0 23.92227
3.9804718 5.6860847 6.6045094 0 0 0 0 23.927216
3.7896531 6.0941563 6.6024213 0 0 0 0 23.932163
3.5648584 6.4091725 6.5634503 0 0 0 0 23.937111
3.3260608 6.7131934 6.5234761 0 0 0 0 23.942057
3.8615537 5.7920971 6.5971394 0 0 0 0 23.947004
3.6317849 6.144104 6.5520906 0 0 0 0 23.951952
3.4079554 6.4591575 6.533123 0 0 0 0 23.956898
3.175102 6.7832441 6.5301242 0 0 0 0 23.961845
3.7306526 5.8820877 6.5757794 0 0 0 0 23.966791
3.5108194 6.2581706 6.5737057 0 0 0 0 23.971739
3.2540362 6.5161614 6.5137901 0 0 0 0 23.976686
2.9972143 6.7892003 6.479847 0 0 0 0 23.981632
3.6097236 5.988111 6.5744085 0 0 0 0 23.98658
3.3609207 6.3181524 6.5433726 0 0 0 0 23.991528
3.1021085 6.5741735 6.4994588 0 0 0 0 23.996473
2.8342824 6.8262115 6.4625378 0 0 0 0 24.001421
3.4728236 6.0731006 6.5510502 0 0 0 0 24.006369
3.2110181 6.3781376 6.5150409 0 0 0 0 24.011314
2.9441955 6.6181655 6.4731445 0 0 0 0 24.016262
2.6683602 6.8492064 6.4362507 0 0 0 0 24.02121
3.325942 6.1380639 6.5117135 0 0 0 0 24.026155
3.0591128 6.4361253 6.4877105 0 0 0 0 24.031103
2.7862787 6.6581593 6.4478393 0 0 0 0 24.036051
2.4994493 6.8581848 6.3999858 0 0 0 0 24.040997
3.1860383 6.2160544 6.4883661 0 0 0 0 24.045944
2.9101977 6.4961233 6.4663825 0 0 0 0 24.050892
2.6243715 6.6841383 6.4135542 0 0 0 0 24.055838
2.337513 6.8811927 6.3817072 0 0 0 0 24.060785
3.0471239 6.2980571 6.4720135 0 0 0 0 24.065733
2.7562923 6.5431061 6.4360714 0 0 0 0 24.070679
2.4694397 6.7261477 6.3972516 0 0 0 0 24.075626
2.1666076 6.8721566 6.3374739 0 0 0 0 24.080574
2.8982244 6.3620396 6.4426789 0 0 0 0 24.08552
2.6023791 6.5920978 6.4107575 0 0 0 0 24.090467
2.3085282 6.7471275 6.3639793 0 0 0 0 24.095413
2.0006928 6.8691311 6.3002381 0 0 0 0 24.100361
2.752316 6.4310322 6.4193411 0 0 0 0 24.105309
2.4504559 6.6420999 6.3914466 0 0 0 0 24.110254
2.1505995 6.7761283 6.3426981 0 0 0 0 24.115202
1.8407515 6.8811383 6.2819862 0 0 0 0 24.12015
2.6053991 6.5000343 6.4010034 0 0 0 0 24.125095
2.295542 6.6820884 6.3641496 0 0 0 0 24.130043
1.992671 6.7981248 6.3194304 0 0 0 0 24.134991
1.6808145 6.8831358 6.2587533 0 0 0 0 24.139936
2.4544909 6.558023 6.3746796 0 0 0 0 24.144884
2.138624 6.7170796 6.3378596 0 0 0 0 24.149832
1.8337451 6.814117 6.2931728 0 0 0 0 24.154778
1.5198857 6.8721194 6.2275434 0 0 0 0 24.159725
2.3025744 6.6170211 6.3533535 0 0 0 0 24.164673
1.9846901 6.7630911 6.3235555 0 0 0 0 24.169619
1.6758186 6.8251066 6.2659273 0 0 0 0 24.174566
1.3599564 6.8601022 6.1963372 0 0 0 0 24.179514
2.1506534 6.6740232 6.3340325 0 0 0 0 24.18446
1.8257753 6.7860737 6.2922859 0 0 0 0 24.189407
1.5168906 6.833096 6.2386861 0 0 0 0 24.194355
1.2040094 6.8551054 6.1771259 0 0 0 0 24.199301
2.002708 6.7500572 6.3336844 0 0 0 0 24.204248
1.6698442 6.819077 6.2730041 0 0 0 0 24.209194
1.3589585 6.8390889 6.2134514 0 0 0 0 24.214142
1.0480701 6.8400955 6.1509337 0 0 0 0 24.21909
1.8447932 6.7940488 6.3073792 0 0 0 0 24.224035
1.5099237 6.8370628 6.2437439 0 0 0 0 24.228983
1.202031 6.836072 6.1832352 0 0 0 0 24.233931
0.89312994 6.8230848 6.1247473 0 0 0 0 24.238876
1.6828908 6.8190193 6.2691026 0 0 0 0 24.243824
1.3500066 6.8470421 6.2104993 0 0 0 0 24.248772
1.0450978 6.8320608 6.1560216 0 0 0 0 24.253717
0.74118984 6.7980695 6.096581 0 0 0 0 24.258665
1.5239691 6.8590159 6.2458043 0 0 0 0 24.263613
1.1920769 6.8640366 6.1862454 0 0 0 0 24.268559
0.89015824 6.8290553 6.1328101 0 0 0 0 24.273506
0.58825696 6.762042 6.0614328 0 0 0 0 24.278454
1.3570753 6.8649707 6.197556 0 0 0 0 24.2834
1.0331545 6.8660164 6.1540184 0 0 0 0 24.288347
0.73323834 6.8040199 6.0926361 0 0 0 0 24.293295
0.44029459 6.749054 6.049253 0 0 0 0 24.298241
1.180254 6.8038225 6.0904126 0 0 0 0 24.303188
0.87422812 6.8670001 6.1237941 0 0 0 0 24.308136
0.58030206 6.7890053 6.0644507 0 0 0 0 24.313082
0.29135787 6.7080264 6.0151215 0 0 0 0 24.318029
1.0103929 6.7667246 6.0122375 0 0 0 0 24.322975
0.71430343 6.8639808 6.0915756 0 0 0 0 24.327923
0.42736283 6.7709913 6.037272 0 0 0 0 24.33287
0.14442502 6.6599903 5.9770074 0 0 0 0 24.337816
0.84948003 6.772697 5.9750009 0 0 0 0 24.342764
0.55538344 6.84795 6.0533829 0 0 0 0 24.347712
0.27542061 6.7499795 6.0111003 0 0 0 0 24.352657
0.00046741881 6.6299877 5.9578657 0 0 0 0 24.357605
0.68757689 6.7656536 5.9287863 0 0 0 0 24.362553
0.39844975 6.8399363 6.0251799 0 0 0 0 24.367498
0.12547754 6.7269669 5.9849362 0 0 0 0 24.372446
-0.14149438 6.5979877 5.940731 0 0 0 0 24.377394
0.52576697 6.7504992 5.8817844 0 0 0 0 24.46772
0.24159944 6.8388262 6.0061665 0 0 0 0 24.472668
-0.022378506 6.7068505 5.9649725 0 0 0 0 24.477613
-0.28233489 6.5408359 5.9028449 0 0 0 0 24.482561
0.36683232 6.7584939 5.8575516 0 0 0 0 24.487509
0.084660858 6.8238134 5.9789786 0 0 0 0 24.492455
-0.17131233 6.6658187 5.9288435 0 0 0 0 24.497402
-0.42028514 6.4918146 5.8747487 0 0 0 0 24.50235
0.20690736 6.7534728 5.8243403 0 0 0 0 24.507296
-0.069277324 6.8057981 5.9508014 0 0 0 0 24.512243
-0.31727237 6.6428213 5.9126887 0 0 0 0 24.517191
-0.55723876 6.4427962 5.8486543 0 0 0 0 24.522137
0.046982471 6.740448 5.7891445 0 0 0 0 24.527084
-0.22523196 6.7968044 5.9346056 0 0 0 0 24.532032
-0.46220696 6.5917845 5.8745852 0 0 0 0 24.536978
-0.69119519 6.3907781 5.8235707 0 0 0 0 24.541925
-0.11096701 6.7454557 5.7729206 0 0 0 0 24.546871
-0.37816155 6.7587709 5.8964667 0 0 0 0 24.551819
-0.60515422 6.5507646 5.8464675 0 0 0 0 24.556767
-0.82516223 6.3457737 5.8064752 0 0 0 0 24.561712
-0.27191773 6.7474642 5.7566972 0 0 0 0 24.56666
-0.5321123 6.7347655 5.8743014 0 0 0 0 24.571608
-0.74710184 6.5047426 5.8173609 0 0 0 0 24.576553
-0.95411175 6.2817411 5.7744207 0 0 0 0 24.581501
-0.43087089 6.7434721 5.740489 0 0 0 0 24.586449
-0.68506038 6.7047544 5.8491488 0 0 0 0 24.591394
-0.88705486 6.457725 5.7912593 0 0 0 0 24.596342
-1.0830723 6.2237225 5.7503562 0 0 0 0 24.60129
-0.59284306 6.7545071 5.7392502 0 0 0 0 24.606236
-0.83600765 6.6687393 5.8220105 0 0 0 0 24.611183
-1.0260111 6.4107103 5.7671595 0 0 0 0 24.616131
-1.2090361 6.1657062 5.7282968 0 0 0 0 24.621077
-0.75682515 6.7695546 5.7450018 0 0 0 0 24.626024
-0.98394459 6.6167054 5.7849059 0 0 0 0 24.630972
-1.1629696 6.3626962 5.7440648 0 0 0 0 24.635918
-1.3340018 6.1066909 5.7072411 0 0 0 0 24.640865
-0.92080718 6.776598 5.7487679 0 0 0 0 24.645813
-1.1329018 6.580699 5.7637715 0 0 0 0 24.650759
-1.2979252 6.3046751 5.7169914 0 0 0 0 24.655706
-1.4539523 6.0316515 5.6732211 0 0 0 0 24.660652
-1.0878063 6.7986674 5.7665043 0 0 0 0 24.6656
-1.2788471 6.5286732 5.7316709 0 0 0 0 24.670547
-1.4308796 6.2456508 5.6889234 0 0 0 0 24.675493
-1.5739216 5.9676361 5.653182 0 0 0 0 24.680441
-1.2507665 6.7726736 5.7493305 0 0 0 0 24.685389
-1.4237993 6.4756536 5.7035728 0 0 0 0 24.690334
-1.5628452 6.1916394 5.668848 0 0 0 0 24.695282
-1.5251926 5.3155847 5.0714345 0 0 0 0 24.70023
-1.4097148 6.7306585 5.7211924 0 0 0 0 24.705175
-1.567752 6.4216332 5.6754794 0 0 0 0 24.710123
-1.6907985 6.1226082 5.6378055 0 0 0 0 24.715071
-1.6361881 5.2746043 5.0723681 0 0 0 0 24.720016
-1.5666592 6.6816368 5.6890697 0 0 0 0 24.724964
-1.706699 6.3566008 5.6414127 0 0 0 0 24.729912
-1.8187613 6.058589 5.6137547 0 0 0 0 24.734858
-1.7371553 5.2085805 5.0503612 0 0 0 0 24.739805
-1.722611 6.630621 5.6609526 0 0 0 0 24.744753
-1.8486637 6.3015919 5.6203241 0 0 0 0 24.749699
-1.7590657 5.4185772 5.053998 0 0 0 0 24.754646
-1.8702358 5.2317233 5.1181488 0 0 0 0 24.759594
-1.8765627 6.5756025 5.6318455 0 0 0 0 24.76454
-1.9846154 6.2325616 5.5882697 0 0 0 0 24.769487
-1.8670219 5.3475418 5.0239892 0 0 0 0 24.774435
-2.1327369 5.5904884 5.5211525 0 0 0 0 24.779381
-2.0275087 6.509573 5.5967622 0 0 0 0 24.784328
-2.1207008 6.1685133 5.5645719 0 0 0 0 24.789274
-1.9782064 5.2865 5.0052929 0 0 0 0 24.794222
-2.2418599 5.5224519 5.508512 0 0 0 0 24.79917
-2.1775799 6.4495273 5.5710487 0 0 0 0 24.804115
-2.0411026 5.5185142 5.0098414 0 0 0 0 24.809063
-2.1162555 5.2946177 5.0571203 0 0 0 0 24.814011
-1.7392601 4.031775 4.0608282 0 0 0 0 24.818956
-2.3145087 6.3494577 5.5140662 0 0 0 0 24.823904
-1.7560716 4.4277492 4.0471549 0 0 0 0 24.828852
-1.7731159 4.1656899 4.0115829 0 0 0 0 24.833797
-2.4478025 5.3634038 5.4635706 0 0 0 0 24.838745
-1.6756388 4.2691612 3.7265735 0 0 0 0 24.843693
-1.7217407 4.0652051 3.7448592 0 0 0 0 24.848639
-1.8661082 4.1257062 4.0115538 0 0 0 0 24.853586
-2.042578 4.2343574 4.3601198 0 0 0 0 24.858534
-1.7706033 4.2151399 3.7035654 0 0 0 0 24.86348
-1.9239661 4.2676358 3.9652605 0 0 0 0 24.868427
-1.9490851 4.0676932 3.9965701 0 0 0 0 24.873375
-2.0844705 4.0951962 4.267334 0 0 0 0 24.878321
-1.8675734 4.162127 3.6845529 0 0 0 0 24.883268
-2.0369837 4.2537003 3.9891593 0 0 0 0 24.888216
-2.0460949 4.0397358 4.0115156 0 0 0 0 24.893162
-2.2456393 4.1914988 4.4229774 0 0 0 0 24.898109
-1.9615457 4.1071148 3.666548 0 0 0 0 24.903055
-2.1279578 4.1926851 3.9711702 0 0 0 0 24.908003
-2.8645904 5.3593369 5.3861437 0 0 0 0 24.912951
-2.8387134 5.0403252 5.3897276 0 0 0 0 24.917896
-2.0635307 4.0651255 3.6605098 0 0 0 0 24.922844
-2.2139244 4.1236563 3.9462013 0 0 0 0 24.927792
-2.9735727 5.2803278 5.3711648 0 0 0 0 24.932737
-2.927685 4.9502916 5.3647952 0 0 0 0 24.937685
-2.2400761 4.1638784 3.789233 0 0 0 0 25.446594
-2.3003042 4.0571127 3.9283271 0 0 0 0 25.451542
-3.074873 5.1886101 5.346487 0 0 0 0 25.45649
-3.0149827 4.8605771 5.3440957 0 0 0 0 25.461435
-2.9901192 5.254766 4.8345261 0 0 0 0 25.466383
-2.9832938 4.9938531 4.8959551 0 0 0 0 25.471331
-3.1718402 5.0915718 5.3165526 0 0 0 0 25.476276
-3.1039655 4.7765594 5.3291507 0 0 0 0 25.481224
-3.0980752 5.1537185 4.7945824 0 0 0 0 25.486172
-3.0632281 4.8677607 4.8340888 0 0 0 0 25.491117
-3.2738218 5.0045552 5.2995958 0 0 0 0 25.496065
-3.1869392 4.6835251 5.3052278 0 0 0 0 25.501013
-3.2090418 5.0586858 4.7636251 0 0 0 0 25.505959
-3.1491792 4.7566957 4.7881899 0 0 0 0 25.510906
-3.3718026 4.9155364 5.2816467 0 0 0 0 25.515854
-3.2719245 4.5975075 5.2912912 0 0 0 0 25.5208
-3.6795363 5.5035901 5.2523327 0 0 0 0 25.525747
-3.2411475 4.659658 4.7582607 0 0 0 0 25.530695
-3.4167001 4.7503738 5.1838894 0 0 0 0 25.535641
-3.3549097 4.510489 5.277359 0 0 0 0 25.540588
-3.8025136 5.4025702 5.2283707 0 0 0 0 25.545536
-3.3281112 4.5566101 4.7233477 0 0 0 0 25.550482
-3.2242348 4.2785993 4.7449327 0 0 0 0 25.555429
-3.4298835 4.4134507 5.2524524 0 0 0 0 25.560375
-3.91348 5.2865276 5.1924491 0 0 0 0 25.565323
-3.4270985 4.471601 4.7103896 0 0 0 0 25.570271
-3.3082192 4.1935821 4.7299943 0 0 0 0 25.575216
-3.1733224 3.9095354 4.7356296 0 0 0 0 25.580164
-4.033462 5.1835113 5.1714935 0 0 0 0 25.585112
-3.8976104 4.8504949 5.1972065 0 0 0 0 25.590057
-3.398216 4.1165833 4.7260346 0 0 0 0 25.595005
-3.2383018 3.8225048 4.7167187 0 0 0 0 25.599953
-4.1474447 5.0724893 5.1485596 0 0 0 0 25.604898
-3.9905837 4.7374549 5.1673026 0 0 0 0 25.609846
-3.9068274 4.5276132 5.2947521 0 0 0 0 25.614794
-3.6668501 4.1474013 5.2176771 0 0 0 0 25.61974
-4.2584262 4.9604654 5.1246305 0 0 0 0 25.624687
-4.1085963 4.6554804 5.1743164 0 0 0 0 25.629635
-4.1920977 4.6460643 5.5412288 0 0 0 0 25.634581
-3.7278183 4.0423489 5.186801 0 0 0 0 25.639528
-3.9949563 4.4316421 4.6648507 0 0 0 0 25.644476
-4.3157268 4.6687069 5.2920628 0 0 0 0 25.649422
-4.3201375 4.5801296 5.573205 0 0 0 0 25.654369
-3.7958035 3.9463217 5.1709013 0 0 0 0 25.659317
-3.9137318 4.1382508 4.4434571 0 0 0 0 25.664263
-4.5098386 4.6578965 5.3898644 0 0 0 0 25.66921
-4.5453138 4.6104188 5.7299018 0 0 0 0 25.674156
-3.8587821 3.8462837 5.149014 0 0 0 0 25.679104
-4.6054173 4.6414585 5.0927973 0 0 0 0 25.684052
-4.1682806 4.1109428 4.8602123 0 0 0 0 25.688997
-5.5004721 5.3383293 6.7855477 0 0 0 0 25.693945
-3.9307797 3.7572749 5.1440973 0 0 0 0 25.698893
-4.8345504 4.6426892 5.2095351 0 0 0 0 25.703838
-4.8930569 4.6082582 5.5765214 0 0 0 0 25.708786
-4.3688302 4.0556054 5.2730842 0 0 0 0 25.713734
-4.000773 3.6652591 5.1351871 0 0 0 0 25.718679
-4.7923827 4.3853884 5.0390334 0 0 0 0 25.723627
-4.850884 4.3619556 5.4060025 0 0 0 0 25.728575
-4.2986293 3.8172665 5.0835876 0 0 0 0 25.733521
-4.0577545 3.5642219 5.1153083 0 0 0 0 25.738468
-4.8543358 4.2313004 4.9842329 0 0 0 0 25.743416
-4.8247395 4.1397018 5.262424 0 0 0 0 25.748362
-4.3636112 3.7042277 5.0607171 0 0 0 0 25.753309
-4.1207485 3.4692039 5.1064119 0 0 0 0 25.758257
-4.9463301 4.1072798 4.9673452 0 0 0 0 25.763203
-4.7195125 3.8643081 5.0440307 0 0 0 0 25.76815
-4.4376092 3.6022148 5.0528178 0 0 0 0 25.773098
-4.1777344 3.3691728 5.0905309 0 0 0 0 25.778044
-5.0333228 3.9792547 4.9484701 0 0 0 0 25.782991
-4.7694726 3.7242293 4.9982219 0 0 0 0 25.787937
-4.5076041 3.4961958 5.0419288 0 0 0 0 25.792885
-4.2257133 3.2641282 5.0676689 0 0 0 0 25.797832
-5.1093078 3.8432138 4.9216213 0 0 0 0 25.802778
