# .PCD v0.7 - Point Cloud Data file format
VERSION 0.7
FIELDS x y z normal_x normal_y normal_z intensity curvature
SIZE 4 4 4 4 4 4 4 4
TYPE F F F F F F F F
COUNT 1 1 1 1 1 1 1 1
WIDTH 976
HEIGHT 1
VIEWPOINT 0 0 0 1 0 0 0
POINTS 976
DATA ascii
-6.1622062 6.8710976 4.7283921 0 0 0 0 41.228157
-6.2731266 6.3187056 4.6557455 0 0 0 0 41.233101
-5.9902792 7.7340798 4.8186646 0 0 0 0 41.238052
-6.1483841 7.201303 4.7579236 0 0 0 0 41.242996
-6.2463436 6.6540246 4.6842604 0 0 0 0 41.24794
-6.3513455 6.1117406 4.624577 0 0 0 0 41.252892
-6.1338062 7.5565267 4.7893414 0 0 0 0 41.257835
-6.2425056 6.9821191 4.7097969 0 0 0 0 41.262787
-6.336575 6.4479389 4.6510839 0 0 0 0 41.267731
-6.4195266 5.9018555 4.5914278 0 0 0 0 41.272675
-6.242949 7.3391838 4.7372017 0 0 0 0 41.277626
-6.3508234 6.7848549 4.6745763 0 0 0 0 41.28257
-6.4278722 6.2498555 4.6218762 0 0 0 0 41.287521
-6.4746232 5.6840706 4.5543199 0 0 0 0 41.292465
-6.3652992 7.1447783 4.6999631 0 0 0 0 41.297409
-6.4460387 6.5776935 4.6364055 0 0 0 0 41.302361
-6.5000277 6.0379019 4.5827374 0 0 0 0 41.307304
-6.5338225 5.478271 4.5231633 0 0 0 0 41.312256
-6.4634137 6.9265351 4.6498375 0 0 0 0 41.3172
-6.5352449 6.3705826 4.5982399 0 0 0 0 41.322151
-6.5742216 5.8309507 4.5495806 0 0 0 0 41.327095
-6.6021357 5.2854266 4.5019522 0 0 0 0 41.332039
-6.5696607 6.7232537 4.6096497 0 0 0 0 41.33699
-6.6325455 6.1744313 4.5690284 0 0 0 0 41.341934
-6.6474714 5.6310229 4.5203972 0 0 0 0 41.346886
-6.4236503 4.9061737 4.3186145 0 0 0 0 41.35183
-6.6789742 6.5279646 4.5754299 0 0 0 0 41.356773
-6.7097135 5.9654193 4.529882 0 0 0 0 41.361725
-6.6995792 5.4172406 4.4802828 0 0 0 0 41.366669
-6.4608641 4.705565 4.2854543 0 0 0 0 41.37162
-6.7741642 6.320776 4.5352688 0 0 0 0 41.376564
-6.7919579 5.7653861 4.4976988 0 0 0 0 41.381516
-6.7194958 5.1846786 4.4222627 0 0 0 0 41.386459
-6.5102029 4.5188932 4.2642341 0 0 0 0 41.391403
-6.8610191 6.1129189 4.4952297 0 0 0 0 41.349693
-6.8588119 5.5557303 4.4606652 0 0 0 0 41.354637
-6.5720334 4.8364811 4.2608752 0 0 0 0 41.359581
-6.546267 4.3275657 4.2371092 0 0 0 0 41.364532
-6.9592977 5.915741 4.4650278 0 0 0 0 41.369476
-6.9300389 5.3547974 4.4284916 0 0 0 0 41.374428
-6.6344056 4.6526942 4.2416368 0 0 0 0 41.379372
-6.586627 4.1439762 4.2158804 0 0 0 0 41.384323
-7.0354333 5.7047176 4.4238954 0 0 0 0 41.389267
-6.7364111 4.962635 4.2342224 0 0 0 0 41.394211
-6.6927791 4.4699316 4.2203979 0 0 0 0 41.399162
-6.6058731 3.9495401 4.1847076 0 0 0 0 41.404106
-7.1166453 5.5026822 4.391727 0 0 0 0 41.409058
-6.8007116 4.7717948 4.2090163 0 0 0 0 41.414001
-6.7441249 4.285233 4.1991735 0 0 0 0 41.418945
-6.744823 3.8283155 4.2311897 0 0 0 0 41.423897
-7.0105243 5.1639175 4.248208 0 0 0 0 41.428841
-6.8620214 4.5829754 4.182806 0 0 0 0 41.433792
-6.7673173 4.0857315 4.1630244 0 0 0 0 41.438736
-6.9380388 3.7347264 4.3125396 0 0 0 0 41.443687
-6.9850883 4.897634 4.1593571 0 0 0 0 41.448631
-6.9142847 4.3902383 4.1566191 0 0 0 0 41.453575
-6.8146939 3.9060829 4.1457863 0 0 0 0 41.458527
-6.9522724 3.5413501 4.2863736 0 0 0 0 41.46347
-7.0604033 4.7096825 4.1351414 0 0 0 0 41.468422
-6.9645681 4.2005177 4.1304221 0 0 0 0 41.473366
-7.0902853 3.8508785 4.2669473 0 0 0 0 41.47831
-6.9695644 3.3549571 4.2631793 0 0 0 0 41.483261
-7.131681 4.518774 4.1129441 0 0 0 0 41.488205
-6.9967651 4.0029349 4.0972691 0 0 0 0 41.493156
-7.128581 3.6642983 4.2477474 0 0 0 0 41.4981
-6.9969168 3.1755114 4.2499561 0 0 0 0 41.503044
-7.1768327 4.3160481 4.0768085 0 0 0 0 41.507996
-7.2491508 3.9268308 4.1945281 0 0 0 0 41.512939
-7.163878 3.4787493 4.2295475 0 0 0 0 41.517891
-7.0092402 2.9941721 4.2287488 0 0 0 0 41.522835
-7.2260146 4.1173129 4.0476589 0 0 0 0 41.527786
-7.3567138 3.7677279 4.2081919 0 0 0 0 41.53273
-7.1821079 3.2873263 4.2033815 0 0 0 0 41.537674
-7.0245843 2.8158255 4.2125301 0 0 0 0 41.542625
-7.4561834 4.0192952 4.1200204 0 0 0 0 41.547569
-7.3868785 3.5691795 4.1810536 0 0 0 0 41.552521
-7.1993575 3.0989246 4.1802063 0 0 0 0 41.557465
-7.0429597 2.6414666 4.2002974 0 0 0 0 41.562408
-7.6048694 3.8728585 4.1496196 0 0 0 0 41.56736
-7.4160733 3.3746481 4.1559019 0 0 0 0 41.572304
-7.2316785 2.9184258 4.1679959 0 0 0 0 41.577255
-7.0533171 2.4661748 4.1860738 0 0 0 0 41.582199
-7.6329112 3.6622906 4.1155381 0 0 0 0 41.587151
-7.454318 3.1860631 4.1387248 0 0 0 0 41.592094
-7.2529898 2.738014 4.1517916 0 0 0 0 41.597038
-7.0466361 2.2880111 4.1638708 0 0 0 0 41.60199
-7.6800704 3.4645946 4.0943985 0 0 0 0 41.606934
-7.4825253 2.9945643 4.1195669 0 0 0 0 41.611885
-7.2652731 2.5556746 4.1326017 0 0 0 0 41.616829
-7.048007 2.1158056 4.1496429 0 0 0 0 41.621773
-7.7232118 3.265944 4.0752678 0 0 0 0 41.626724
-7.5077329 2.8040929 4.1004095 0 0 0 0 41.631668
-7.2755485 2.3733625 4.1154156 0 0 0 0 41.63662
-7.047389 1.9456142 4.1344099 0 0 0 0 41.641563
-7.7422838 3.0614705 4.0441737 0 0 0 0 41.646507
-7.5199213 2.6127281 4.0772624 0 0 0 0 41.651459
-7.2818441 2.1940887 4.0982203 0 0 0 0 41.656403
-7.0417628 1.775476 4.1201811 0 0 0 0 41.661354
-7.7412868 2.8511639 4.0071149 0 0 0 0 41.666298
-7.5371218 2.4233365 4.0591097 0 0 0 0 41.671249
-7.2851229 2.0138481 4.0820346 0 0 0 0 41.676193
-7.0542097 1.6132159 4.1179161 0 0 0 0 41.681137
-7.7663999 2.6526787 3.9870002 0 0 0 0 41.686089
-7.5372825 2.2310784 4.0339775 0 0 0 0 41.691032
-7.2884421 1.8386112 4.0668287 0 0 0 0 41.695984
-7.0496178 1.4480857 4.1076713 0 0 0 0 41.700928
-7.565536 2.0486312 4.0277982 0 0 0 0 41.710823
-7.2847428 1.6624382 4.0506334 0 0 0 0 41.715767
-7.0430284 1.2839794 4.0984259 0 0 0 0 41.720718
-0.51384592 0.15152271 0.27112952 0 0 0 0 41.725662
-7.3000875 1.4911419 4.0484147 0 0 0 0 41.735558
-7.0444722 1.123822 4.0951638 0 0 0 0 41.740501
-0.52551186 0.11848156 0.28930601 0 0 0 0 41.750397
-7.302423 1.3199409 4.0392022 0 0 0 0 41.755348
-7.0298777 0.96079481 4.0859218 0 0 0 0 41.760292
-0.52157915 0.12643768 0.27228659 0 0 0 0 41.765236
-7.2897396 1.1478605 4.0240002 0 0 0 0 41.775131
-7.0143156 0.80177784 4.0766659 0 0 0 0 41.780083
-0.5272426 0.093446374 0.28846526 0 0 0 0 41.78997
-7.0007558 0.64375544 4.0704074 0 0 0 0 41.799866
-0.51027888 0.098499119 0.26446235 0 0 0 0 41.804817
-0.49786186 0.056719873 0.28667036 0 0 0 0 41.814713
-6.9871898 0.48574737 4.0671525 0 0 0 0 41.819656
-0.56567985 0.071933255 0.30724195 0 0 0 0 42.395844
-0.49263927 0.070443064 0.25428578 0 0 0 0 42.41069
-0.48623604 0.032635599 0.28048646 0 0 0 0 42.420578
-0.60007888 0.015831167 0.36354482 0 0 0 0 42.425529
-0.52333254 0.042260744 0.2854456 0 0 0 0 42.435425
-0.47233582 0.044592593 0.24346484 0 0 0 0 42.450264
-0.4989768 0.010527153 0.28863883 0 0 0 0 42.460159
-0.58578414 -0.0090662064 0.35671863 0 0 0 0 42.465103
-0.49402621 0.016481515 0.26962766 0 0 0 0 42.474998
-0.47306404 0.021572724 0.24362515 0 0 0 0 42.489838
-0.58371192 -0.013156337 0.33678007 0 0 0 0 42.499733
-0.58047748 -0.035029285 0.35589641 0 0 0 0 42.504677
-0.4667612 -0.0053024343 0.25679043 0 0 0 0 42.514572
-0.47477955 -0.0024529167 0.24479119 0 0 0 0 42.529411
-0.58039337 -0.040136043 0.33696297 0 0 0 0 42.539307
-0.58915931 -0.062097911 0.36407694 0 0 0 0 42.544258
-0.56744057 -0.034136742 0.30995387 0 0 0 0 42.554153
-0.45552364 -0.023301711 0.23594815 0 0 0 0 42.568993
-0.59006292 -0.068216048 0.34514892 0 0 0 0 42.578888
-0.59982848 -0.09017352 0.37526312 0 0 0 0 42.583832
-0.56811982 -0.061144345 0.31313702 0 0 0 0 42.593727
-0.68451864 -0.11884017 0.42740825 0 0 0 0 42.603622
-0.53617632 -0.053983785 0.27712747 0 0 0 0 42.608566
-0.60370839 -0.098329924 0.35534516 0 0 0 0 42.618462
-6.4002056 -1.2616035 3.9046032 0 0 0 0 42.623405
-0.57877558 -0.090235502 0.32132909 0 0 0 0 42.633301
-6.6892877 -1.2512594 3.8214879 0 0 0 0 42.638252
-6.3377242 -1.3930995 3.892318 0 0 0 0 42.643196
-0.48393556 -0.072549015 0.25328416 0 0 0 0 42.64814
-6.6575894 -1.4030033 3.8282974 0 0 0 0 42.658035
-6.3121548 -1.5328755 3.9040673 0 0 0 0 42.662987
-0.52753258 -0.10881154 0.29748651 0 0 0 0 42.672874
-6.6039476 -1.548566 3.8230848 0 0 0 0 42.677826
-6.2247367 -1.6571492 3.880758 0 0 0 0 42.68277
-0.54151595 -0.10903601 0.28450161 0 0 0 0 42.687721
-6.6051173 -1.5248863 3.5829852 0 0 0 0 42.692665
-6.231144 -1.6115501 3.634546 0 0 0 0 42.697617
-6.1951871 -1.7938774 3.892499 0 0 0 0 42.70256
-6.2113028 -1.5886368 3.3944569 0 0 0 0 42.712456
-6.1506753 -1.7398729 3.6162591 0 0 0 0 42.7174
-6.1725898 -1.9346399 3.9122612 0 0 0 0 42.722351
-0.54716623 -0.13807733 0.29169732 0 0 0 0 42.727295
-6.0599794 -1.7023729 3.3381164 0 0 0 0 42.732239
-6.2107649 -1.9103147 3.6821501 0 0 0 0 42.73719
-6.126071 -2.0672083 3.9179916 0 0 0 0 42.742134
-6.1399679 -1.8820003 3.4110498 0 0 0 0 42.752029
-6.2857385 -2.0908613 3.760092 0 0 0 0 42.756973
-6.0685897 -2.1956787 3.9187069 0 0 0 0 42.761925
-0.55478078 -0.17013563 0.29990911 0 0 0 0 42.766869
-6.198947 -2.0614438 3.4749918 0 0 0 0 42.77182
-6.3387241 -2.269223 3.8270328 0 0 0 0 42.776764
-6.0150809 -2.32617 3.9234343 0 0 0 0 42.781715
-0.55360878 -0.18411992 0.30200645 0 0 0 0 42.786659
-6.2777987 -2.2520323 3.5539892 0 0 0 0 42.791603
-6.3099709 -2.4219036 3.849869 0 0 0 0 42.796555
-5.9645667 -2.4566817 3.9301636 0 0 0 0 42.801498
-6.259655 -2.2552073 3.3030379 0 0 0 0 42.80645
-6.3446078 -2.4455101 3.629009 0 0 0 0 42.811394
-6.2413731 -2.5592625 3.8486409 0 0 0 0 42.816338
-5.9011011 -2.5820725 3.9318733 0 0 0 0 42.821289
-6.3064685 -2.4475424 3.363059 0 0 0 0 42.826233
-6.4192877 -2.6500366 3.7120872 0 0 0 0 42.831184
-6.1777582 -2.6976483 3.8524196 0 0 0 0 42.836128
-5.8475866 -2.7115297 3.9416041 0 0 0 0 42.841072
-6.3681302 -2.6529832 3.4351473 0 0 0 0 42.846024
-6.4391422 -2.8370967 3.7670956 0 0 0 0 42.850967
-6.1290503 -2.8441405 3.867239 0 0 0 0 42.855919
-5.7940779 -2.8399847 3.9513323 0 0 0 0 42.860863
-6.4515948 -2.8721762 3.5217183 0 0 0 0 42.61586
-6.3863034 -2.9941869 3.7813697 0 0 0 0 42.620804
-6.055481 -2.976171 3.8673875 0 0 0 0 42.625755
-5.725615 -2.9621613 3.9534254 0 0 0 0 42.630699
-6.5509653 -3.1088815 3.6219368 0 0 0 0 42.635643
-6.3165812 -3.144505 3.7892001 0 0 0 0 42.640594
-5.9859114 -3.1124861 3.8741477 0 0 0 0 42.645538
-5.6691442 -3.0895798 3.9661374 0 0 0 0 42.65049
-6.5875173 -3.3270493 3.693084 0 0 0 0 42.655434
-6.2339277 -3.2877085 3.7910016 0 0 0 0 42.660378
-5.9183245 -3.2498095 3.8829153 0 0 0 0 42.665329
-5.598731 -3.2108829 3.9708247 0 0 0 0 42.670273
-6.5205855 -3.4953609 3.7090116 0 0 0 0 42.675224
-6.1741176 -3.4450674 3.8108716 0 0 0 0 42.680168
-5.847753 -3.3850968 3.8916764 0 0 0 0 42.685112
-5.5313025 -3.3332002 3.978519 0 0 0 0 42.690063
-6.4317551 -3.6534739 3.7158971 0 0 0 0 42.695007
-6.0934296 -3.5902596 3.8176892 0 0 0 0 42.699959
-5.7731867 -3.5193365 3.9004362 0 0 0 0 42.704903
-5.4698362 -3.4585495 3.9922299 0 0 0 0 42.709854
-6.3468952 -3.8136113 3.7257953 0 0 0 0 42.714798
-6.0057578 -3.733366 3.8255012 0 0 0 0 42.719742
-5.7006149 -3.6535795 3.9121988 0 0 0 0 42.724693
-5.3944292 -3.5777774 3.9989164 0 0 0 0 42.729637
-6.2669969 -3.9767635 3.7427111 0 0 0 0 42.734589
-5.9300251 -3.8815691 3.8393393 0 0 0 0 42.739532
-5.6220484 -3.7867577 3.9229603 0 0 0 0 42.744476
-5.3279743 -3.7010651 4.0126238 0 0 0 0 42.749428
-6.1533089 -4.1196299 3.7415361 0 0 0 0 42.754372
-5.8453293 -4.0256748 3.8521621 0 0 0 0 42.759323
-5.5415082 -3.9169152 3.9327102 0 0 0 0 42.764267
-5.258503 -3.8253107 4.0273395 0 0 0 0 42.769218
-5.9185524 -4.1755109 3.6689527 0 0 0 0 42.774162
-5.7596169 -4.1707544 3.8669934 0 0 0 0 42.779106
-5.4639297 -4.050076 3.9474773 0 0 0 0 42.784058
-5.1761451 -3.9384611 4.0320048 0 0 0 0 42.789001
-5.6848707 -4.2243991 3.5953343 0 0 0 0 42.793953
-5.6163678 -4.2723794 3.8446209 0 0 0 0 42.798897
-5.3813677 -4.1811824 3.9612384 0 0 0 0 42.803841
-5.0997286 -4.056632 4.0446968 0 0 0 0 42.808792
-5.4642105 -4.2713866 3.5287039 0 0 0 0 42.813736
-5.3987818 -4.3124266 3.7719545 0 0 0 0 42.818687
-5.3037558 -4.3163142 3.9800217 0 0 0 0 42.823631
-5.0282307 -4.1818185 4.0644264 0 0 0 0 42.828575
-5.2446365 -4.3103766 3.4620335 0 0 0 0 42.833527
-5.1951952 -4.3525848 3.706286 0 0 0 0 42.83847
-5.1666651 -4.4029889 3.9575748 0 0 0 0 42.843422
-4.9408908 -4.2918963 4.0700855 0 0 0 0 42.848366
-5.0330729 -4.3484216 3.4003572 0 0 0 0 42.853317
-4.9857402 -4.3806896 3.6365581 0 0 0 0 42.858261
-4.9612737 -4.4251652 3.8818154 0 0 0 0 42.863205
-4.8584704 -4.4089785 4.0847816 0 0 0 0 42.868156
-4.8374648 -4.3905902 3.3476987 0 0 0 0 42.8731
-4.8070531 -4.4300175 3.588932 0 0 0 0 42.878052
-4.7817168 -4.4625306 3.8241282 0 0 0 0 42.882996
-4.7562647 -4.5059171 4.0833817 0 0 0 0 42.887939
-4.6478667 -4.4317913 3.3000345 0 0 0 0 42.892891
-4.62253 -4.464303 3.5352311 0 0 0 0 42.897835
-4.6071596 -4.4999189 3.7714407 0 0 0 0 42.902786
-4.5986505 -4.548471 4.0347166 0 0 0 0 42.90773
-4.4573779 -4.4629908 3.24932 0 0 0 0 42.912682
-4.4439955 -4.4996271 3.4855347 0 0 0 0 42.917625
-4.4396005 -4.5373631 3.7217529 0 0 0 0 42.922569
-4.421289 -4.5678835 3.9689379 0 0 0 0 42.927521
-4.2728887 -4.4942284 3.2026048 0 0 0 0 42.932465
-4.2704825 -4.53298 3.4398279 0 0 0 0 42.937416
-4.2681746 -4.5627718 3.6690042 0 0 0 0 42.94236
-4.2687392 -4.6044655 3.9232423 0 0 0 0 42.947304
-4.107254 -4.538599 3.1699541 0 0 0 0 42.952255
-4.106935 -4.569406 3.4001353 0 0 0 0 42.957199
-4.1106257 -4.5992737 3.6273105 0 0 0 0 42.962151
-4.113266 -4.6340184 3.8755124 0 0 0 0 42.967094
-3.930841 -4.5628963 3.1262023 0 0 0 0 42.972038
-3.9394758 -4.5977921 3.3584027 0 0 0 0 42.97699
-3.9531538 -4.6287746 3.5845811 0 0 0 0 42.981934
-3.9588478 -4.6585875 3.8257563 0 0 0 0 42.986885
-3.7752154 -4.606329 3.1005459 0 0 0 0 42.991829
-3.7800045 -4.6272459 3.3196745 0 0 0 0 42.99678
-3.7986808 -4.6582928 3.5438521 0 0 0 0 43.001724
-3.8143506 -4.6902156 3.7850356 0 0 0 0 43.006668
-3.6157119 -4.6387315 3.0708339 0 0 0 0 43.01162
-3.6274884 -4.6607299 3.2889662 0 0 0 0 43.016563
-3.6492298 -4.6858401 3.5071118 0 0 0 0 43.021515
-3.669909 -4.7168379 3.7442894 0 0 0 0 43.026459
-3.4582405 -4.6681499 3.0411065 0 0 0 0 43.031403
-3.4760156 -4.6902242 3.2572374 0 0 0 0 43.036354
-3.5067105 -4.7194343 3.4754026 0 0 0 0 43.041298
-3.5265005 -4.7404613 3.7045279 0 0 0 0 43.046249
-3.3116567 -4.7076278 3.0224299 0 0 0 0 43.051193
-3.3305309 -4.7207599 3.2295136 0 0 0 0 43.056137
-3.356359 -4.7379642 3.4376168 0 0 0 0 43.061089
-3.3900461 -4.7681313 3.6697867 0 0 0 0 43.066032
-3.159229 -4.7330699 2.9966819 0 0 0 0 43.070984
-3.1860571 -4.7502842 3.2047849 0 0 0 0 43.075928
-3.2188833 -4.7675877 3.4088867 0 0 0 0 43.080879
-3.2546251 -4.7928023 3.6360297 0 0 0 0 43.085823
-3.0192351 -4.7711005 2.9810896 0 0 0 0 42.835106
-3.050108 -4.7844033 3.1841693 0 0 0 0 42.840057
-3.0849793 -4.797771 3.3832483 0 0 0 0 42.845001
-3.1218116 -4.8150616 3.6013472 0 0 0 0 42.849945
-2.8767476 -4.8026414 2.9633665 0 0 0 0 42.854897
-2.9116304 -4.8149972 3.1644404 0 0 0 0 42.85984
-2.9534895 -4.8294463 3.3625228 0 0 0 0 42.864792
-2.9923642 -4.8427882 3.5746009 0 0 0 0 42.869736
-2.7382486 -4.8351941 2.9506483 0 0 0 0 42.874687
-2.7742071 -4.8406014 3.1436861 0 0 0 0 42.879631
-2.8239875 -4.8621273 3.3438034 0 0 0 0 42.884575
-2.8718276 -4.8785686 3.5558949 0 0 0 0 42.889526
-2.6027372 -4.8687644 2.9399359 0 0 0 0 42.89447
-2.6446834 -4.8752422 3.1319773 0 0 0 0 42.899422
-2.6925948 -4.8848076 3.3200328 0 0 0 0 42.904366
-2.7395217 -4.8932829 3.5230834 0 0 0 0 42.909309
-2.1355009 -4.2445807 2.5398903 0 0 0 0 42.914261
-2.1784317 -4.2522078 2.7049356 0 0 0 0 42.919205
-2.2204158 -4.2548652 2.8619552 0 0 0 0 42.924156
-2.2702491 -4.2714915 3.0420456 0 0 0 0 42.9291
-2.0200918 -4.2703347 2.5341263 0 0 0 0 42.934052
-2.061121 -4.2689857 2.6901252 0 0 0 0 42.938995
-2.1149597 -4.2847447 2.8532097 0 0 0 0 42.943939
-2.165858 -4.2954235 3.025269 0 0 0 0 42.948891
-1.9036815 -4.296072 2.5283632 0 0 0 0 42.953835
-1.9526652 -4.2988062 2.6853812 0 0 0 0 42.958786
-2.0094912 -4.3156142 2.8454707 0 0 0 0 42.96373
-2.0585327 -4.3133278 3.0064623 0 0 0 0 42.968674
-1.7873596 -4.3138204 2.5195591 0 0 0 0 42.973625
-1.8442082 -4.3286223 2.6806381 0 0 0 0 42.978569
-1.8962783 -4.3234582 2.8246133 0 0 0 0 42.983521
-1.9561404 -4.3372517 2.9936864 0 0 0 0 42.988464
-1.6759148 -4.342567 2.520812 0 0 0 0 42.993408
-1.7309407 -4.3414149 2.6688075 0 0 0 0 42.99836
-1.7938085 -4.354331 2.8208747 0 0 0 0 43.003304
-1.8557248 -4.363184 2.9829211 0 0 0 0 43.008255
-1.5635474 -4.3643131 2.5190289 0 0 0 0 43.013199
-1.6264601 -4.3732343 2.6700754 0 0 0 0 43.01815
-1.6874496 -4.3751812 2.8120856 0 0 0 0 43.023094
-1.7514204 -4.3790927 2.9671052 0 0 0 0 43.028038
-1.4550778 -4.3950725 2.5222933 0 0 0 0 43.03299
-1.5171019 -4.3940196 2.6662872 0 0 0 0 43.037933
-1.5821124 -4.3940377 2.8032858 0 0 0 0 43.042885
-1.6520032 -4.4050112 2.959341 0 0 0 0 43.047829
-1.3446864 -4.4188099 2.5245221 0 0 0 0 43.052773
-1.4107205 -4.4168229 2.6645098 0 0 0 0 43.057724
-1.4806627 -4.4228864 2.8035388 0 0 0 0 43.062668
-1.5525967 -4.4299197 2.9525723 0 0 0 0 43.067619
-1.2362045 -4.4505272 2.5337932 0 0 0 0 43.072563
-1.3053045 -4.4426165 2.6657484 0 0 0 0 43.077507
-1.3763242 -4.4417338 2.7967403 0 0 0 0 43.082458
-1.4454935 -4.4278193 2.9296634 0 0 0 0 43.087402
-1.1267664 -4.4782386 2.5410442 0 0 0 0 43.092354
-1.19699 -4.4593825 2.6649408 0 0 0 0 43.097298
-1.2748839 -4.4695687 2.7979894 0 0 0 0 43.102249
-1.3547924 -4.4787192 2.9420319 0 0 0 0 43.107193
-1.1754651 -5.2007194 2.9419477 0 0 0 0 43.112137
-1.2665536 -5.1939754 3.0899041 0 0 0 0 43.117088
-1.1744316 -4.4983931 2.8022442 0 0 0 0 43.122032
-1.2563946 -4.5026097 2.9382598 0 0 0 0 43.126984
-1.0490106 -5.2282081 2.9522119 0 0 0 0 43.131927
-1.1459845 -5.2315216 3.1022196 0 0 0 0 43.136871
-1.2400801 -5.2238874 3.2361701 0 0 0 0 43.141823
-1.3332816 -5.2072105 3.3760722 0 0 0 0 43.146767
-0.92447609 -5.2626815 2.9685135 0 0 0 0 43.151718
-1.0235388 -5.2580719 3.1084785 0 0 0 0 43.156662
-1.1216784 -5.2465162 3.2364063 0 0 0 0 43.161613
-1.2217307 -5.2429032 3.3793762 0 0 0 0 43.166557
-0.79699761 -5.2921195 2.9837904 0 0 0 0 43.171501
-0.9020586 -5.287601 3.1197536 0 0 0 0 43.176453
-1.0060829 -5.286109 3.2487335 0 0 0 0 43.181396
-1.1083039 -5.2675953 3.3776226 0 0 0 0 43.186348
-0.67140418 -5.3315363 3.0061212 0 0 0 0 43.191292
-0.78052056 -5.3221021 3.1350567 0 0 0 0 43.196236
-0.88763434 -5.3126941 3.2549927 0 0 0 0 43.201187
-0.99286556 -5.2932425 3.3788755 0 0 0 0 43.206131
-0.54480928 -5.3709292 3.0294533 0 0 0 0 43.211082
-0.6589812 -5.3565922 3.1513605 0 0 0 0 43.216026
-0.76724237 -5.3342557 3.2602265 0 0 0 0 43.22097
-0.88130033 -5.3298922 3.3871872 0 0 0 0 43.225922
-0.41625962 -5.4062881 3.0537653 0 0 0 0 43.230865
-0.53362453 -5.3750629 3.1615803 0 0 0 0 43.235817
-0.64967769 -5.3707972 3.2745409 0 0 0 0 43.240761
-0.7658602 -5.3555121 3.3914421 0 0 0 0 43.245712
-0.28683475 -5.4306564 3.0730195 0 0 0 0 43.250656
-0.41099197 -5.4174852 3.1859293 0 0 0 0 43.2556
-0.52920413 -5.3993096 3.286814 0 0 0 0 43.260551
-0.64944172 -5.3791261 3.3936868 0 0 0 0 43.265495
-0.15629515 -5.4649572 3.1013284 0 0 0 0 43.270447
-0.28556538 -5.441905 3.2031829 0 0 0 0 43.275391
-0.40970686 -5.429811 3.3020983 0 0 0 0 43.280334
-0.53490841 -5.4127035 3.4059861 0 0 0 0 43.285286
-0.02474279 -5.5002341 3.1306441 0 0 0 0 43.29023
-0.15903448 -5.4752746 3.2264864 0 0 0 0 43.295181
-0.28918543 -5.4622846 3.3193948 0 0 0 0 43.300125
-0.41841957 -5.4422674 3.4152651 0 0 0 0 43.305077
0.10609733 -5.5329509 3.1599646 0 0 0 0 43.072861
-0.03415072 -5.5110564 3.2518258 0 0 0 0 43.077805
-0.16739666 -5.489131 3.3346887 0 0 0 0 43.082748
-0.30167842 -5.4641967 3.4215353 0 0 0 0 43.0877
0.24173176 -5.5761609 3.1983197 0 0 0 0 43.092644
0.093361706 -5.5434241 3.2781203 0 0 0 0 43.097595
-0.04496108 -5.514616 3.3499446 0 0 0 0 43.102539
-0.18311755 -5.5007181 3.4388483 0 0 0 0 43.107491
0.3782658 -5.6103683 3.2336283 0 0 0 0 43.112434
0.22387469 -5.5757399 3.3064165 0 0 0 0 43.117378
0.079632521 -5.5540071 3.3772762 0 0 0 0 43.12233
-0.063600801 -5.533227 3.4551413 0 0 0 0 43.127274
0.51677758 -5.6425352 3.2709279 0 0 0 0 43.132225
0.3564108 -5.6100039 3.3387246 0 0 0 0 43.137169
0.20511431 -5.5834079 3.3995559 0 0 0 0 43.142113
0.057860099 -5.5607128 3.4704089 0 0 0 0 43.147064
0.65844899 -5.6886115 3.3173039 0 0 0 0 43.152008
0.49002776 -5.6512284 3.3750715 0 0 0 0 43.15696
0.334676 -5.6197233 3.4278748 0 0 0 0 43.161903
0.17834502 -5.590199 3.4866881 0 0 0 0 43.166847
0.80199701 -5.7236843 3.3586226 0 0 0 0 43.171799
0.62553191 -5.6824393 3.4083667 0 0 0 0 43.176743
0.46326187 -5.6580329 3.4582052 0 0 0 0 43.181694
0.30286416 -5.6226058 3.5079851 0 0 0 0 43.186638
0.94865876 -5.7686605 3.409997 0 0 0 0 43.191589
0.76418442 -5.7265539 3.4517331 0 0 0 0 43.196533
0.59574586 -5.6873064 3.4854896 0 0 0 0 43.201477
0.42833868 -5.6510005 3.5282619 0 0 0 0 43.206429
1.1014239 -5.8225155 3.4694223 0 0 0 0 43.211372
0.90578115 -5.7656317 3.4940746 0 0 0 0 43.216324
0.72821903 -5.7155623 3.5147691 0 0 0 0 43.221268
0.55690521 -5.6873212 3.5545831 0 0 0 0 43.226212
1.2529395 -5.854435 3.5177302 0 0 0 0 43.231163
1.0493329 -5.8006797 3.5363963 0 0 0 0 43.236107
0.86693269 -5.7646646 3.5581646 0 0 0 0 43.241058
0.68746126 -5.7226062 3.5819006 0 0 0 0 43.246002
1.410638 -5.902205 3.5791273 0 0 0 0 43.250946
1.196908 -5.8376513 3.5827308 0 0 0 0 43.255898
1.0075444 -5.8047528 3.5985129 0 0 0 0 43.260841
0.81999516 -5.755856 3.6102087 0 0 0 0 43.265793
1.5733721 -5.9528856 3.6445429 0 0 0 0 43.270737
1.3485985 -5.8845239 3.6371212 0 0 0 0 43.275688
1.1480196 -5.8328619 3.6337974 0 0 0 0 43.280632
0.95559847 -5.795032 3.6445513 0 0 0 0 43.285576
1.7400497 -5.9985113 3.709934 0 0 0 0 43.290527
1.5032787 -5.9303484 3.6925087 0 0 0 0 43.295471
1.2957826 -5.8857927 3.6852205 0 0 0 0 43.300423
1.0942147 -5.8351593 3.6799006 0 0 0 0 43.305367
1.9076933 -6.0411053 3.7773106 0 0 0 0 43.31031
1.6619827 -5.9780903 3.7529089 0 0 0 0 43.315262
1.4454086 -5.9267154 3.7325799 0 0 0 0 43.320206
1.2347394 -5.8672676 3.7132087 0 0 0 0 43.325157
2.0896485 -6.1104207 3.8638384 0 0 0 0 43.330101
1.8277332 -6.0297079 3.8193343 0 0 0 0 43.335052
1.5980123 -5.965589 3.7809308 0 0 0 0 43.339996
1.3803915 -5.9102602 3.7555788 0 0 0 0 43.34494
2.272455 -6.1667361 3.9462976 0 0 0 0 43.349892
1.9954391 -6.0772991 3.8847396 0 0 0 0 43.354836
1.7567089 -6.0123396 3.8373277 0 0 0 0 43.359787
1.5290335 -5.9522099 3.7979453 0 0 0 0 43.364731
2.4437079 -6.1753178 4.0024939 0 0 0 0 43.369675
2.1743069 -6.138679 3.9632258 0 0 0 0 43.374626
1.9183952 -6.0580411 3.8947213 0 0 0 0 43.37957
1.6795715 -5.9851341 3.8392644 0 0 0 0 43.384521
2.5315905 -5.9805679 3.9285491 0 0 0 0 43.389465
2.3561647 -6.1990027 4.0437088 0 0 0 0 43.394409
2.0902328 -6.1165543 3.9631901 0 0 0 0 43.399361
1.8393656 -6.039866 3.8947072 0 0 0 0 43.404305
2.6022098 -5.7640958 3.8404756 0 0 0 0 43.409256
2.4770882 -6.0935984 4.0192633 0 0 0 0 43.4142
2.2629554 -6.1650634 4.0286059 0 0 0 0 43.419151
2.0041142 -6.0905242 3.9511311 0 0 0 0 43.424095
2.6689947 -5.5626354 3.7584786 0 0 0 0 43.429039
2.5507765 -5.8831167 3.9262221 0 0 0 0 43.43399
2.4231796 -6.1708465 4.0687833 0 0 0 0 43.438934
2.166748 -6.1312256 4.002501 0 0 0 0 43.443886
2.7369444 -5.3760886 3.6895604 0 0 0 0 43.44883
2.6175022 -5.6767058 3.8351963 0 0 0 0 43.453773
2.5102384 -5.992136 3.98892 0 0 0 0 43.458725
2.3466961 -6.1985931 4.0760245 0 0 0 0 43.463669
2.7978983 -5.190629 3.619642 0 0 0 0 43.46862
2.6823823 -5.4842668 3.7532434 0 0 0 0 43.473564
2.5769396 -5.7837682 3.8898818 0 0 0 0 43.478508
2.4708614 -6.1141477 4.0506926 0 0 0 0 43.483459
2.8641002 -5.0270238 3.5648425 0 0 0 0 43.488403
2.7392192 -5.2889323 3.6692677 0 0 0 0 43.493355
2.6468883 -5.5972795 3.8059621 0 0 0 0 43.498299
2.5416083 -5.9097538 3.9476764 0 0 0 0 43.50325
2.9182024 -4.8555989 3.5029922 0 0 0 0 43.508194
2.8115609 -5.1372433 3.6165349 0 0 0 0 43.513138
2.7118523 -5.4128375 3.7240479 0 0 0 0 43.518089
2.6094279 -5.7123609 3.8506942 0 0 0 0 43.523033
2.9764836 -4.700058 3.453228 0 0 0 0 43.527985
2.8676748 -4.9668331 3.5476897 0 0 0 0 43.532928
2.7729259 -5.2384081 3.6481843 0 0 0 0 43.537872
2.6774502 -5.5329046 3.7648075 0 0 0 0 43.542824
3.0309606 -4.5367141 3.4027905 0 0 0 0 44.437317
2.9355366 -4.8113847 3.4984272 0 0 0 0 44.442261
2.8440008 -5.0770464 3.5870125 0 0 0 0 44.447212
2.7486074 -5.353694 3.6866639 0 0 0 0 44.452156
3.0841947 -4.39116 3.3590083 0 0 0 0 44.457108
2.9845746 -4.6499939 3.4365499 0 0 0 0 44.462051
2.9000194 -4.9136019 3.5191276 0 0 0 0 44.466995
2.8095567 -5.1842456 3.608747 0 0 0 0 44.471947
3.1364989 -4.2515926 3.3192592 0 0 0 0 44.476891
3.0347464 -4.4995456 3.3817358 0 0 0 0 44.481842
2.9592099 -4.7640543 3.4613249 0 0 0 0 44.486786
2.8747292 -5.0326691 3.5429366 0 0 0 0 44.49173
3.1766961 -4.1042295 3.2714548 0 0 0 0 44.496681
3.0870256 -4.3580208 3.3349741 0 0 0 0 44.501625
3.013433 -4.6175647 3.404536 0 0 0 0 44.506577
2.9257021 -4.8663316 3.4680281 0 0 0 0 44.51152
3.2251036 -3.9736748 3.2377529 0 0 0 0 44.516464
3.1394274 -4.2264566 3.2942698 0 0 0 0 44.521416
3.063623 -4.4691272 3.3477304 0 0 0 0 44.52636
2.9839504 -4.721807 3.4082518 0 0 0 0 44.531311
3.2715437 -3.8461318 3.2060661 0 0 0 0 44.536255
3.1796699 -4.0831051 3.2444863 0 0 0 0 44.541206
3.120038 -4.3385339 3.3030334 0 0 0 0 44.54615
3.0381792 -4.576334 3.348465 0 0 0 0 44.551094
3.4408443 -3.8622522 3.2943029 0 0 0 0 44.556046
3.2281244 -3.9565723 3.2068057 0 0 0 0 44.560989
3.1632805 -4.1951666 3.2492502 0 0 0 0 44.565941
3.0884404 -4.4339004 3.2906926 0 0 0 0 44.570885
3.6739213 -3.9381588 3.4429317 0 0 0 0 44.575829
3.2735989 -3.8320651 3.1711338 0 0 0 0 44.58078
3.2025688 -4.0558453 3.1964872 0 0 0 0 44.585724
3.139786 -4.2984271 3.2369599 0 0 0 0 44.590675
3.915947 -4.0099206 3.5935407 0 0 0 0 44.595619
3.4551075 -3.8639657 3.267473 0 0 0 0 44.600563
3.2490177 -3.9293556 3.1558032 0 0 0 0 44.605515
3.1871381 -4.1639934 3.1852295 0 0 0 0 44.610458
4.201354 -4.110868 3.7813492 0 0 0 0 44.61541
3.6811147 -3.9340355 3.402065 0 0 0 0 44.620354
3.3026414 -3.816709 3.1252041 0 0 0 0 44.625305
3.2325094 -4.0315657 3.1365077 0 0 0 0 44.630249
4.4602222 -4.1703258 3.9398947 0 0 0 0 44.635193
3.9312751 -4.0156612 3.5547407 0 0 0 0 44.640144
3.5023851 -3.8663013 3.23066 0 0 0 0 44.645088
3.2738883 -3.9001906 3.0877883 0 0 0 0 44.65004
4.7897139 -4.277463 4.1587653 0 0 0 0 44.654984
4.2025242 -4.1039062 3.721468 0 0 0 0 44.659927
3.7324502 -3.94032 3.3622806 0 0 0 0 44.664879
3.3407009 -3.8023121 3.066283 0 0 0 0 44.669823
5.1644998 -4.4067817 4.4097943 0 0 0 0 44.674774
4.4958363 -4.1967483 3.9032357 0 0 0 0 44.679718
3.9714367 -4.0081935 3.4958694 0 0 0 0 44.684669
3.5556688 -3.8686457 3.1788502 0 0 0 0 44.689613
5.5783958 -4.544383 4.6888943 0 0 0 0 44.694557
4.8030939 -4.2853436 4.0919857 0 0 0 0 44.699509
4.2497311 -4.0993438 3.6596203 0 0 0 0 44.704453
3.7866883 -3.9386973 3.3004489 0 0 0 0 44.709404
6.0283914 -4.6893291 4.9920592 0 0 0 0 44.714348
5.1465564 -4.3892827 4.3058486 0 0 0 0 44.719292
4.5541539 -4.2000241 3.8404438 0 0 0 0 44.724243
4.0489392 -4.0261765 3.4451709 0 0 0 0 44.729187
6.5669336 -4.8756499 5.3625221 0 0 0 0 44.734138
5.5645428 -4.5328588 4.5759916 0 0 0 0 44.739082
4.8694839 -4.2935152 4.0252304 0 0 0 0 44.744026
4.3190722 -4.104527 3.590842 0 0 0 0 44.748978
7.1747384 -5.0817065 5.7821426 0 0 0 0 44.753922
6.011538 -4.6769085 4.8641534 0 0 0 0 44.758873
5.204772 -4.383657 4.2200079 0 0 0 0 44.763817
4.6264768 -4.2032018 3.7626576 0 0 0 0 44.768768
7.5258002 -5.0794654 5.9903655 0 0 0 0 44.773712
6.5066972 -4.833086 5.1844163 0 0 0 0 44.778656
5.6197047 -4.5223441 4.474123 0 0 0 0 44.783607
4.9366579 -4.2848449 3.9303715 0 0 0 0 44.788551
7.6911082 -4.9446096 6.0506854 0 0 0 0 44.793503
7.1750998 -5.0831103 5.6333418 0 0 0 0 44.798447
6.0737247 -4.6673312 4.7522988 0 0 0 0 44.803391
5.2961745 -4.3916006 4.1312652 0 0 0 0 44.808342
7.793828 -4.7658787 6.0637031 0 0 0 0 44.813286
7.5736194 -5.1150661 5.864799 0 0 0 0 44.818237
6.573842 -4.8194947 5.0585432 0 0 0 0 44.823181
5.7261686 -4.534081 4.3814154 0 0 0 0 44.828125
7.865334 -4.571682 6.0576067 0 0 0 0 44.833076
7.7076273 -4.9578338 5.8909631 0 0 0 0 44.83802
7.2563152 -5.0733638 5.4945064 0 0 0 0 44.842972
6.2113667 -4.6915903 4.6636872 0 0 0 0 44.847916
7.8022914 -4.775301 5.8889494 0 0 0 0 44.857811
7.6295547 -5.0838528 5.6908202 0 0 0 0 44.862755
6.7436919 -4.8582635 4.9730415 0 0 0 0 44.867706
7.8758044 -4.5821252 5.874856 0 0 0 0 44.877602
7.7624898 -4.9216776 5.7089486 0 0 0 0 44.882545
7.4169207 -5.092402 5.3778849 0 0 0 0 44.887489
7.8601451 -4.739131 5.701932 0 0 0 0 44.902336
7.7193937 -5.0452423 5.5068073 0 0 0 0 44.90728
7.9359794 -4.5505757 5.6836667 0 0 0 0 44.630836
7.8444304 -4.8798261 5.510663 0 0 0 0 44.63578
8.705492 -3.8455842 6.4287181 0 0 0 0 44.640732
7.9299994 -4.6865535 5.4895964 0 0 0 0 44.655571
8.7307339 -3.6300952 6.4054804 0 0 0 0 44.660515
8.0749893 -4.5262237 5.511754 0 0 0 0 44.675354
8.7028008 -3.8455324 6.1808801 0 0 0 0 44.685249
8.7621679 -3.6404912 6.1737161 0 0 0 0 44.70504
8.765336 -3.7875531 5.9427123 0 0 0 0 44.729774
8.8357182 -3.5843558 5.9365592 0 0 0 0 44.749565
8.8445234 -3.7034702 5.6853867 0 0 0 0 44.7743
9.0081644 -3.0607369 5.6286716 0 0 0 0 44.833664
9.0643854 -2.8487442 5.6184397 0 0 0 0 44.853447
9.118597 -2.6367702 5.6092019 0 0 0 0 44.873238
9.2089338 -2.435147 5.6250415 0 0 0 0 44.893028
9.3182669 -2.2341666 5.655889 0 0 0 0 44.912811
9.3633938 -2.018281 5.6506109 0 0 0 0 44.932602
9.4445915 -1.8087432 5.6703844 0 0 0 0 44.952393
8.8639851 -0.61084455 6.2456188 0 0 0 0 44.957336
8.8924332 -0.42300135 6.2704887 0 0 0 0 44.977127
8.8768339 -0.23193687 6.2673144 0 0 0 0 44.99691
8.9294739 -0.5612632 5.9384208 0 0 0 0 45.001862
9.1704855 -0.84703481 5.7623382 0 0 0 0 45.006805
8.8582668 -0.043907635 6.2651544 0 0 0 0 45.016701
8.972827 -0.36719525 5.9662528 0 0 0 0 45.021645
9.0135355 -0.62856328 5.6559286 0 0 0 0 45.026596
9.2833557 -0.89986348 5.4907718 0 0 0 0 45.03154
8.9206724 0.14459631 6.3200235 0 0 0 0 45.036491
9.0291357 -0.17086351 6.0070724 0 0 0 0 45.041435
9.0177631 -0.42522311 5.6536827 0 0 0 0 45.046379
9.1272497 -0.67037302 5.3862901 0 0 0 0 45.051331
8.9700594 0.33389321 6.3698778 0 0 0 0 45.056274
8.98843 0.026740452 5.9858365 0 0 0 0 45.061226
9.0810003 -0.22381444 5.6914711 0 0 0 0 45.06617
9.0713158 -0.45510998 5.3449392 0 0 0 0 45.071121
9.0143814 0.52713048 6.4207015 0 0 0 0 45.076065
9.0276966 0.224803 6.0206294 0 0 0 0 45.081009
9.0671721 -0.017759232 5.6831913 0 0 0 0 45.08596
9.1294279 -0.24482851 5.3736668 0 0 0 0 45.090904
9.0378342 0.71624899 6.4571714 0 0 0 0 44.833733
9.0809689 0.4204303 6.0660329 0 0 0 0 44.838676
9.0913153 0.18233921 5.7015219 0 0 0 0 44.843628
9.1503963 -0.036811937 5.381916 0 0 0 0 44.848572
9.0601778 0.91110432 6.4969935 0 0 0 0 44.853523
9.1192369 0.62149888 6.1058254 0 0 0 0 44.858467
9.0845251 0.38856921 5.7052646 0 0 0 0 44.863419
9.1705379 0.17483155 5.3936381 0 0 0 0 44.868362
9.2072725 1.1222179 6.6267648 0 0 0 0 44.873306
9.216362 0.83163869 6.1885829 0 0 0 0 44.878258
9.1896305 0.60076922 5.7810144 0 0 0 0 44.883202
9.2185898 0.39198738 5.4263334 0 0 0 0 44.888153
9.2185593 1.3199123 6.6635561 0 0 0 0 44.893097
9.2744913 1.0410979 6.2463236 0 0 0 0 44.898041
9.2676945 0.8155207 5.842732 0 0 0 0 44.902992
9.2596188 0.61003816 5.457016 0 0 0 0 44.907936
9.2687111 1.5263386 6.732306 0 0 0 0 44.912888
9.3036222 1.2500659 6.2880502 0 0 0 0 44.917831
9.3516483 1.0374018 5.9114037 0 0 0 0 44.922775
9.3575354 0.83509374 5.5236754 0 0 0 0 44.927727
9.3297272 1.4600078 6.3317652 0 0 0 0 44.937622
9.3577003 1.2519356 5.9340825 0 0 0 0 44.942566
9.4323921 1.0637842 5.5812969 0 0 0 0 44.947517
9.4495173 1.4820156 6.0156975 0 0 0 0 44.962357
9.4372883 1.2892894 5.601903 0 0 0 0 44.9673
9.9989309 2.2973847 7.3818326 0 0 0 0 44.972252
9.5120115 1.5260305 5.6664648 0 0 0 0 44.987091
10.131375 2.2720454 6.9790573 0 0 0 0 44.996986
10.328661 1.9068089 6.1794415 0 0 0 0 45.006874
10.220786 2.3212762 6.6007929 0 0 0 0 45.021721
10.364079 2.1639547 6.229847 0 0 0 0 45.026665
10.4034 2.427196 6.2862096 0 0 0 0 45.046455
10.427669 2.6932199 6.3405433 0 0 0 0 45.066238
10.464835 2.9654953 6.4058371 0 0 0 0 45.086029
10.529798 3.2513063 6.4940515 0 0 0 0 45.10582
9.7853041 4.5257368 7.8355937 0 0 0 0 45.170128
9.8045902 4.7829704 7.9319415 0 0 0 0 45.189919
9.8803587 5.0753589 8.0840855 0 0 0 0 45.209702
9.8994474 5.3446574 8.1893454 0 0 0 0 45.229492
11.049484 5.6398754 7.8679419 0 0 0 0 45.239388
9.9114513 5.6188917 8.2995653 0 0 0 0 45.249283
10.002702 5.9446921 8.4784832 0 0 0 0 45.269066
10.046196 6.2526202 8.6254883 0 0 0 0 45.288857
10.01584 6.5204782 8.7150612 0 0 0 0 45.090111
10.687198 6.6671829 7.4843721 0 0 0 0 45.10495
9.922471 6.7517896 8.7535143 0 0 0 0 45.109894
10.25519 6.8531513 8.3869982 0 0 0 0 45.114845
10.475192 6.9338179 7.9995632 0 0 0 0 45.119789
10.578087 6.9513326 7.530479 0 0 0 0 45.124741
9.7280531 6.9151478 8.7073498 0 0 0 0 45.129684
10.28519 7.1989312 8.5417709 0 0 0 0 45.134628
10.448436 7.2625222 8.1094179 0 0 0 0 45.13958
10.595685 7.3258586 7.6720591 0 0 0 0 45.144524
9.5395832 7.0816293 8.6691656 0 0 0 0 45.149475
10.371408 7.5988464 8.7502155 0 0 0 0 45.154419
10.487867 7.6475306 8.277935 0 0 0 0 45.159363
10.622951 7.7226467 7.8324943 0 0 0 0 45.164314
9.3946924 7.2769732 8.6718111 0 0 0 0 45.169258
10.372282 7.9511948 8.8989182 0 0 0 0 45.17421
10.565673 8.075345 8.4871883 0 0 0 0 45.179153
10.704462 8.1714888 8.037612 0 0 0 0 45.184097
9.4030266 7.5964069 8.8217278 0 0 0 0 45.189049
10.194035 8.1700802 8.8993874 0 0 0 0 45.193993
10.616493 8.5007334 8.6874352 0 0 0 0 45.198944
10.745058 8.61269 8.230751 0 0 0 0 45.203888
9.1631804 7.7168775 8.7418013 0 0 0 0 45.208839
9.9475918 8.3316288 8.8421888 0 0 0 0 45.213783
10.707512 8.9810038 8.9353399 0 0 0 0 45.218727
10.869389 9.141572 8.5003557 0 0 0 0 45.223679
8.8838663 7.7995486 8.6260967 0 0 0 0 45.228622
9.6952972 8.4820604 8.7820549 0 0 0 0 45.233574
10.7133 9.4057007 9.1235542 0 0 0 0 45.238518
11.029829 9.7312784 8.8165751 0 0 0 0 45.243462
8.6184702 7.8874898 8.5243626 0 0 0 0 45.248413
9.4331408 8.622303 8.7159796 0 0 0 0 45.253357
10.416728 9.5735273 9.0632753 0 0 0 0 45.258308
11.044733 10.216284 9.0303907 0 0 0 0 45.263252
8.372963 7.9828057 8.4395866 0 0 0 0 45.268196
9.1710739 8.7555389 8.6509447 0 0 0 0 45.273148
10.086756 9.6986656 8.9722528 0 0 0 0 45.278091
11.109541 10.776397 9.3047342 0 0 0 0 45.283043
8.1373892 8.0823193 8.3657856 0 0 0 0 45.287987
8.890377 8.86238 8.5680695 0 0 0 0 45.292938
10.033865 10.097364 9.1355867 0 0 0 0 45.297882
10.746181 10.926167 9.2275248 0 0 0 0 45.302826
7.9186182 8.1951761 8.3099051 0 0 0 0 45.307777
8.6196861 8.9683867 8.4912004 0 0 0 0 45.312721
9.8379841 10.354215 9.1727638 0 0 0 0 45.317673
10.351423 11.03329 9.1225719 0 0 0 0 45.322617
7.7078238 8.3091784 8.2610168 0 0 0 0 45.32756
8.3421049 9.0662746 8.4133787 0 0 0 0 45.332512
9.5071077 10.470367 9.0917854 0 0 0 0 45.337456
10.379074 11.599911 9.4018297 0 0 0 0 45.342407
7.5088329 8.4364424 8.2280455 0 0 0 0 45.347351
8.0774698 9.1674032 8.3465385 0 0 0 0 45.352303
9.1723957 10.574434 9.0088816 0 0 0 0 45.357246
9.9627399 11.675627 9.2860613 0 0 0 0 45.36219
7.2941113 8.5443878 8.182189 0 0 0 0 45.367142
7.8148279 9.2685785 8.2846966 0 0 0 0 45.372086
8.8368216 10.66847 8.9260387 0 0 0 0 45.377037
9.5583391 11.755584 9.184267 0 0 0 0 45.381981
7.0686908 8.6310701 8.1214628 0 0 0 0 45.386925
7.5326324 9.3383169 8.2010489 0 0 0 0 45.391876
8.5102825 10.759643 8.8472166 0 0 0 0 45.39682
9.1541481 11.820507 9.0805693 0 0 0 0 45.401772
6.8590293 8.7340908 8.0796366 0 0 0 0 45.406715
7.2839603 9.4407549 8.1531992 0 0 0 0 45.411659
8.1720572 10.828573 8.759531 0 0 0 0 45.416611
8.7688608 11.891764 8.9898367 0 0 0 0 45.421555
6.6395512 8.8239136 8.0308886 0 0 0 0 45.426506
6.9990883 9.4873781 8.0626965 0 0 0 0 45.43145
7.8301044 10.87837 8.6629667 0 0 0 0 45.436401
8.3651524 11.922597 8.8783569 0 0 0 0 45.441345
6.4123187 8.8965216 7.9682465 0 0 0 0 45.446289
6.7446971 9.5696545 8.0069723 0 0 0 0 45.451241
7.5020413 10.935441 8.5803595 0 0 0 0 45.456184
7.9695377 11.946558 8.771925 0 0 0 0 45.461136
6.1881084 8.9672012 7.9116173 0 0 0 0 45.46608
6.4815488 9.6347446 7.9443545 0 0 0 0 45.471024
7.1858835 10.998737 8.5087156 0 0 0 0 45.475975
7.5711536 11.95443 8.6615963 0 0 0 0 45.480919
5.974731 9.0491095 7.8679171 0 0 0 0 45.48587
6.6136065 10.304811 8.3779507 0 0 0 0 45.490814
6.8404851 11.009384 8.4054012 0 0 0 0 45.495758
7.1945143 11.979733 8.5721626 0 0 0 0 45.50071
5.7456875 9.1076746 7.8083606 0 0 0 0 45.505653
5.3324537 8.7194147 6.9966931 0 0 0 0 45.510605
5.1407371 8.7058964 6.5686688 0 0 0 0 45.515549
6.8669696 12.06708 8.5363407 0 0 0 0 45.5205
5.5245795 9.1704025 7.7577796 0 0 0 0 45.525444
5.8411274 10.03236 7.9482284 0 0 0 0 45.530388
5.9759722 10.667437 7.9490809 0 0 0 0 45.535339
6.1957951 11.510445 8.0536003 0 0 0 0 45.540283
5.2967186 9.2159414 7.6953063 0 0 0 0 45.545235
5.568471 10.06219 7.8748283 0 0 0 0 45.550179
5.6773448 10.69392 7.8796849 0 0 0 0 45.555122
5.8436642 11.501049 7.9674067 0 0 0 0 45.560074
5.0583243 9.267561 7.629467 0 0 0 0 46.555733
5.1961031 9.9211044 7.6648569 0 0 0 0 46.560677
5.3656206 10.716896 7.8022466 0 0 0 0 46.565628
4.8393559 9.3160009 7.5789371 0 0 0 0 46.575523
4.9268436 9.9235229 7.5816216 0 0 0 0 46.580467
4.2477841 8.9859734 6.4819226 0 0 0 0 46.585411
4.6106725 9.3461971 7.5175309 0 0 0 0 46.595306
4.2021899 8.9424028 6.7631698 0 0 0 0 46.600258
4.7740269 10.723068 7.6597223 0 0 0 0 46.605202
4.7895646 11.388582 7.67694 0 0 0 0 46.610153
4.3928084 9.3876457 7.469049 0 0 0 0 46.615097
4.4225397 9.9772711 7.4728184 0 0 0 0 46.620041
4.4587679 10.660562 7.5529184 0 0 0 0 46.624992
3.5949202 9.1446075 6.1242819 0 0 0 0 46.629936
4.1662788 9.4078512 7.4077129 0 0 0 0 46.634888
4.1730595 9.9931459 7.4154954 0 0 0 0 46.639832
4.1630754 10.625505 7.4679284 0 0 0 0 46.644775
4.1220579 11.26015 7.4883246 0 0 0 0 46.649727
3.9388909 9.4190083 7.343441 0 0 0 0 46.654671
3.9218173 9.9939346 7.3522787 0 0 0 0 46.659622
3.8935902 10.640153 7.4245958 0 0 0 0 46.664566
3.9497783 11.637164 7.6934352 0 0 0 0 46.669518
3.7184198 9.4353142 7.2861347 0 0 0 0 46.674461
3.6687021 9.9866657 7.2871184 0 0 0 0 46.679405
3.7608926 11.043957 7.6535392 0 0 0 0 46.684357
2.9358089 9.361001 6.1591687 0 0 0 0 46.689301
3.4980276 9.4466019 7.2278633 0 0 0 0 46.694252
3.5553761 10.367706 7.5082388 0 0 0 0 46.699196
2.9440715 9.3271608 6.4263716 0 0 0 0 46.70414
3.3037326 11.479062 7.5170398 0 0 0 0 46.709091
3.4077501 9.8250217 7.4520178 0 0 0 0 46.714035
3.2956383 10.336217 7.4302449 0 0 0 0 46.718987
3.1430945 10.810749 7.4057121 0 0 0 0 46.72393
2.9813969 11.357336 7.4076519 0 0 0 0 46.728874
3.1757014 9.8140335 7.3838959 0 0 0 0 46.733826
3.0437517 10.313939 7.3661885 0 0 0 0 46.73877
2.5252349 9.4761124 6.4609294 0 0 0 0 46.743721
2.2690852 9.5503044 6.2112293 0 0 0 0 46.748665
2.9476509 9.8031254 7.3197761 0 0 0 0 46.753616
2.7891557 10.27354 7.293262 0 0 0 0 46.75856
2.5950987 10.71543 7.272934 0 0 0 0 46.763504
2.7273071 9.8104382 7.2705274 0 0 0 0 46.773399
2.5404935 10.237278 7.2283092 0 0 0 0 46.778351
2.326843 10.652814 7.2031565 0 0 0 0 46.783295
2.5024488 9.7875338 7.2034955 0 0 0 0 46.79319
2.2912059 10.177882 7.1485238 0 0 0 0 46.798134
2.0588472 10.574142 7.1274962 0 0 0 0 46.803085
1.3334994 8.114625 5.2489166 0 0 0 0 46.808029
2.2805233 9.7687225 7.1444349 0 0 0 0 46.812973
2.049787 10.126678 7.0796843 0 0 0 0 46.817924
1.79152 10.454272 7.0261374 0 0 0 0 46.822868
1.1410037 8.1327209 5.2566214 0 0 0 0 46.82782
2.0616298 9.7479544 7.0863905 0 0 0 0 46.832764
1.8104821 10.068488 7.0098968 0 0 0 0 46.837715
1.2212173 8.2300129 5.5219188 0 0 0 0 46.842659
0.9695434 8.3340578 5.3860035 0 0 0 0 46.847603
1.8410945 9.7050533 7.0155058 0 0 0 0 46.852554
1.0721688 6.7996488 4.7222099 0 0 0 0 46.857498
0.87724978 6.9802766 4.6787715 0 0 0 0 46.86245
0.97539955 10.553053 6.8187771 0 0 0 0 46.867393
1.1121237 6.6065602 4.755609 0 0 0 0 46.872337
0.91187972 6.7457881 4.6704683 0 0 0 0 46.877289
0.70904964 6.9203348 4.634069 0 0 0 0 46.882233
0.71534139 10.4164 6.7385468 0 0 0 0 46.887184
0.95815444 6.5336351 4.6820126 0 0 0 0 46.892128
0.75839537 6.704102 4.6286426 0 0 0 0 46.897079
0.54688364 6.85848 4.5893841 0 0 0 0 46.902023
0.46510741 10.290963 6.6682425 0 0 0 0 46.906967
0.81451488 6.5021057 4.6401205 0 0 0 0 46.911919
0.60587776 6.6644673 4.5928035 0 0 0 0 46.916862
0.56569368 9.993681 6.6804161 0 0 0 0 46.921814
0.22007281 10.153565 6.5940304 0 0 0 0 46.926758
0.67362982 6.485702 4.6101193 0 0 0 0 46.931702
0.45645988 6.6188445 4.55301 0 0 0 0 46.936653
0.33423182 9.8835382 6.6110153 0 0 0 0 46.941597
-0.016957851 10.016307 6.5228243 0 0 0 0 46.946548
0.53197455 6.4552183 4.5722218 0 0 0 0 46.951492
0.44974342 9.6545324 6.6267047 0 0 0 0 46.956436
0.1104446 9.7936258 6.5574727 0 0 0 0 46.961388
-0.24796878 9.8781605 6.4556303 0 0 0 0 46.966331
0.39400589 6.4439139 4.5511847 0 0 0 0 46.971283
0.2340679 9.5586233 6.5562129 0 0 0 0 46.976227
-0.1098315 9.6726303 6.4871616 0 0 0 0 46.981178
-0.47199181 9.7411356 6.3914342 0 0 0 0 46.986122
0.36990312 9.3721352 6.5966072 0 0 0 0 46.991066
0.02481789 9.4980154 6.5134668 0 0 0 0 46.996017
-0.3250868 9.5507107 6.4178624 0 0 0 0 47.000961
-0.6898948 9.5971746 6.3242955 0 0 0 0 47.005913
0.16853268 9.3196039 6.5468082 0 0 0 0 47.010857
-0.18272306 9.3942356 6.4460406 0 0 0 0 47.0158
-0.5354386 9.4349251 6.3575225 0 0 0 0 47.020752
-0.90364689 9.4442759 6.2582269 0 0 0 0 47.025696
-0.02625935 9.2409286 6.4812961 0 0 0 0 46.732231
-0.38111314 9.2916384 6.3817167 0 0 0 0 46.737183
-0.73645377 9.3094273 6.2953758 0 0 0 0 46.742126
-1.1052965 9.2959003 6.1962533 0 0 0 0 46.74707
-0.22158262 9.1845713 6.434525 0 0 0 0 46.752022
-0.58091098 9.2021389 6.3271823 0 0 0 0 46.756966
-0.93671095 9.1858625 6.2350869 0 0 0 0 46.761917
-1.3029474 9.1342964 6.1272416 0 0 0 0 46.766861
-0.41454858 9.1061459 6.3749161 0 0 0 0 46.771812
-0.77543211 9.0956526 6.2647753 0 0 0 0 46.776756
-1.1308501 9.0553541 6.170855 0 0 0 0 46.7817
-1.4725536 8.8464966 5.9741626 0 0 0 0 46.786652
-0.60454482 9.0297852 6.3192945 0 0 0 0 46.791595
-0.96612871 9.0002975 6.2132916 0 0 0 0 46.796547
-1.3199699 8.9239454 6.1106339 0 0 0 0 46.801491
-1.6235163 8.5197945 5.7963815 0 0 0 0 46.806435
-0.79265308 8.9605036 6.2716241 0 0 0 0 46.811386
-1.1524 8.8788834 6.1460013 0 0 0 0 46.81633
-1.5019228 8.7826004 6.0454912 0 0 0 0 46.821281
-1.7973053 8.3686256 5.7393188 0 0 0 0 46.826225
-0.97630399 8.8631487 6.206161 0 0 0 0 46.831169
-1.3359442 8.7746134 6.0935893 0 0 0 0 46.836121
-1.6295972 8.3777628 5.8012967 0 0 0 0 46.841064
-1.972366 8.2345457 5.6981349 0 0 0 0 46.846016
-1.1601651 8.7788916 6.1556039 0 0 0 0 46.85096
-1.5184529 8.6683645 6.0431943 0 0 0 0 46.855911
-1.7964543 8.2316599 5.7392049 0 0 0 0 46.860855
-2.1319659 8.0725622 5.6381645 0 0 0 0 46.865799
-1.3410397 8.6956863 6.1070428 0 0 0 0 46.87075
-1.6404927 8.2876368 5.8028355 0 0 0 0 46.875694
-1.9658422 8.1186714 5.698873 0 0 0 0 46.880646
-2.2938693 7.9296432 5.5930572 0 0 0 0 46.88559
-1.5155694 8.5914841 6.046639 0 0 0 0 46.890533
-1.8014337 8.147562 5.7327056 0 0 0 0 46.895485
-2.1280632 7.9957523 5.6536198 0 0 0 0 46.900429
-2.4466202 7.7778249 5.5430217 0 0 0 0 46.90538
-1.6337163 8.2187662 5.8002305 0 0 0 0 46.910324
-1.9681051 8.0526409 5.6962452 0 0 0 0 46.915276
-2.2809536 7.85289 5.5975194 0 0 0 0 46.920219
-2.5902178 7.6170998 5.4870596 0 0 0 0 46.925163
-1.7951673 8.1107521 5.7398691 0 0 0 0 46.930115
-2.1254613 7.938756 5.6459308 0 0 0 0 46.935059
-2.4288228 7.7091069 5.5424314 0 0 0 0 46.94001
-2.7339578 7.4654393 5.4410348 0 0 0 0 46.944954
-1.9590088 8.0268478 5.7003312 0 0 0 0 46.949898
-2.2806842 7.816895 5.5956779 0 0 0 0 46.954849
-2.5748005 7.5723915 5.4932947 0 0 0 0 46.959793
-2.872741 7.3168721 5.3979921 0 0 0 0 46.964745
-2.1185532 7.9249363 5.6519294 0 0 0 0 46.969688
-2.4361324 7.7091122 5.5573239 0 0 0 0 46.974632
-2.7219222 7.4447312 5.4550943 0 0 0 0 46.979584
-3.0043862 7.1603746 5.3500147 0 0 0 0 46.984528
-2.2761426 7.8260694 5.6065078 0 0 0 0 46.989479
-2.5769856 7.5653753 5.4952435 0 0 0 0 46.994423
-2.857775 7.3011465 5.4040189 0 0 0 0 46.999374
-3.1361582 7.0119352 5.3109808 0 0 0 0 47.004318
-2.4254327 7.7092447 5.5502248 0 0 0 0 47.009262
-2.7201626 7.4417129 5.4490175 0 0 0 0 47.014214
-2.9958384 7.1706314 5.3678493 0 0 0 0 47.019157
-3.2578087 6.8566141 5.2670064 0 0 0 0 47.024109
-2.5758522 7.6004758 5.5048842 0 0 0 0 47.029053
-2.8644829 7.3270841 5.4107265 0 0 0 0 47.033997
-3.1215656 7.0201869 5.315836 0 0 0 0 47.038948
-3.37747 6.7023411 5.226028 0 0 0 0 47.043892
-2.725399 7.4997582 5.4654865 0 0 0 0 47.048843
-3.0015686 7.1985116 5.3655443 0 0 0 0 47.053787
-3.247468 6.8808002 5.2727432 0 0 0 0 47.058731
-3.4890754 6.5451756 5.1830788 0 0 0 0 47.063683
-2.8676615 7.3820748 5.4162197 0 0 0 0 47.068626
-3.1336496 7.0700202 5.3213673 0 0 0 0 47.073578
-3.3713667 6.7414699 5.233654 0 0 0 0 47.078522
-3.6006916 6.3890343 5.1441245 0 0 0 0 47.083473
-3.010921 7.2644043 5.3719549 0 0 0 0 47.088417
-3.2698104 6.9465299 5.2871528 0 0 0 0 47.093361
-3.4943271 6.6061916 5.2005382 0 0 0 0 47.098312
-3.7032838 6.2320104 5.1021848 0 0 0 0 47.103256
-3.1491756 7.1468072 5.3276944 0 0 0 0 47.108208
-3.3948152 6.8141384 5.2430129 0 0 0 0 47.113152
-3.6040158 6.4550247 5.1545506 0 0 0 0 47.118095
-3.8070364 6.0850372 5.0701733 0 0 0 0 47.123047
-3.2844429 7.0302734 5.2864299 0 0 0 0 47.127991
-3.5116661 6.6728344 5.1939464 0 0 0 0 47.132942
-3.7148976 6.315908 5.118475 0 0 0 0 47.137886
-3.9077494 5.9361005 5.0371809 0 0 0 0 47.142838
-3.4146063 6.9077926 5.2422142 0 0 0 0 47.147781
-3.635762 6.5465264 5.1607671 0 0 0 0 47.152725
-3.8206906 6.1718445 5.079442 0 0 0 0 47.157677
-3.99629 5.7773027 4.997272 0 0 0 0 47.162621
-3.5447822 6.7863345 5.2019935 0 0 0 0 47.167572
-3.7497022 6.4113164 5.1196618 0 0 0 0 47.172516
-3.9193785 6.0218682 5.0374594 0 0 0 0 47.17746
-4.0880232 5.6305165 4.9662743 0 0 0 0 47.182411
-3.6709034 6.6619272 5.1607995 0 0 0 0 47.187355
-3.8595707 6.2721591 5.0775914 0 0 0 0 47.192307
-4.020227 5.8819194 5.0044041 0 0 0 0 47.19725
-4.1757016 5.4807906 4.9353037 0 0 0 0 47.202194
-3.7829323 6.5230541 5.111341 0 0 0 0 46.95565
-3.9677627 6.1365056 5.0410666 0 0 0 0 46.960594
-4.1154666 5.7425647 4.9728694 0 0 0 0 46.965546
-4.2548928 5.3317451 4.9038029 0 0 0 0 46.97049
-3.9050822 6.398778 5.0751381 0 0 0 0 46.975433
-4.0727124 6.0004988 5.0049644 0 0 0 0 46.980385
-4.2031479 5.5907912 4.9318972 0 0 0 0 46.985329
-4.3356524 5.1851745 4.8758006 0 0 0 0 46.99028
-4.0211611 6.2705703 5.0359702 0 0 0 0 46.995224
-4.1725578 5.8585453 4.9659109 0 0 0 0 47.000175
-4.3001537 5.4590049 4.9097748 0 0 0 0 47.005119
-4.4032078 5.0267296 4.8368959 0 0 0 0 47.010063
-4.1342196 6.141427 4.9998136 0 0 0 0 47.015015
-4.2714968 5.7226453 4.932816 0 0 0 0 47.019958
-4.3788085 5.3063817 4.8708191 0 0 0 0 47.02491
-4.4708719 4.8753242 4.8039422 0 0 0 0 47.029854
-4.2411246 6.0033312 4.9577284 0 0 0 0 47.034798
-4.3653641 5.5827994 4.8967557 0 0 0 0 47.039749
-4.4534883 5.1558261 4.8328533 0 0 0 0 47.044693
-4.5457129 4.7349038 4.7849069 0 0 0 0 47.049644
-4.3378925 5.8573551 4.9107099 0 0 0 0 47.054588
-4.4367795 5.4161525 4.8399096 0 0 0 0 47.059532
-4.5292449 5.0102854 4.7998533 0 0 0 0 47.064484
-4.611464 4.5895734 4.7589149 0 0 0 0 47.069427
-4.4428697 5.724339 4.8765941 0 0 0 0 47.074379
-4.528718 5.2813873 4.8118181 0 0 0 0 47.079323
-4.6009789 4.8638058 4.7668648 0 0 0 0 47.084274
-4.6630592 4.4354014 4.724 0 0 0 0 47.089218
-4.5438256 5.5903893 4.8434892 0 0 0 0 47.094162
-4.6237674 5.1536198 4.7906766 0 0 0 0 47.099113
-4.6676903 4.7163959 4.7328897 0 0 0 0 47.104057
-4.7217979 4.290185 4.6990175 0 0 0 0 47.109009
-4.6743903 5.4932113 4.8440986 0 0 0 0 47.113953
-4.6984468 5.0040488 4.7527103 0 0 0 0 47.118896
-4.738512 4.5759826 4.7078624 0 0 0 0 47.123848
-4.78163 4.1509857 4.6789927 0 0 0 0 47.128792
-4.9068146 5.5071583 4.9478273 0 0 0 0 47.133743
-4.8220196 4.9080725 4.7663217 0 0 0 0 47.138687
-4.8012452 4.4306674 4.6788793 0 0 0 0 47.143631
-4.832356 4.0058932 4.6540194 0 0 0 0 47.148582
-5.0087266 5.3712196 4.920743 0 0 0 0 47.153526
