# .PCD v0.7 - Point Cloud Data file format
VERSION 0.7
FIELDS x y z normal_x normal_y normal_z intensity curvature
SIZE 4 4 4 4 4 4 4 4
TYPE F F F F F F F F
COUNT 1 1 1 1 1 1 1 1
WIDTH 975
HEIGHT 1
VIEWPOINT 0 0 0 1 0 0 0
POINTS 975
DATA ascii
4.8966966 7.3208466 1.0752378 0 0 0 0 72.425499
4.7018294 7.4771142 0.85404551 0 0 0 0 72.43045
4.4890308 7.6308436 0.62162793 0 0 0 0 72.435394
4.9152932 7.2635946 1.3068379 0 0 0 0 72.440346
4.7277126 7.4298573 1.0758448 0 0 0 0 72.44529
4.5247345 7.5822248 0.85851794 0 0 0 0 72.450233
4.3121047 7.7469192 0.62923634 0 0 0 0 72.455185
4.757453 7.3794289 1.3056476 0 0 0 0 72.460129
4.5566664 7.5358963 1.0773929 0 0 0 0 72.46508
4.3496523 7.6873155 0.86201102 0 0 0 0 72.470024
4.1382518 7.8669424 0.63692564 0 0 0 0 72.474976
4.5872869 7.4765 1.3030946 0 0 0 0 72.479919
4.3835073 7.6349874 1.0778326 0 0 0 0 72.484863
4.1736155 7.795414 0.86653018 0 0 0 0 72.489815
3.958204 7.9760799 0.64441448 0 0 0 0 72.494759
4.4211864 7.5765133 1.2996207 0 0 0 0 72.49971
4.2134895 7.7430015 1.0804149 0 0 0 0 72.504654
3.9995511 7.9024668 0.87205732 0 0 0 0 72.509598
3.7751303 8.0842628 0.65285861 0 0 0 0 72.514549
4.2561197 7.6794858 1.2981939 0 0 0 0 72.519493
4.0496702 7.861907 1.083197 0 0 0 0 72.524445
3.827657 8.0194721 0.87872934 0 0 0 0 72.529388
3.5951908 8.2003803 0.66243315 0 0 0 0 72.534332
4.0942669 7.7953796 1.2989597 0 0 0 0 72.539284
3.8755062 7.9610138 1.0846244 0 0 0 0 72.544228
3.6517119 8.1335535 0.88532138 0 0 0 0 72.549179
3.4152639 8.3165131 0.67100745 0 0 0 0 72.554123
3.9240792 7.8914504 1.2973921 0 0 0 0 72.559074
3.701484 8.0690966 1.088163 0 0 0 0 72.564018
3.4736543 8.2406883 0.89080477 0 0 0 0 72.568962
3.2271392 8.4227715 0.68137187 0 0 0 0 72.573914
3.7581587 8.0034237 1.2980649 0 0 0 0 72.578857
3.52741 8.1741829 1.0916637 0 0 0 0 72.583809
3.2874269 8.3389616 0.89709079 0 0 0 0 72.588753
3.0412679 8.5429935 0.69193119 0 0 0 0 72.593697
3.5911973 8.1124315 1.2976898 0 0 0 0 72.598648
3.3493133 8.2773581 1.0940968 0 0 0 0 72.603592
3.1126461 8.463007 0.90581626 0 0 0 0 72.608543
2.8542619 8.6562271 0.70339209 0 0 0 0 72.613487
3.4181814 8.2195253 1.2992256 0 0 0 0 72.618431
3.1754375 8.3944225 1.0997458 0 0 0 0 72.623383
2.9286706 8.5762215 0.91430891 0 0 0 0 72.628326
2.6653051 8.7715101 0.71385628 0 0 0 0 72.633278
3.2440631 8.3196678 1.2986631 0 0 0 0 72.638222
2.9963772 8.500597 1.1042043 0 0 0 0 72.643173
2.7447333 8.6914387 0.92282599 0 0 0 0 72.648117
2.47033 8.8868828 0.72625607 0 0 0 0 72.653061
3.0720975 8.4287624 1.2992333 0 0 0 0 72.658012
2.8164341 8.6137781 1.1097388 0 0 0 0 72.662956
2.5578959 8.8126993 0.93238556 0 0 0 0 72.667908
2.2785256 9.012188 0.73981178 0 0 0 0 72.672852
2.8930705 8.534976 1.3006914 0 0 0 0 72.677795
2.6355839 8.7319794 1.1153247 0 0 0 0 72.682747
2.3667653 8.9170532 0.94068998 0 0 0 0 72.687691
2.0785627 9.1286449 0.75316972 0 0 0 0 72.692642
2.7213724 8.6610231 1.3054726 0 0 0 0 72.697586
2.4485996 8.8432817 1.1217589 0 0 0 0 72.702538
2.17485 9.034399 0.95114535 0 0 0 0 72.707481
1.8798001 9.2560844 0.76667511 0 0 0 0 72.712425
2.5394402 8.772296 1.3069603 0 0 0 0 72.717377
2.2564917 8.9476814 1.1280521 0 0 0 0 72.722321
1.9822764 9.1717396 0.96383923 0 0 0 0 72.727272
1.6728389 9.3736496 0.78196973 0 0 0 0 72.732216
2.353312 8.8726473 1.3082676 0 0 0 0 72.73716
2.070905 9.0819426 1.1367831 0 0 0 0 72.742111
1.780266 9.2842627 0.97512472 0 0 0 0 72.747055
1.4671144 9.5041971 0.79743695 0 0 0 0 72.752007
2.1664605 8.9899788 1.3127756 0 0 0 0 72.75695
1.8759282 9.1934004 1.1431307 0 0 0 0 72.761894
1.5762147 9.3938398 0.98535079 0 0 0 0 72.766846
1.2533469 9.6328831 0.81379336 0 0 0 0 72.77179
1.9785862 9.1053448 1.3162477 0 0 0 0 72.776741
1.6758966 9.3029289 1.1513991 0 0 0 0 72.781685
1.3725668 9.5273781 0.99887615 0 0 0 0 72.786636
1.0386794 9.7675762 0.83121359 0 0 0 0 72.79158
1.7856532 9.2168188 1.3186162 0 0 0 0 72.796524
1.4773515 9.4404106 1.162028 0 0 0 0 72.801476
1.1619841 9.6650343 1.0133766 0 0 0 0 72.806419
0.81904054 9.9043512 0.8496049 0 0 0 0 72.811371
1.5888971 9.3403168 1.3250911 0 0 0 0 72.816315
1.2735239 9.561017 1.1703904 0 0 0 0 72.821259
0.94711488 9.7867699 1.0276334 0 0 0 0 72.82621
0.59158319 10.052249 0.87004817 0 0 0 0 72.831154
1.3913063 9.4728336 1.331668 0 0 0 0 72.836105
1.0628484 9.6917143 1.1818026 0 0 0 0 72.841049
0.72665489 9.9316025 1.0431139 0 0 0 0 72.846001
0.35802081 10.194262 0.89035171 0 0 0 0 72.850945
1.1886014 9.590086 1.3403673 0 0 0 0 73.630852
0.85158324 9.831193 1.1976691 0 0 0 0 73.635803
0.50640583 10.068352 1.0628316 0 0 0 0 73.640747
0.12600294 10.339349 0.91402757 0 0 0 0 73.645699
0.98020571 9.7318544 1.3489296 0 0 0 0 73.650642
0.63311172 9.9711018 1.2100962 0 0 0 0 73.655586
0.27382985 10.205462 1.0800674 0 0 0 0 73.660538
-0.11828232 10.495608 0.93737489 0 0 0 0 73.665482
0.76763958 9.8637142 1.35632 0 0 0 0 73.670433
0.40655938 10.107151 1.2233846 0 0 0 0 73.675377
0.039677929 10.366583 1.0995876 0 0 0 0 73.680321
-0.37157404 10.652025 0.96162379 0 0 0 0 73.685272
0.54929525 10.008663 1.3658109 0 0 0 0 73.690216
0.17717642 10.252257 1.2367551 0 0 0 0 73.695168
-0.20392786 10.501907 1.1166768 0 0 0 0 73.700111
-0.62988067 10.807541 0.9858048 0 0 0 0 73.705055
0.32294419 10.15375 1.3762141 0 0 0 0 73.710007
-0.060058028 10.406489 1.2521529 0 0 0 0 73.714951
-0.4579553 10.67137 1.1390806 0 0 0 0 73.719902
-0.89806402 10.970233 1.0109659 0 0 0 0 73.724846
0.092663132 10.301929 1.3856119 0 0 0 0 73.729797
-0.30639145 10.555882 1.2683882 0 0 0 0 73.734741
-0.71718258 10.82993 1.1612885 0 0 0 0 73.739685
-1.1771754 11.139082 1.0400829 0 0 0 0 73.744637
-0.14677265 10.442268 1.3958086 0 0 0 0 73.74958
-0.56060201 10.712414 1.2856252 0 0 0 0 73.754532
-0.98813766 11.003705 1.1845572 0 0 0 0 73.759476
-1.4671077 11.318126 1.0702075 0 0 0 0 73.76442
-0.39490384 10.600738 1.409137 0 0 0 0 73.769371
-0.82180846 10.869081 1.3027853 0 0 0 0 73.774315
-1.26724 11.170609 1.2096481 0 0 0 0 73.779266
-1.7630618 11.495299 1.0992404 0 0 0 0 73.78421
-0.64812016 10.75333 1.4203336 0 0 0 0 73.789162
-1.0920954 11.021908 1.3207951 0 0 0 0 73.794106
-1.5551524 11.347682 1.2347685 0 0 0 0 73.799049
-2.0739536 11.678694 1.1331855 0 0 0 0 73.804001
-0.91015011 10.917068 1.4335723 0 0 0 0 73.808945
-1.3728914 11.202901 1.3420434 0 0 0 0 73.813896
-1.8579173 11.534988 1.2638526 0 0 0 0 73.81884
-2.3965173 11.8803 1.1682298 0 0 0 0 73.823784
-1.1842968 11.075024 1.4476024 0 0 0 0 73.828735
-1.6636376 11.387072 1.3642204 0 0 0 0 73.833679
-2.1658602 11.711421 1.2907401 0 0 0 0 73.838631
-2.7376723 12.10621 1.2073741 0 0 0 0 73.843575
-1.4670531 11.25512 1.4638158 0 0 0 0 73.848518
-1.9674445 11.568478 1.3872161 0 0 0 0 73.85347
-2.4904134 11.91112 1.3217363 0 0 0 0 73.858414
-3.0892375 12.309332 1.2451129 0 0 0 0 73.863365
-1.7607775 11.437415 1.4809343 0 0 0 0 73.868309
-2.2820828 11.760067 1.4122192 0 0 0 0 73.87326
-2.8337438 12.125126 1.356704 0 0 0 0 73.878204
-3.4593306 12.540743 1.2880027 0 0 0 0 73.883148
-2.0665631 11.616929 1.4988821 0 0 0 0 73.8881
-2.6114652 11.965926 1.4382378 0 0 0 0 73.893044
-3.1880684 12.339343 1.3915507 0 0 0 0 73.897995
-3.8276401 12.704173 1.3260497 0 0 0 0 73.902939
-2.3868814 11.822695 1.5189996 0 0 0 0 73.907883
-2.9568555 12.173053 1.4670931 0 0 0 0 73.912834
-3.5610909 12.570892 1.4284073 0 0 0 0 73.917778
-4.0501599 12.400374 1.3177947 0 0 0 0 73.922729
-2.72417 12.031747 1.5419688 0 0 0 0 73.927673
-3.3208437 12.403497 1.4990357 0 0 0 0 73.932617
-3.9095902 12.663105 1.4537687 0 0 0 0 73.937569
-4.2568417 12.086321 1.3065799 0 0 0 0 73.942513
-3.0724039 12.243022 1.5638428 0 0 0 0 73.947464
-3.7037532 12.639277 1.5328338 0 0 0 0 73.952408
-4.1214833 12.331288 1.4312692 0 0 0 0 73.957359
-4.3571177 11.511549 1.2702373 0 0 0 0 73.962303
-3.4432085 12.479677 1.5897859 0 0 0 0 73.967247
-4.002914 12.572889 1.5307279 0 0 0 0 73.972198
-4.3260889 12.016315 1.4110587 0 0 0 0 73.977142
-4.5232911 11.169778 1.2561102 0 0 0 0 73.982094
-3.8263972 12.69557 1.6153262 0 0 0 0 73.987038
-4.2089262 12.229095 1.498134 0 0 0 0 73.991982
-4.4001079 11.390305 1.3543485 0 0 0 0 73.996933
-4.7082958 10.895279 1.2496216 0 0 0 0 74.001877
-4.0725942 12.449538 1.5835236 0 0 0 0 74.006828
-4.4095392 11.908178 1.4678849 0 0 0 0 74.011772
-4.5844374 11.091932 1.3365629 0 0 0 0 74.016724
-4.8813529 10.617572 1.2422205 0 0 0 0 74.021667
-4.2772584 12.118852 1.5411031 0 0 0 0 74.026611
-4.482255 11.29425 1.4033334 0 0 0 0 74.031563
-4.7672911 10.820513 1.3211309 0 0 0 0 74.036507
-5.0522323 10.350801 1.2369779 0 0 0 0 74.041458
-4.4001107 11.605861 1.4782724 0 0 0 0 74.046402
-4.6643405 11.003956 1.3766683 0 0 0 0 74.051346
-4.9393387 10.538892 1.3056848 0 0 0 0 74.056297
-5.2914805 10.235127 1.2488883 0 0 0 0 74.061241
-4.548141 11.1982 1.4284934 0 0 0 0 74.066193
-4.8461099 10.732622 1.3532429 0 0 0 0 74.071136
-5.1283231 10.317535 1.2958111 0 0 0 0 74.07608
-4.7253113 10.89892 1.3937624 0 0 0 0 74.085976
-5.0054531 10.428907 1.326651 0 0 0 0 74.090927
-5.3889303 10.235295 1.3059032 0 0 0 0 74.095871
-4.9123268 10.635226 1.3616008 0 0 0 0 73.850601
-5.2278228 10.264567 1.3174067 0 0 0 0 73.855553
-5.077333 10.344679 1.3291404 0 0 0 0 73.870392
-5.4980259 10.199574 1.3206292 0 0 0 0 73.875336
-5.3310375 10.245529 1.3201127 0 0 0 0 73.890182
-6.258132 10.10636 1.3500451 0 0 0 0 73.90007
-6.5091023 9.6653042 1.3206687 0 0 0 0 73.905022
-6.3691435 9.7696447 1.3305871 0 0 0 0 73.919861
-6.602984 9.3391943 1.3075324 0 0 0 0 73.924812
-6.3407426 10.004126 1.3379118 0 0 0 0 73.9347
-6.5236392 9.5196514 1.3197392 0 0 0 0 73.939651
-6.7456174 9.0878525 1.3067969 0 0 0 0 73.944595
-6.4602885 9.6886654 1.3116215 0 0 0 0 73.954491
-6.6526556 9.2411938 1.3078099 0 0 0 0 73.959435
-6.9437904 8.9214325 1.316515 0 0 0 0 73.964386
-6.6245265 9.4499226 1.2958016 0 0 0 0 73.974281
-6.8107653 9.0142365 1.300205 0 0 0 0 73.979225
-6.7398486 9.1493387 1.273738 0 0 0 0 73.994064
-6.9815025 8.8104572 1.2977493 0 0 0 0 73.999016
-6.8695536 8.8839893 1.2549567 0 0 0 0 74.013855
-7.2683825 8.1246395 1.3028783 0 0 0 0 74.02375
-6.874526 9.1315527 1.2270706 0 0 0 0 74.028694
-7.016737 8.6499109 1.2413732 0 0 0 0 74.033646
-7.2669735 7.7568507 1.2822496 0 0 0 0 74.043533
-7.0248122 8.8866482 1.2043134 0 0 0 0 74.048485
-7.1825361 8.4391346 1.2318738 0 0 0 0 74.053429
-7.4551973 8.1724501 1.2874486 0 0 0 0 74.05838
-7.3811741 7.5299892 1.2821168 0 0 0 0 74.063324
-7.1447406 8.6061993 1.1794392 0 0 0 0 74.068275
-7.3285818 8.2140141 1.2204086 0 0 0 0 74.073219
-7.381084 7.7245202 1.2486076 0 0 0 0 74.078163
-7.5081291 7.3183322 1.2850311 0 0 0 0 74.083115
-7.2585068 8.3346357 1.1547424 0 0 0 0 74.088058
-7.4737148 7.4693699 1.2393512 0 0 0 0 74.097954
-7.637054 7.1096892 1.2899581 0 0 0 0 74.102898
-7.3809805 8.0802155 1.1321621 0 0 0 0 74.107849
-7.5849762 7.2355475 1.2321534 0 0 0 0 74.117744
-7.7579918 6.8999104 1.2939562 0 0 0 0 74.122688
-7.5211182 7.8470669 1.1146508 0 0 0 0 74.127632
-7.7128639 7.0249782 1.2300621 0 0 0 0 74.137527
-7.8946824 6.7053928 1.3009684 0 0 0 0 74.142479
-7.6621208 7.6219254 1.0982277 0 0 0 0 74.147423
-7.7291808 7.1753097 1.157801 0 0 0 0 74.152374
-7.8328013 6.8112736 1.2270161 0 0 0 0 74.157318
-7.9997406 6.4883447 1.3030442 0 0 0 0 74.162262
-7.8218203 7.4151015 1.0848247 0 0 0 0 74.167213
-7.8443103 6.9466176 1.1466161 0 0 0 0 74.172157
-7.9448953 6.5894227 1.2239505 0 0 0 0 74.177109
-8.1492071 6.3080344 1.3130871 0 0 0 0 74.182053
-7.9755425 7.2071676 1.0714701 0 0 0 0 74.186996
-7.9584475 6.718884 1.1374509 0 0 0 0 74.191948
-8.0805635 6.3929687 1.2249407 0 0 0 0 74.196892
-8.3076344 6.1318579 1.3260788 0 0 0 0 74.201843
-8.1203642 6.9940681 1.0581458 0 0 0 0 74.206787
-8.060626 6.4879522 1.126375 0 0 0 0 74.211739
-8.2053947 6.1873245 1.2249314 0 0 0 0 74.216682
-8.4917355 5.9751306 1.3420268 0 0 0 0 74.221626
-8.2929029 6.7994313 1.0497419 0 0 0 0 74.226578
-8.2002964 6.2886419 1.1222785 0 0 0 0 74.231522
-8.3390636 5.9918246 1.2269487 0 0 0 0 74.236473
-8.3187637 5.5763178 1.3068873 0 0 0 0 74.241417
-8.3034477 6.0607066 1.1132224 0 0 0 0 74.251312
-8.4836235 5.8035069 1.2309319 0 0 0 0 74.256256
-8.3978653 5.3577867 1.3092177 0 0 0 0 74.261208
-8.4233255 5.850039 1.1081955 0 0 0 0 74.271095
-8.3521271 5.4344525 1.1977026 0 0 0 0 74.276047
-8.5046444 5.1597166 1.3164953 0 0 0 0 74.280991
-8.4951935 5.998014 0.99026972 0 0 0 0 74.285942
-8.3236084 5.4935732 1.0757691 0 0 0 0 74.290886
-8.439167 5.2171259 1.1959544 0 0 0 0 74.295837
-8.64715 4.980248 1.3296059 0 0 0 0 74.300781
-8.2769575 5.5525074 0.94203627 0 0 0 0 74.305725
-8.4007978 5.2641511 1.0669752 0 0 0 0 74.310677
-8.5806875 5.0327301 1.2020113 0 0 0 0 74.31562
-8.8303032 4.8234739 1.348546 0 0 0 0 74.320572
-8.3452253 5.3080468 0.92603254 0 0 0 0 74.07502
-8.5411825 5.0748415 1.0668948 0 0 0 0 74.079964
-8.7170906 4.8442602 1.2080138 0 0 0 0 74.084915
-8.4877281 5.1158242 0.91899884 0 0 0 0 74.09481
-0.37099072 0.2205113 0.10954867 0 0 0 0 74.10965
-0.36885273 0.22256953 0.10261382 0 0 0 0 74.124489
-0.35844752 0.23457403 0.087891921 0 0 0 0 74.134384
-0.37566766 0.22778377 0.096618943 0 0 0 0 74.139328
-0.37733266 0.19963643 0.11025434 0 0 0 0 74.149223
-0.3831479 0.20483196 0.1042703 0 0 0 0 74.164062
-0.36280465 0.21168759 0.086594053 0 0 0 0 74.173958
-0.37804419 0.2038601 0.095329791 0 0 0 0 74.178909
-0.38864791 0.18084276 0.11193023 0 0 0 0 74.188805
-0.39445189 0.18605128 0.1049462 0 0 0 0 74.203644
-0.36814356 0.18981995 0.08529751 0 0 0 0 74.213539
-0.39930093 0.18825464 0.096934415 0 0 0 0 74.218483
-0.42683387 0.17150553 0.11742466 0 0 0 0 74.228378
-0.42468086 0.17260282 0.10747698 0 0 0 0 74.243217
-0.39934212 0.17740278 0.086830609 0 0 0 0 74.253113
-0.4245573 0.17272541 0.098494194 0 0 0 0 74.258057
-0.3235752 0.11877921 0.10195193 0 0 0 0 74.267952
-0.32843569 0.12096963 0.094939925 0 0 0 0 74.282791
-0.35096908 0.13757102 0.081907071 0 0 0 0 74.292686
-0.3333149 0.12216044 0.087914921 0 0 0 0 74.297638
-0.29093713 0.093244493 0.097034149 0 0 0 0 74.307526
-0.29484671 0.093403719 0.091007017 0 0 0 0 74.322372
-0.306465 0.10481154 0.07703051 0 0 0 0 74.33226
-0.30671677 0.095713861 0.08491765 0 0 0 0 74.337212
-0.29720035 0.077354811 0.098802418 0 0 0 0 74.347107
-0.29708841 0.077464089 0.090819553 0 0 0 0 74.361946
-0.27584961 0.079288259 0.074090436 0 0 0 0 74.371841
-0.29900599 0.076598771 0.083801463 0 0 0 0 74.376785
-0.29444379 0.061320458 0.098669797 0 0 0 0 74.386681
-0.2953504 0.060449027 0.090662807 0 0 0 0 74.40152
-0.2780917 0.063348569 0.073902734 0 0 0 0 74.411415
-0.29427624 0.058540039 0.08266487 0 0 0 0 74.416367
-0.28268617 0.044141304 0.096623532 0 0 0 0 74.426254
-0.29561251 0.043471847 0.090483576 0 0 0 0 74.441101
-0.27734262 0.046365146 0.072734863 0 0 0 0 74.450989
-0.29353869 0.041543968 0.082496598 0 0 0 0 74.45594
-0.28294128 0.028150739 0.097457007 0 0 0 0 74.465836
-0.28086755 0.026222786 0.089470007 0 0 0 0 74.480675
-0.27758631 0.03038762 0.072568446 0 0 0 0 74.49057
-0.29280168 0.024547879 0.082327932 0 0 0 0 74.495514
-0.29316819 0.014336726 0.09920536 0 0 0 0 74.505409
-0.29409379 0.012465894 0.091185041 0 0 0 0 74.520248
-0.27183202 0.014296082 0.07246808 0 0 0 0 74.530144
-0.29304618 0.0085705174 0.082160853 0 0 0 0 74.535088
-0.29242468 -0.0016727017 0.10004904 0 0 0 0 74.544983
-0.29454535 -0.0045720534 0.090866707 0 0 0 0 74.428749
-0.2722654 -0.0017417524 0.072162144 0 0 0 0 74.438644
-0.29449019 -0.0074617662 0.082844377 0 0 0 0 74.443588
-0.30187729 -0.017565522 0.10164419 0 0 0 0 74.453484
-0.29680082 -0.02052439 0.09167733 0 0 0 0 74.468323
-0.28052679 -0.018567255 0.071893699 0 0 0 0 74.478218
-0.29677209 -0.025400627 0.082628921 0 0 0 0 74.483162
-0.29913446 -0.033612784 0.10250977 0 0 0 0 74.493057
-0.29907569 -0.037476402 0.092474453 0 0 0 0 74.507896
-0.2767916 -0.035620444 0.07175754 0 0 0 0 74.517792
-0.30206519 -0.043295242 0.083379626 0 0 0 0 74.522743
-0.29941034 -0.050602864 0.10332872 0 0 0 0 74.532639
-0.29935166 -0.054466363 0.093293287 0 0 0 0 74.547478
-0.28006667 -0.052553497 0.07254333 0 0 0 0 74.557373
-0.29834226 -0.060361128 0.084242605 0 0 0 0 74.562317
-0.29766846 -0.066631272 0.1041825 0 0 0 0 74.572212
-0.29862848 -0.071475372 0.094122782 0 0 0 0 74.587051
-0.28537965 -0.071447857 0.073280267 0 0 0 0 74.596947
-0.29760787 -0.077357166 0.084072106 0 0 0 0 74.601891
-0.29692689 -0.082640715 0.10502483 0 0 0 0 74.611786
-0.31906715 -0.095121212 0.097626656 0 0 0 0 74.626625
-0.30983236 -0.096991085 0.074713849 0 0 0 0 74.63652
-0.32815015 -0.10582381 0.088399045 0 0 0 0 74.641472
-0.31939596 -0.10726103 0.10949282 0 0 0 0 74.65136
-0.31838316 -0.11412942 0.098428838 0 0 0 0 74.666206
-0.30413052 -0.1150948 0.075584717 0 0 0 0 74.676102
-0.31437114 -0.12105495 0.087398149 0 0 0 0 74.681046
-0.30759782 -0.12145475 0.10848286 0 0 0 0 74.690941
-0.30156744 -0.12741879 0.097487517 0 0 0 0 74.70578
-0.33272794 -0.14757161 0.077879921 0 0 0 0 74.715675
-0.35003915 -0.15543623 0.092588514 0 0 0 0 74.720619
-0.34934813 -0.15777284 0.11757948 0 0 0 0 74.730515
-0.33826616 -0.16279361 0.10365303 0 0 0 0 74.745354
-0.38262096 -0.19368131 0.082755573 0 0 0 0 74.755249
-0.38682196 -0.1957957 0.097687341 0 0 0 0 74.760201
-0.36389786 -0.18654318 0.12208092 0 0 0 0 74.770088
-0.38822487 -0.20995438 0.11251389 0 0 0 0 74.784935
-0.37296841 -0.21484692 0.082629293 0 0 0 0 74.794823
-0.37111419 -0.21407698 0.097667292 0 0 0 0 74.799774
-0.38457254 -0.22120968 0.12743542 0 0 0 0 74.809669
-0.37453619 -0.22919744 0.11245816 0 0 0 0 74.824509
-0.38663009 -0.25060746 0.085048303 0 0 0 0 74.834404
-0.37463418 -0.24301808 0.099290095 0 0 0 0 74.839348
-0.38199955 -0.24526709 0.12919067 0 0 0 0 74.849243
-13.982143 -8.7296743 1.2353156 0 0 0 0 74.854187
-14.062836 -8.7307634 1.7404296 0 0 0 0 74.859138
-13.737939 -8.4344006 2.6210558 0 0 0 0 74.869034
-13.592431 -8.9599237 1.2276738 0 0 0 0 74.873978
-13.728433 -8.977931 1.7299368 0 0 0 0 74.878922
-13.806479 -8.9636517 2.203275 0 0 0 0 74.883873
-13.715363 -8.8483429 2.6598518 0 0 0 0 74.888817
-13.219015 -9.1800451 1.2174203 0 0 0 0 75.382019
-13.365059 -9.1988544 1.7155367 0 0 0 0 75.386971
-13.488394 -9.196743 2.1871853 0 0 0 0 75.391914
-13.513715 -9.1425276 2.6606498 0 0 0 0 75.396858
-12.863416 -9.4107838 1.2133988 0 0 0 0 75.40181
-13.027373 -9.4271946 1.7073382 0 0 0 0 75.406754
-13.137326 -9.4092512 2.1723478 0 0 0 0 75.411705
-13.230299 -9.3848095 2.6506407 0 0 0 0 75.416649
-12.53701 -9.6499901 1.21093 0 0 0 0 75.421593
-12.6702 -9.6318769 1.6966761 0 0 0 0 75.426544
-12.804281 -9.6214409 2.1593075 0 0 0 0 75.431488
-12.934579 -9.6123066 2.6389678 0 0 0 0 75.43644
-12.181964 -9.8577156 1.206206 0 0 0 0 75.441383
-12.321083 -9.8374491 1.688911 0 0 0 0 75.446327
-12.476152 -9.8285551 2.1472783 0 0 0 0 75.451279
-12.612368 -9.8172541 2.6228974 0 0 0 0 75.456223
-12.702335 -10.796946 1.288757 0 0 0 0 75.461174
-12.623401 -10.572775 1.7676612 0 0 0 0 75.466118
-12.594097 -10.399234 2.2143219 0 0 0 0 75.471069
-12.544622 -10.218058 2.6593168 0 0 0 0 75.476013
-13.403565 -11.969065 1.3951404 0 0 0 0 75.480957
-13.54327 -11.891584 1.9385941 0 0 0 0 75.485909
-13.454598 -11.632524 2.4120684 0 0 0 0 75.490852
-12.878878 -10.974368 2.7824156 0 0 0 0 75.495804
-13.012076 -12.201571 1.395497 0 0 0 0 75.500748
-13.194345 -12.152283 1.9390869 0 0 0 0 75.505692
-13.392821 -12.128348 2.4571514 0 0 0 0 75.510643
-12.721201 -11.33473 2.8063943 0 0 0 0 75.515587
-12.618438 -12.426124 1.3959844 0 0 0 0 75.520538
-12.827821 -12.384272 1.9361613 0 0 0 0 75.525482
-13.020902 -12.344337 2.446497 0 0 0 0 75.530434
-12.563817 -11.708131 2.8331964 0 0 0 0 75.535378
-12.239892 -12.653432 1.3992628 0 0 0 0 75.540321
-12.453142 -12.60744 1.934448 0 0 0 0 75.545273
-12.661075 -12.563136 2.4386673 0 0 0 0 75.550217
-12.398353 -12.077679 2.8591394 0 0 0 0 75.555168
-11.869379 -12.881603 1.403438 0 0 0 0 75.560112
-12.090487 -12.830406 1.9345992 0 0 0 0 75.565056
-12.322643 -12.798608 2.4363718 0 0 0 0 75.570007
-12.283216 -12.506456 2.8987184 0 0 0 0 75.574951
-11.535757 -13.150187 1.4156553 0 0 0 0 75.579903
-11.724613 -13.042427 1.9339333 0 0 0 0 75.584846
-11.945354 -12.993745 2.4280586 0 0 0 0 75.58979
-12.105896 -12.882256 2.9257109 0 0 0 0 75.594742
-11.168152 -13.371355 1.4228915 0 0 0 0 75.599686
-11.369048 -13.267323 1.9379799 0 0 0 0 75.604637
-11.618013 -13.231066 2.4296129 0 0 0 0 75.609581
-11.805969 -13.14006 2.9276764 0 0 0 0 75.614532
-10.805529 -13.591432 1.4300857 0 0 0 0 75.619476
-11.043991 -13.515685 1.9453645 0 0 0 0 75.62442
-11.254862 -13.430008 2.426089 0 0 0 0 75.629372
-11.47206 -13.352407 2.9216356 0 0 0 0 75.634315
-10.436831 -13.805673 1.4404291 0 0 0 0 75.639267
-10.69848 -13.740451 1.9532986 0 0 0 0 75.644211
-10.904792 -13.631727 2.4243782 0 0 0 0 75.649155
-11.138205 -13.566774 2.9165685 0 0 0 0 75.654106
-10.083388 -14.031651 1.4524418 0 0 0 0 75.65905
-10.317958 -13.917793 1.9542656 0 0 0 0 75.664001
-10.597869 -13.885763 2.4324782 0 0 0 0 75.668945
-10.804161 -13.771149 2.9116366 0 0 0 0 75.673889
-9.351553 -13.709107 1.4120902 0 0 0 0 75.678841
-9.6042309 -13.613605 1.8914585 0 0 0 0 75.683784
-10.245772 -14.08456 2.4328318 0 0 0 0 75.688736
-10.457669 -13.954717 2.9031248 0 0 0 0 75.69368
-9.0046196 -13.908985 1.4253795 0 0 0 0 75.698631
-9.2692575 -13.814183 1.8995981 0 0 0 0 75.703575
-9.5188694 -13.73626 2.3427632 0 0 0 0 75.708519
-9.7418404 -13.621936 2.7927201 0 0 0 0 75.71347
-8.6721153 -14.129616 1.4402285 0 0 0 0 75.718414
-8.9344511 -14.020819 1.9116575 0 0 0 0 75.723366
-9.1959333 -13.939585 2.3487267 0 0 0 0 75.72831
-9.4434052 -13.850784 2.7980604 0 0 0 0 75.733253
-8.662137 -14.902905 1.5110242 0 0 0 0 75.738205
-8.9599943 -14.810646 1.9988217 0 0 0 0 75.743149
-8.8710022 -14.142953 2.3547137 0 0 0 0 75.7481
-9.1386805 -14.065734 2.8016579 0 0 0 0 75.753044
-8.3171015 -15.142888 1.5327611 0 0 0 0 75.757996
-8.61549 -15.030521 2.0138161 0 0 0 0 75.762939
-8.8924589 -14.920037 2.4550898 0 0 0 0 75.767883
-9.1243124 -14.752429 2.8976445 0 0 0 0 75.772835
-7.9657292 -15.365986 1.5537959 0 0 0 0 75.777779
-8.2688046 -15.241433 2.0279558 0 0 0 0 75.78273
-8.5516558 -15.127767 2.4642012 0 0 0 0 75.787674
-8.8170967 -14.989519 2.9069757 0 0 0 0 75.792618
-7.6104202 -15.592167 1.5748369 0 0 0 0 75.797569
-7.9231648 -15.453358 2.0440714 0 0 0 0 75.802513
-8.2201738 -15.349376 2.4770224 0 0 0 0 75.807465
-8.4829531 -15.184016 2.9081845 0 0 0 0 75.812408
-7.2592473 -15.823315 1.5987655 0 0 0 0 75.817352
-7.5796962 -15.673261 2.0610573 0 0 0 0 75.822304
-7.8772559 -15.550172 2.4872532 0 0 0 0 75.827248
-8.175128 -15.437213 2.9233122 0 0 0 0 75.832199
-6.9082494 -16.061506 1.6256001 0 0 0 0 75.837143
-7.2345037 -15.904271 2.0829179 0 0 0 0 75.842094
-7.5374885 -15.757926 2.4983561 0 0 0 0 75.847038
-7.8254461 -15.604997 2.9230583 0 0 0 0 75.851982
-6.5443587 -16.292715 1.6552625 0 0 0 0 75.573143
-6.8811955 -16.119167 2.1046813 0 0 0 0 75.578094
-7.2016087 -15.995488 2.519628 0 0 0 0 75.583038
-7.4886971 -15.806384 2.9308224 0 0 0 0 75.587982
-6.1599231 -16.461439 1.6773952 0 0 0 0 75.592934
-6.524725 -16.336378 2.1278498 0 0 0 0 75.597878
-6.8401084 -16.167603 2.5294466 0 0 0 0 75.602829
-7.1582298 -16.029942 2.9426026 0 0 0 0 75.607773
-5.8108687 -16.744677 1.7116114 0 0 0 0 75.612724
-6.1755891 -16.569479 2.1527257 0 0 0 0 75.617668
-6.501071 -16.407471 2.5511146 0 0 0 0 75.622612
-6.8214664 -16.238613 2.9536533 0 0 0 0 75.627563
-5.4097176 -16.876722 1.7334254 0 0 0 0 75.632507
-5.8183241 -16.795744 2.1777868 0 0 0 0 75.637459
-6.1556964 -16.631424 2.5700667 0 0 0 0 75.642403
-6.4787588 -16.449419 2.9657464 0 0 0 0 75.647346
-4.5593238 -15.500038 1.6053463 0 0 0 0 75.652298
-5.2892036 -16.504351 2.1396677 0 0 0 0 75.657242
-5.8084769 -16.86146 2.5919614 0 0 0 0 75.662193
-6.1421113 -16.663116 2.9777317 0 0 0 0 75.667137
-4.0207114 -14.981725 1.5633501 0 0 0 0 75.672089
-4.4994721 -15.279202 1.9858978 0 0 0 0 75.677032
-5.1886911 -16.265917 2.4919083 0 0 0 0 75.681976
-5.79778 -16.890036 2.9946337 0 0 0 0 75.686928
-3.6889176 -15.177595 1.59454 0 0 0 0 75.691872
-4.0429373 -15.014507 1.9536078 0 0 0 0 75.696823
-4.4015684 -14.996116 2.2937074 0 0 0 0 75.701767
-5.1019926 -16.028963 2.8249707 0 0 0 0 75.706711
-3.3556395 -15.397556 1.6294304 0 0 0 0 75.711662
-3.718991 -15.205163 1.9797747 0 0 0 0 75.716606
-4.0444646 -15.041015 2.2931807 0 0 0 0 75.721558
-4.3726311 -14.907925 2.6141458 0 0 0 0 75.726501
-3.0184288 -15.619629 1.6663401 0 0 0 0 75.731445
-3.3960254 -15.44093 2.0143366 0 0 0 0 75.736397
-3.731113 -15.261485 2.3198309 0 0 0 0 75.741341
-4.0646396 -15.101152 2.6310914 0 0 0 0 75.746292
-2.67119 -15.83893 1.7054045 0 0 0 0 75.751236
-3.0623417 -15.641857 2.0454841 0 0 0 0 75.756187
-3.4083493 -15.46113 2.3458667 0 0 0 0 75.761131
-3.7475679 -15.289577 2.6492074 0 0 0 0 75.766075
-2.3200071 -16.060328 1.7454886 0 0 0 0 75.771027
-2.7221098 -15.862987 2.0814424 0 0 0 0 75.77597
-3.0816677 -15.664859 2.3718953 0 0 0 0 75.780922
-3.4328647 -15.495004 2.6700723 0 0 0 0 75.785866
-1.9631171 -16.294888 1.7884666 0 0 0 0 75.79081
-2.3777552 -16.078192 2.1165285 0 0 0 0 75.795761
-2.7501934 -15.876741 2.4018736 0 0 0 0 75.800705
-3.1088214 -15.684576 2.6882567 0 0 0 0 75.805656
-1.5952774 -16.530695 1.8335571 0 0 0 0 75.8106
-2.0264878 -16.296562 2.1536546 0 0 0 0 75.815544
-2.4078269 -16.092871 2.433924 0 0 0 0 75.820496
-2.7822609 -15.895288 2.7121928 0 0 0 0 75.825439
-1.2214556 -16.766638 1.8797168 0 0 0 0 75.830391
-1.6655266 -16.528187 2.19472 0 0 0 0 75.835335
-2.0614266 -16.307085 2.4660482 0 0 0 0 75.840286
-2.4457493 -16.107227 2.73823 0 0 0 0 75.84523
-0.83839959 -16.989784 1.9271555 0 0 0 0 75.850174
-1.2995054 -16.75593 2.236897 0 0 0 0 75.855125
-1.7075071 -16.54351 2.5019672 0 0 0 0 75.860069
-2.10641 -16.327242 2.7651942 0 0 0 0 75.865021
-0.44231245 -17.257318 1.9831607 0 0 0 0 75.869965
-0.92095852 -17.004995 2.2839398 0 0 0 0 75.874908
-1.3463916 -16.769096 2.5391154 0 0 0 0 75.87986
-1.7552099 -16.552538 2.7952287 0 0 0 0 75.884804
-0.041601226 -17.494894 2.0356178 0 0 0 0 75.889755
-0.5362041 -17.243189 2.3312006 0 0 0 0 75.894699
-0.97631389 -16.995878 2.5773542 0 0 0 0 75.899651
-1.4000076 -16.77693 2.826323 0 0 0 0 75.904594
0.36748147 -17.234779 2.034771 0 0 0 0 75.909538
-0.14187363 -17.500633 2.3823197 0 0 0 0 75.91449
-0.59830207 -17.271948 2.6240339 0 0 0 0 75.919434
-1.0348316 -17.002527 2.8575194 0 0 0 0 75.924385
0.76895767 -17.194925 2.0589221 0 0 0 0 75.929329
0.25826323 -17.247133 2.3652821 0 0 0 0 75.934273
-0.20631337 -17.501215 2.6654985 0 0 0 0 75.939224
-0.66148818 -17.265417 2.8973186 0 0 0 0 75.944168
0.652843 -17.159929 2.3739815 0 0 0 0 75.954063
0.1917768 -17.302662 2.6457105 0 0 0 0 75.959007
-0.27482972 -17.51256 2.9364834 0 0 0 0 75.963959
0.58146858 -17.170088 2.6349552 0 0 0 0 75.978798
0.11987217 -17.339811 2.9063148 0 0 0 0 75.983749
1.8716069 -16.202881 2.0357966 0 0 0 0 75.988693
0.97241324 -17.070673 2.6327808 0 0 0 0 75.998589
0.50968403 -17.160984 2.8771765 0 0 0 0 76.003532
2.1978638 -15.791901 2.0170193 0 0 0 0 76.008484
1.7877859 -16.55575 2.3590899 0 0 0 0 76.013428
1.353084 -16.889893 2.6195722 0 0 0 0 76.018372
0.87837374 -16.755198 2.8118107 0 0 0 0 76.023323
2.5260465 -15.478189 2.0129814 0 0 0 0 76.028267
1.7079362 -16.56027 2.5840442 0 0 0 0 76.038162
1.2376399 -16.414431 2.7594798 0 0 0 0 76.043106
2.8087256 -15.018871 1.9880013 0 0 0 0 75.803604
1.6174408 -16.494791 2.7766366 0 0 0 0 75.818443
2.8555605 -13.484159 1.8227972 0 0 0 0 75.823395
2.6705709 -14.942135 2.2053733 0 0 0 0 75.828339
1.9475766 -16.064228 2.7111175 0 0 0 0 75.838234
3.0850272 -13.063225 1.8000076 0 0 0 0 75.843178
2.7400725 -13.487631 2.0213795 0 0 0 0 75.848129
2.6027687 -15.018414 2.3935339 0 0 0 0 75.853073
3.2957823 -12.628901 1.7751842 0 0 0 0 75.862968
2.9860642 -13.144004 1.9957616 0 0 0 0 75.867912
2.6723092 -13.52949 2.1790028 0 0 0 0 75.872864
3.5423174 -12.395678 1.776123 0 0 0 0 75.882759
3.1917074 -12.675321 1.9523349 0 0 0 0 75.887703
2.9322026 -13.243132 2.1517909 0 0 0 0 75.892647
2.6118095 -13.614375 2.3271368 0 0 0 0 75.897598
3.7511127 -12.05452 1.7640563 0 0 0 0 75.902542
3.4420052 -12.459069 1.9450939 0 0 0 0 75.907494
3.1610677 -12.864943 2.1094389 0 0 0 0 75.912437
2.8728833 -13.325881 2.2879684 0 0 0 0 75.917381
3.9805405 -11.825997 1.7667443 0 0 0 0 75.922333
3.656595 -12.133908 1.9238844 0 0 0 0 75.927277
3.3813579 -12.513659 2.0716369 0 0 0 0 75.932228
3.091795 -12.905238 2.2270644 0 0 0 0 75.937172
4.2614393 -11.763858 1.793834 0 0 0 0 75.942123
3.8730836 -11.8609 1.9100115 0 0 0 0 75.947067
3.5996728 -12.207467 2.0422208 0 0 0 0 75.952011
3.3198059 -12.572029 2.1831155 0 0 0 0 75.956963
4.1492958 -11.788535 1.9271821 0 0 0 0 75.966858
3.8072224 -11.890051 2.0118337 0 0 0 0 75.971802
3.5514643 -12.302051 2.1493764 0 0 0 0 75.976746
4.0806456 -11.811525 2.0210545 0 0 0 0 75.991592
3.7415078 -11.920989 2.0976303 0 0 0 0 75.996536
5.0255442 -11.366552 1.8510054 0 0 0 0 76.00148
4.0141149 -11.838328 2.0978966 0 0 0 0 76.016327
6.0618496 -9.8177023 1.8527243 0 0 0 0 76.120209
7.1013184 -8.2416582 1.8970397 0 0 0 0 76.258728
7.1181397 -7.2181025 1.8280078 0 0 0 0 76.36097
7.164609 -6.9458857 1.8192244 0 0 0 0 76.38076
7.1005077 -7.3046951 1.8156571 0 0 0 0 76.385704
7.2069783 -8.2293186 1.8325205 0 0 0 0 76.395599
7.251966 -6.7236495 1.8222594 0 0 0 0 76.400543
7.1139531 -6.9916143 1.7920309 0 0 0 0 76.405495
7.0853934 -7.3328948 1.7721137 0 0 0 0 76.410439
7.3568177 -6.5238466 1.8312049 0 0 0 0 76.420334
7.2347593 -6.7970595 1.796092 0 0 0 0 76.425285
7.1078086 -7.0239372 1.7445397 0 0 0 0 76.430229
7.4528365 -6.3168421 1.8381457 0 0 0 0 76.440125
7.3280616 -6.5808759 1.7941208 0 0 0 0 76.445068
7.256228 -6.8499198 1.7476537 0 0 0 0 76.45002
7.1039753 -7.0510583 1.6791424 0 0 0 0 76.454964
7.572258 -6.1364026 1.8520114 0 0 0 0 76.459908
7.4262433 -6.3698187 1.7941422 0 0 0 0 76.464859
7.3193645 -6.5989561 1.7327925 0 0 0 0 76.469803
7.2633901 -6.8792195 1.6793591 0 0 0 0 76.474754
7.6847939 -5.9508142 1.864868 0 0 0 0 76.479698
7.5379801 -6.1781168 1.8000686 0 0 0 0 76.48465
7.4363112 -6.401247 1.7308588 0 0 0 0 76.489594
7.3276792 -6.624197 1.6585672 0 0 0 0 76.494537
7.7973099 -5.765255 1.8797277 0 0 0 0 76.499489
7.6507392 -5.9854369 1.806024 0 0 0 0 76.504433
7.5580869 -6.2106771 1.7318902 0 0 0 0 76.509384
7.4438577 -6.4183903 1.6507344 0 0 0 0 76.514328
7.9392524 -5.6043954 1.9026088 0 0 0 0 76.519272
7.7810712 -5.8111925 1.8179438 0 0 0 0 76.524223
7.648427 -5.9944134 1.7278973 0 0 0 0 76.529167
7.5706935 -6.2278533 1.6468267 0 0 0 0 76.534119
8.0044775 -5.3887591 1.9073175 0 0 0 0 76.539062
7.9025497 -5.6307468 1.8278455 0 0 0 0 76.544006
7.7936854 -5.8264132 1.735912 0 0 0 0 76.548958
7.6740017 -6.0157938 1.6389328 0 0 0 0 76.553902
8.1611776 -5.2382541 1.9342418 0 0 0 0 76.558853
7.9964938 -5.4296842 1.8327006 0 0 0 0 76.563797
7.9123969 -5.6378298 1.7398915 0 0 0 0 76.568748
7.8027606 -5.8283272 1.6370143 0 0 0 0 76.573692
8.2923012 -5.0691719 1.9561152 0 0 0 0 76.578636
8.1514282 -5.2720346 1.8517008 0 0 0 0 76.583588
8.007493 -5.4327078 1.7388161 0 0 0 0 76.588531
7.9354196 -5.6449685 1.6370908 0 0 0 0 76.593483
8.4924955 -4.9377055 1.9953085 0 0 0 0 76.598427
8.2837038 -5.0988932 1.8676435 0 0 0 0 76.603371
8.1734343 -5.2772245 1.7539195 0 0 0 0 76.608322
8.0376034 -5.437933 1.632127 0 0 0 0 76.613266
8.4978962 -4.9706402 1.9019612 0 0 0 0 76.623161
8.3147898 -5.1031966 1.7649835 0 0 0 0 76.628105
8.1879759 -5.2660151 1.638268 0 0 0 0 76.633057
8.5084877 -4.9563699 1.7873087 0 0 0 0 76.647896
8.3305149 -5.086916 1.642416 0 0 0 0 76.652847
8.5194778 -4.9308987 1.6578102 0 0 0 0 76.67263
9.5524864 -4.7214732 1.9510583 0 0 0 0 76.70726
9.5820246 -4.6840243 1.795948 0 0 0 0 76.731995
10.416838 -3.0791378 2.4138479 0 0 0 0 77.444893
10.486204 -3.0603187 2.2469938 0 0 0 0 77.469627
10.527033 -3.1459169 1.8613371 0 0 0 0 77.499306
11.399795 -1.5590233 2.6851959 0 0 0 0 77.583405
11.27825 -1.9634603 1.9500767 0 0 0 0 77.598251
11.401516 -1.4648589 2.4495678 0 0 0 0 77.608147
11.496376 -1.601747 2.2288151 0 0 0 0 77.613091
11.419198 -1.7116058 1.9693369 0 0 0 0 77.618034
11.527369 -1.4510282 1.9843227 0 0 0 0 77.637825
11.687462 -1.1896384 2.0089574 0 0 0 0 77.657616
11.846677 -0.92126083 2.0356832 0 0 0 0 77.677399
11.343578 -0.31770551 2.7320294 0 0 0 0 77.68235
11.41607 -0.43974012 2.4832053 0 0 0 0 77.687294
11.505089 -0.53122091 2.2430053 0 0 0 0 77.692245
12.01595 -0.64911956 2.0645885 0 0 0 0 77.697189
11.372334 -0.072641432 2.7548499 0 0 0 0 77.702133
11.382242 -0.18610078 2.4843781 0 0 0 0 77.707085
11.428638 -0.26456803 2.2338374 0 0 0 0 77.712029
11.501036 -0.34550992 1.9795784 0 0 0 0 77.71698
11.508831 0.17288311 2.8029974 0 0 0 0 77.721924
11.508028 0.067785472 2.5225086 0 0 0 0 77.726868
11.535706 -0.0031429178 2.2608423 0 0 0 0 77.731819
11.517507 -0.075936131 1.9845884 0 0 0 0 77.736763
11.673389 0.42571938 2.8595939 0 0 0 0 77.741714
11.744744 0.33205071 2.5871441 0 0 0 0 77.746658
11.675804 0.26350692 2.2953279 0 0 0 0 77.751602
11.671888 0.20149469 2.0143964 0 0 0 0 77.756554
11.831096 0.68569314 2.9162099 0 0 0 0 77.761497
11.835833 0.59771192 2.6200228 0 0 0 0 77.766449
11.856039 0.54219347 2.3404763 0 0 0 0 77.771393
11.862368 0.48807243 2.052778 0 0 0 0 77.776344
11.990963 0.95459205 2.9749813 0 0 0 0 77.781288
12.013968 0.87729603 2.6751645 0 0 0 0 77.786232
12.042393 0.8277238 2.3877995 0 0 0 0 77.791183
12.066996 0.78331578 2.0944581 0 0 0 0 77.796127
12.406837 1.2583781 3.0993769 0 0 0 0 77.801079
12.447132 1.1869268 2.7858503 0 0 0 0 77.806023
12.470935 1.147648 2.48457 0 0 0 0 77.810966
12.510835 1.1101112 2.178509 0 0 0 0 77.815918
12.602064 1.5513772 3.1709275 0 0 0 0 77.820862
12.632713 1.4902946 2.8454251 0 0 0 0 77.825813
12.670794 1.4598384 2.5364404 0 0 0 0 77.830757
12.728049 1.4360334 2.2247818 0 0 0 0 77.835709
12.773474 1.850917 3.2382829 0 0 0 0 77.840652
12.820456 1.8025872 2.9071562 0 0 0 0 77.845596
12.872853 1.7839246 2.5925095 0 0 0 0 77.850548
12.925437 1.7703584 2.2709348 0 0 0 0 77.855492
12.780978 2.1343322 3.2664099 0 0 0 0 77.860443
12.884261 2.1037672 2.942219 0 0 0 0 77.865387
12.949005 2.100883 2.6259427 0 0 0 0 77.870331
13.015884 2.0981109 2.2986922 0 0 0 0 77.875282
12.436111 2.3521497 3.2053065 0 0 0 0 77.880226
12.505591 2.3303089 2.878823 0 0 0 0 77.885178
12.57048 2.3373547 2.567687 0 0 0 0 77.890121
12.627555 2.3477027 2.2464998 0 0 0 0 77.895065
12.090384 2.5579314 3.1423216 0 0 0 0 77.571648
12.155025 2.5480995 2.8209426 0 0 0 0 77.576591
12.199042 2.5635369 2.5106635 0 0 0 0 77.581535
12.244227 2.5830498 2.1934536 0 0 0 0 77.586487
11.828136 2.7707136 3.1041636 0 0 0 0 77.591431
11.894985 2.7727978 2.7859766 0 0 0 0 77.596382
11.969243 2.8045106 2.4842908 0 0 0 0 77.601326
12.06276 2.8459027 2.1779721 0 0 0 0 77.606277
11.719081 3.0128763 3.1042788 0 0 0 0 77.611221
11.76511 3.0204713 2.7799141 0 0 0 0 77.616165
8.7650404 2.2679701 1.8459309 0 0 0 0 77.621117
8.6900349 2.2680166 1.5929976 0 0 0 0 77.62606
11.428421 3.200356 3.0574253 0 0 0 0 77.631012
11.451581 3.2144203 2.7328715 0 0 0 0 77.635956
8.5746088 2.4301147 1.8229303 0 0 0 0 77.6409
8.4595518 2.4260225 1.5664515 0 0 0 0 77.645851
11.151591 3.3815022 3.0146523 0 0 0 0 77.650795
11.130757 3.3925507 2.6835208 0 0 0 0 77.655746
9.1180105 2.8113053 1.9549086 0 0 0 0 77.66069
9.15903 2.8639233 1.7091144 0 0 0 0 77.665634
10.648732 3.4790728 2.9099634 0 0 0 0 77.670586
10.668112 3.5120251 2.5996265 0 0 0 0 77.675529
8.9377174 2.9821877 1.9361579 0 0 0 0 77.680481
8.9356689 3.0287561 1.6847554 0 0 0 0 77.685425
10.389552 3.6448138 2.8711898 0 0 0 0 77.690376
10.397973 3.6809649 2.5627644 0 0 0 0 77.69532
10.345408 3.7222643 2.2606685 0 0 0 0 77.700264
10.370378 3.7958305 1.9709647 0 0 0 0 77.705215
10.14826 3.807138 2.836587 0 0 0 0 77.710159
10.152811 3.8513296 2.5312262 0 0 0 0 77.715111
10.096322 3.8986564 2.2331662 0 0 0 0 77.720055
10.0792 3.9661262 1.939865 0 0 0 0 77.724998
9.9108047 3.9623599 2.8039324 0 0 0 0 77.72995
9.8843622 4.005229 2.4951749 0 0 0 0 77.734894
9.8561029 4.0688572 2.206686 0 0 0 0 77.739845
9.8109217 4.1329165 1.9119956 0 0 0 0 77.744789
9.6772366 4.1124921 2.7722545 0 0 0 0 77.749741
9.6539297 4.1642442 2.4676588 0 0 0 0 77.754684
9.6096935 4.2301741 2.1810071 0 0 0 0 77.759628
9.5575256 4.2953653 1.8872473 0 0 0 0 77.76458
9.4495487 4.2565079 2.7405627 0 0 0 0 77.769524
9.4002113 4.3067951 2.4356294 0 0 0 0 77.774475
9.3560419 4.3776846 2.1520476 0 0 0 0 77.779419
9.3029585 4.4498277 1.8633736 0 0 0 0 77.784363
9.2277575 4.396379 2.7108853 0 0 0 0 77.789314
9.1815138 4.4535503 2.4100854 0 0 0 0 77.794258
9.1223679 4.5267205 2.1283529 0 0 0 0 77.79921
9.0633612 4.6049323 1.8436913 0 0 0 0 77.804153
9.0128803 4.5330844 2.683248 0 0 0 0 77.809097
8.9576988 4.5944138 2.384397 0 0 0 0 77.814049
8.8996153 4.6734953 2.10776 0 0 0 0 77.818993
8.8235636 4.7500448 1.8238674 0 0 0 0 77.823944
8.8009205 4.6667056 2.6576033 0 0 0 0 77.828888
8.7438555 4.7360206 2.3628404 0 0 0 0 77.833839
8.6717663 4.8153782 2.0870366 0 0 0 0 77.838783
8.6018362 4.9007349 1.8083416 0 0 0 0 77.843727
8.5918684 4.7962565 2.6329372 0 0 0 0 77.848679
8.5308228 4.8676281 2.3401546 0 0 0 0 77.853622
8.4628773 4.9568334 2.0695386 0 0 0 0 77.858574
8.3749027 5.0405493 1.7916005 0 0 0 0 77.863518
8.3826685 4.9178276 2.6071577 0 0 0 0 77.868462
8.3258028 5.0020189 2.3216052 0 0 0 0 77.873413
8.2427635 5.0865364 2.0507395 0 0 0 0 77.878357
8.1558638 5.176177 1.7768975 0 0 0 0 77.883308
8.191535 5.0459485 2.5876904 0 0 0 0 77.888252
8.1226358 5.1283894 2.3019664 0 0 0 0 77.893196
8.0326443 5.2170105 2.0340734 0 0 0 0 77.898148
7.9387445 5.3077698 1.7621611 0 0 0 0 77.903091
7.9972672 5.1661649 2.5660741 0 0 0 0 77.908043
7.9183478 5.248786 2.2822306 0 0 0 0 77.912987
7.8345203 5.3482141 2.0195634 0 0 0 0 77.917938
7.7346168 5.4410429 1.7516072 0 0 0 0 77.922882
7.8109622 5.2861795 2.5475523 0 0 0 0 77.927826
7.7321873 5.3787303 2.2688494 0 0 0 0 77.932777
7.6342645 5.4734497 2.0059443 0 0 0 0 77.937721
7.5274019 5.569397 1.7399465 0 0 0 0 77.942673
7.624578 5.4021983 2.5289738 0 0 0 0 77.947617
7.5408316 5.4978118 2.2532525 0 0 0 0 77.95256
7.4379244 5.5955806 1.9943297 0 0 0 0 77.957512
7.3342671 5.7043958 1.7335505 0 0 0 0 77.962456
7.450294 5.5259018 2.5156503 0 0 0 0 77.967407
7.3453774 5.6119809 2.2375369 0 0 0 0 77.972351
7.2517104 5.7254653 1.9859468 0 0 0 0 77.977303
7.1399641 5.8304348 1.7260152 0 0 0 0 77.982246
7.2697949 5.6377635 2.5000854 0 0 0 0 77.98719
7.1730895 5.7375937 2.2282648 0 0 0 0 77.992142
7.0633078 5.8454118 1.9763981 0 0 0 0 77.997086
6.9445901 5.953486 1.7194247 0 0 0 0 78.002037
7.0963235 5.7514706 2.4856317 0 0 0 0 78.006981
6.9865799 5.8505435 2.215641 0 0 0 0 78.011925
6.8676887 5.953537 1.9645958 0 0 0 0 78.016876
6.7541637 6.0744233 1.7138652 0 0 0 0 78.02182
6.9187417 5.8602505 2.472059 0 0 0 0 78.026772
6.80299 5.9594359 2.202996 0 0 0 0 78.031715
6.6943879 6.08111 1.9603381 0 0 0 0 78.036659
6.5646782 6.1923451 1.7082746 0 0 0 0 78.041611
6.7482882 5.9687014 2.4573946 0 0 0 0 77.800064
6.6397562 6.0845971 2.1966534 0 0 0 0 77.805008
6.507874 6.1927462 1.9515224 0 0 0 0 77.809959
6.3711042 6.3040533 1.7023746 0 0 0 0 77.814903
6.5796785 6.0782413 2.446945 0 0 0 0 77.819847
6.4590306 6.1883879 2.185976 0 0 0 0 77.824799
6.3262324 6.3034887 1.9459308 0 0 0 0 77.829742
6.1896195 6.4247403 1.7009233 0 0 0 0 77.834694
6.4130507 6.1867437 2.4365046 0 0 0 0 77.839638
6.284411 6.2990146 2.178468 0 0 0 0 77.844582
6.1506886 6.4200816 1.9424946 0 0 0 0 77.849533
6.0080838 6.5434175 1.7004433 0 0 0 0 77.854477
6.2463589 6.2932215 2.4280355 0 0 0 0 77.859428
6.1147761 6.4105005 2.1740324 0 0 0 0 77.864372
5.9699779 6.5277972 1.9378716 0 0 0 0 77.869316
5.82336 6.6521764 1.6987859 0 0 0 0 77.874268
6.0755734 6.3938146 2.4174335 0 0 0 0 77.879211
5.9430256 6.5150604 2.1674745 0 0 0 0 77.884163
5.7942634 6.6363854 1.9353213 0 0 0 0 77.889107
5.6488023 6.7706885 1.7003881 0 0 0 0 77.894058
5.9168792 6.5011067 2.4110725 0 0 0 0 77.899002
5.775353 6.6245122 2.163034 0 0 0 0 77.903946
5.6245856 6.7478256 1.9348843 0 0 0 0 77.908897
5.4701543 6.885273 1.7028854 0 0 0 0 77.913841
5.7510309 6.599576 2.4025009 0 0 0 0 77.918793
5.6106572 6.7338772 2.1606286 0 0 0 0 77.923737
5.4538898 6.8582888 1.9344208 0 0 0 0 77.92868
5.2873182 6.9899602 1.7041934 0 0 0 0 77.933632
5.5963759 6.7097635 2.3982289 0 0 0 0 77.938576
5.4408135 6.8353643 2.1570499 0 0 0 0 77.943527
5.2739863 6.9579568 1.9326941 0 0 0 0 77.948471
5.113668 7.1054206 1.7087632 0 0 0 0 77.953423
5.4315143 6.809176 2.3926821 0 0 0 0 77.958366
5.2709112 6.9338551 2.1534286 0 0 0 0 77.96331
5.101161 7.0624557 1.9331205 0 0 0 0 77.968262
4.9390082 7.22089 1.7143204 0 0 0 0 77.973206
5.2666059 6.9056067 2.3860922 0 0 0 0 77.978157
5.107233 7.0461526 2.1550753 0 0 0 0 77.983101
4.9314575 7.1758227 1.9387089 0 0 0 0 77.988045
4.7560797 7.3225455 1.7185837 0 0 0 0 77.992996
5.1047506 7.0069213 2.3836076 0 0 0 0 77.99794
4.9413776 7.1485243 2.1545568 0 0 0 0 78.002892
4.7585702 7.2783008 1.9411058 0 0 0 0 78.007835
4.5824065 7.4389591 1.7271657 0 0 0 0 78.012779
4.9489856 7.1131001 2.3822653 0 0 0 0 78.017731
4.7704439 7.2470031 2.1539211 0 0 0 0 78.022675
4.5918417 7.3896265 1.9457012 0 0 0 0 78.027626
4.4045782 7.5464883 1.7335721 0 0 0 0 78.03257
4.7840052 7.2074981 2.3786449 0 0 0 0 78.037521
4.6086564 7.3542552 2.1565199 0 0 0 0 78.042465
4.4200025 7.4960465 1.9511652 0 0 0 0 78.047409
4.2246294 7.6480637 1.7398691 0 0 0 0 78.052361
4.6281986 7.3126545 2.3792872 0 0 0 0 78.057304
4.44277 7.456594 2.1589994 0 0 0 0 78.062256
4.2449942 7.5935473 1.9554653 0 0 0 0 78.0672
4.0519657 7.7664223 1.7514895 0 0 0 0 78.072144
4.4724145 7.4188142 2.3799434 0 0 0 0 78.077095
4.2769217 7.5619073 2.1635203 0 0 0 0 78.082039
4.0824418 7.7167125 1.9662763 0 0 0 0 78.08699
3.8721147 7.8749456 1.7618839 0 0 0 0 78.091934
4.3063655 7.5102282 2.3772669 0 0 0 0 78.096886
4.1120667 7.6662164 2.1670392 0 0 0 0 78.10183
3.908551 7.8221412 1.9747002 0 0 0 0 78.106773
3.6912611 7.9844651 1.7742796 0 0 0 0 78.111725
4.1455288 7.6154547 2.3808475 0 0 0 0 78.116669
3.9421496 7.7686048 2.1724687 0 0 0 0 78.12162
3.7295122 7.9196911 1.98195 0 0 0 0 78.126564
3.5134904 8.0979233 1.7867675 0 0 0 0 78.131508
3.9846656 7.718698 2.3833992 0 0 0 0 78.136459
3.774291 7.8749251 2.1799779 0 0 0 0 78.141403
3.5618806 8.0399418 1.994657 0 0 0 0 78.146355
3.3316858 8.2114258 1.8022063 0 0 0 0 78.151299
3.8175566 7.8081145 2.3826804 0 0 0 0 78.156242
3.6053936 7.97927 2.1874464 0 0 0 0 78.161194
3.3850207 8.1483965 2.0060854 0 0 0 0 78.166138
3.148834 8.3219662 1.8165902 0 0 0 0 78.171089
3.6547015 7.913362 2.3882353 0 0 0 0 78.176033
3.4365182 8.0846176 2.1949286 0 0 0 0 78.180984
3.2039304 8.244957 2.0162947 0 0 0 0 78.185928
2.9650214 8.4355021 1.8330036 0 0 0 0 78.190872
3.496027 8.0284996 2.3959794 0 0 0 0 78.195824
3.2656205 8.1899815 2.204386 0 0 0 0 78.200768
3.0302408 8.3633118 2.0308995 0 0 0 0 78.205719
2.7771583 8.5471106 1.85034 0 0 0 0 78.210663
3.3248951 8.1189508 2.3992245 0 0 0 0 78.215607
3.0907133 8.2954149 2.2147944 0 0 0 0 78.220558
2.8493214 8.4698315 2.0442493 0 0 0 0 78.225502
2.5893254 8.6607065 1.868704 0 0 0 0 78.230453
3.1580832 8.2272606 2.4067719 0 0 0 0 78.235397
2.9148779 8.4048586 2.2262468 0 0 0 0 78.240341
2.6656096 8.5893431 2.0627465 0 0 0 0 78.245293
2.3955209 8.7773876 1.8900372 0 0 0 0 78.250237
2.9882207 8.3336229 2.4152546 0 0 0 0 78.255188
2.7349308 8.5093756 2.2385795 0 0 0 0 78.260132
2.4828582 8.7068367 2.0812266 0 0 0 0 78.265083
2.2027383 8.89505 1.9113961 0 0 0 0 78.270027
2.8156016 8.4389553 2.423943 0 0 0 0 78.332397
2.5573556 8.6187687 2.2512631 0 0 0 0 78.337341
2.2910757 8.8074942 2.096612 0 0 0 0 78.342285
2.00616 9.0087357 1.932904 0 0 0 0 78.347237
2.6426926 8.5433769 2.4333589 0 0 0 0 78.35218
2.376591 8.7342567 2.2677376 0 0 0 0 78.357132
2.1011603 8.9161596 2.1138778 0 0 0 0 78.362076
1.8065704 9.1384811 1.9593468 0 0 0 0 78.367027
2.4668355 8.6508474 2.4437807 0 0 0 0 78.371971
2.1885018 8.8309698 2.2788572 0 0 0 0 78.376915
1.9126735 9.0497026 2.1385102 0 0 0 0 78.381866
1.6048518 9.2612858 1.984665 0 0 0 0 78.38681
2.2857802 8.7474556 2.4519849 0 0 0 0 78.391762
2.0058975 8.9564457 2.2994487 0 0 0 0 78.396706
1.7137271 9.1585197 2.1586657 0 0 0 0 78.401649
1.3991116 9.3841505 2.011934 0 0 0 0 78.406601
2.108223 8.8728828 2.4686372 0 0 0 0 78.411545
1.8161367 9.073101 2.317827 0 0 0 0 78.416496
1.51275 9.2663679 2.1797817 0 0 0 0 78.42144
1.1853015 9.5041695 2.0400629 0 0 0 0 78.426392
1.9202595 8.9755983 2.4798408 0 0 0 0 78.431335
1.6201862 9.1799002 2.3349895 0 0 0 0 78.436279
1.3091539 9.3961906 2.2071738 0 0 0 0 78.441231
0.96982276 9.643158 2.073437 0 0 0 0 78.446175
1.7333754 9.0832672 2.4931266 0 0 0 0 78.451126
1.4236163 9.3086338 2.3584526 0 0 0 0 78.45607
1.1023508 9.5141239 2.2313583 0 0 0 0 78.461014
0.7500633 9.7672653 2.1045485 0 0 0 0 78.465965
1.5438191 9.2108974 2.5136604 0 0 0 0 78.470909
1.2239256 9.4314346 2.381793 0 0 0 0 78.475861
0.88987631 9.6520815 2.262754 0 0 0 0 78.480804
0.52666914 9.9113979 2.1398959 0 0 0 0 78.485748
1.3512986 9.3396053 2.5331719 0 0 0 0 78.4907
1.0161278 9.54842 2.4039505 0 0 0 0 78.495644
0.67443365 9.7920895 2.2951412 0 0 0 0 78.500595
0.29416019 10.051679 2.178076 0 0 0 0 78.505539
1.1515968 9.459466 2.5524695 0 0 0 0 78.51049
0.80745178 9.6723995 2.428195 0 0 0 0 78.515434
0.4507398 9.9192848 2.3262453 0 0 0 0 78.520378
0.058703557 10.195011 2.2172618 0 0 0 0 78.52533
0.94901705 9.58636 2.5738299 0 0 0 0 78.530273
0.59192383 9.8064547 2.4574962 0 0 0 0 78.535225
0.22446918 10.070456 2.3636551 0 0 0 0 78.540169
-0.18654209 10.35148 2.2615113 0 0 0 0 78.545113
0.74236637 9.7103291 2.5960982 0 0 0 0 78.550064
0.37256795 9.950551 2.4898911 0 0 0 0 78.555008
-0.011093565 10.206835 2.3997402 0 0 0 0 78.559959
-0.43800637 10.496111 2.3035157 0 0 0 0 78.564903
0.52774864 9.8364525 2.6192973 0 0 0 0 78.569847
0.14613385 10.090796 2.5221431 0 0 0 0 78.574799
-0.2533924 10.358303 2.439954 0 0 0 0 78.579742
-0.69623148 10.655801 2.3516481 0 0 0 0 78.584694
0.3082912 9.9726248 2.6465778 0 0 0 0 78.589638
-0.086218044 10.236142 2.5563931 0 0 0 0 78.594589
-0.50083208 10.50288 2.4800062 0 0 0 0 78.599533
-0.96552563 10.812711 2.4006033 0 0 0 0 78.604477
0.084898934 10.111882 2.673852 0 0 0 0 78.609428
-0.32694119 10.361707 2.5872591 0 0 0 0 78.614372
-0.75696987 10.665559 2.5262055 0 0 0 0 78.619324
-1.2415676 10.984696 2.4546869 0 0 0 0 78.624268
-0.14752594 10.251287 2.704016 0 0 0 0 78.629211
-0.57299995 10.525246 2.6285946 0 0 0 0 78.634163
-1.023214 10.822467 2.5711966 0 0 0 0 78.639107
-1.526679 11.153859 2.5096173 0 0 0 0 78.644058
-0.38573614 10.402777 2.7372777 0 0 0 0 78.649002
-0.82817769 10.68298 2.6697342 0 0 0 0 78.653954
-1.2963091 10.98945 2.6212449 0 0 0 0 78.658897
-1.8248216 11.323256 2.5673883 0 0 0 0 78.663841
-0.63104546 10.549417 2.7703822 0 0 0 0 78.668793
-1.092487 10.834892 2.7116776 0 0 0 0 78.673737
-1.5794734 11.153633 2.6721272 0 0 0 0 78.678688
-2.1335576 11.515795 2.6313539 0 0 0 0 78.683632
-0.88734531 10.698248 2.8063805 0 0 0 0 78.688576
-1.3693808 11.010974 2.7608054 0 0 0 0 78.693527
-1.8784285 11.33205 2.7300141 0 0 0 0 78.698471
-2.4573569 11.707594 2.6991212 0 0 0 0 78.703423
-1.1495501 10.852193 2.8433766 0 0 0 0 78.708366
-1.6526057 11.169233 2.8066015 0 0 0 0 78.71331
-2.1834204 11.508599 2.7877982 0 0 0 0 78.718262
-2.7913704 11.889598 2.7676218 0 0 0 0 78.723206
-1.4224019 11.027266 2.8875389 0 0 0 0 78.728157
-1.9428303 11.328614 2.8543251 0 0 0 0 78.733101
-2.5060489 11.707408 2.8536775 0 0 0 0 78.738052
-3.142776 12.106829 2.8464036 0 0 0 0 78.742996
-1.7055755 11.185584 2.9293344 0 0 0 0 78.74794
-2.2523885 11.527236 2.9143634 0 0 0 0 78.752892
-2.837817 11.899412 2.9193456 0 0 0 0 78.757835
-3.5168736 12.342455 2.9311626 0 0 0 0 78.762787
-1.9993705 11.36506 2.9762964 0 0 0 0 78.767731
-2.5750356 11.72212 2.9751849 0 0 0 0 78.772675
-3.184433 12.101661 2.9899728 0 0 0 0 78.777626
-3.8917348 12.53817 3.0103457 0 0 0 0 78.78257
-2.309005 11.555786 3.0292199 0 0 0 0 78.787521
-2.902952 11.902163 3.0327289 0 0 0 0 78.792465
-3.5546873 12.327268 3.070636 0 0 0 0 78.797417
