# .PCD v0.7 - Point Cloud Data file format
VERSION 0.7
FIELDS x y z normal_x normal_y normal_z intensity curvature
SIZE 4 4 4 4 4 4 4 4
TYPE F F F F F F F F
COUNT 1 1 1 1 1 1 1 1
WIDTH 967
HEIGHT 1
VIEWPOINT 0 0 0 1 0 0 0
POINTS 967
DATA ascii
5.714025 12.060487 2.7267962 0 0 0 0 50.447716
6.8680415 11.299046 2.6541667 0 0 0 0 50.45266
6.3575292 11.591573 2.6678658 0 0 0 0 50.457603
5.9008675 11.900394 2.7007339 0 0 0 0 50.462555
5.430326 12.188137 2.7285826 0 0 0 0 50.467499
6.6013727 11.440746 2.6299996 0 0 0 0 50.47245
6.1056156 11.769371 2.6616931 0 0 0 0 50.477394
5.6498575 12.086217 2.7095487 0 0 0 0 50.482338
5.2285357 12.503263 2.7763727 0 0 0 0 50.487289
6.350544 11.609532 2.6128449 0 0 0 0 50.492233
5.8546691 11.951176 2.6585143 0 0 0 0 50.497185
5.3839707 12.250955 2.7123389 0 0 0 0 50.502129
6.0917282 11.775276 2.5956631 0 0 0 0 50.512024
5.601727 12.130968 2.6563284 0 0 0 0 50.516968
5.2029052 12.620182 2.761117 0 0 0 0 50.521919
5.8526955 11.97713 2.5884936 0 0 0 0 50.531815
5.3536229 12.337793 2.6611149 0 0 0 0 50.536758
5.5829983 12.118811 2.5703032 0 0 0 0 50.551598
5.3458214 12.343679 2.5700984 0 0 0 0 50.571388
4.7883115 13.568124 2.6791494 0 0 0 0 50.580254
3.3924448 14.501737 2.9795825 0 0 0 0 50.60994
3.3225684 14.552218 2.841243 0 0 0 0 50.644569
2.1792023 15.1611 3.1880841 0 0 0 0 50.654465
1.8729458 15.540719 3.263351 0 0 0 0 50.674248
3.2989569 14.577868 2.6651108 0 0 0 0 50.679199
1.7816327 15.498028 3.0950613 0 0 0 0 50.708878
1.4355551 15.678354 3.1184871 0 0 0 0 50.728668
0.80044895 15.583418 3.2672884 0 0 0 0 50.733612
1.6899215 15.550299 2.9066186 0 0 0 0 50.743507
0.4406569 15.53161 3.2570233 0 0 0 0 50.753403
1.3530524 15.875697 2.9468446 0 0 0 0 50.763298
0.088627942 15.691916 3.2934477 0 0 0 0 50.773186
0.9912653 16.008909 2.954278 0 0 0 0 50.783081
0.34671009 15.621874 3.0804994 0 0 0 0 50.788033
-0.27188417 15.933207 3.3497086 0 0 0 0 50.792976
0.59784013 15.553776 2.8525243 0 0 0 0 50.802872
-0.012570492 15.831141 3.1178153 0 0 0 0 50.807816
-0.64522135 16.143421 3.3999665 0 0 0 0 50.812767
0.91124356 15.627002 2.6295578 0 0 0 0 50.817711
0.23805141 15.685993 2.8619602 0 0 0 0 50.822662
-0.38273963 16.021339 3.1501164 0 0 0 0 50.827606
-1.0266441 16.365597 3.4561708 0 0 0 0 50.83255
0.53755158 15.573077 2.5962377 0 0 0 0 50.837502
-0.1284478 15.941213 2.8951714 0 0 0 0 50.842445
-0.76216382 16.253506 3.1933122 0 0 0 0 50.847397
-1.4273592 16.63769 3.5222194 0 0 0 0 50.852341
0.17248896 15.760262 2.6045625 0 0 0 0 50.857285
-0.50867838 16.148344 2.9204035 0 0 0 0 50.862236
-1.1547332 16.508614 3.2434177 0 0 0 0 50.86718
-1.9585317 18.011517 3.8260202 0 0 0 0 50.872131
-0.2059564 16.01539 2.6227248 0 0 0 0 50.877075
-0.89801103 16.371433 2.9505718 0 0 0 0 50.882027
-1.5718412 16.855621 3.3122804 0 0 0 0 50.886971
-2.382179 18.09343 3.8592739 0 0 0 0 50.891914
-0.59319156 16.230467 2.6379135 0 0 0 0 50.896866
-1.3055595 16.631437 2.9876082 0 0 0 0 50.90181
-2.031291 17.431494 3.4286134 0 0 0 0 50.906761
-0.99370444 16.492487 2.6629727 0 0 0 0 50.916649
-1.8322093 17.952162 3.2174971 0 0 0 0 50.9216
-2.479157 17.731331 3.4934247 0 0 0 0 50.926544
-1.4196568 16.832392 2.6988075 0 0 0 0 50.93644
-2.2458358 17.872028 3.1980431 0 0 0 0 50.941383
-3.0547731 18.674728 3.6857207 0 0 0 0 50.946335
-3.8218067 18.956518 4.1033878 0 0 0 0 50.951279
-1.9556053 18.049978 2.876816 0 0 0 0 50.95623
-2.6905367 17.97879 3.2121694 0 0 0 0 50.961174
-3.5495548 18.955315 3.7503741 0 0 0 0 50.966125
-3.1630158 18.218451 3.2529731 0 0 0 0 50.980965
-3.666991 18.540977 3.3125198 0 0 0 0 51.000748
-3.4419713 18.963575 2.9806497 0 0 0 0 51.015594
-4.3489242 19.548798 3.4932864 0 0 0 0 51.020538
-5.1920834 19.984325 3.9974022 0 0 0 0 51.02549
-3.9088826 18.935158 2.9658935 0 0 0 0 51.035378
-4.9457173 20.008883 3.5792468 0 0 0 0 51.040329
-4.4475894 19.201839 2.999944 0 0 0 0 51.643715
-7.0199566 20.175871 4.5542121 0 0 0 0 51.658554
-5.0227089 19.544859 3.0470662 0 0 0 0 51.663506
-6.7419238 20.120525 4.0883436 0 0 0 0 51.673393
-7.6583319 20.512661 4.6710811 0 0 0 0 51.678345
-5.8392897 20.639807 3.2119691 0 0 0 0 51.683289
-6.4980006 20.087994 3.6203048 0 0 0 0 51.68824
-7.3862176 20.458242 4.1831861 0 0 0 0 51.693184
-8.4690332 21.218687 4.878644 0 0 0 0 51.698128
-6.2081985 20.096668 3.1283784 0 0 0 0 51.703079
-7.1167126 20.342785 3.6793859 0 0 0 0 51.708023
-8.2374687 21.275038 4.3804002 0 0 0 0 51.712975
-8.8141966 20.711687 4.809072 0 0 0 0 51.717918
-6.8411012 20.39636 3.1753263 0 0 0 0 51.72287
-7.9475894 21.117615 3.8377478 0 0 0 0 51.727814
-8.9498348 21.616392 4.484952 0 0 0 0 51.732758
-9.0369673 19.982241 4.6883554 0 0 0 0 51.737709
-7.5456967 20.810698 3.2417915 0 0 0 0 51.742653
-8.7451935 21.678549 3.9595914 0 0 0 0 51.747604
-9.295784 21.074368 4.4094315 0 0 0 0 51.752548
-9.3208513 19.431543 4.6110978 0 0 0 0 51.757492
-8.4418144 21.644135 3.3787842 0 0 0 0 51.762444
-9.1435623 21.207266 3.8957455 0 0 0 0 51.767387
-9.6429787 20.57235 4.3438382 0 0 0 0 51.772339
-9.6374073 18.989714 4.558526 0 0 0 0 51.777283
-8.9212046 21.345465 3.3413267 0 0 0 0 51.782227
-9.4945726 20.675217 3.8251872 0 0 0 0 51.787178
-9.9812002 20.07538 4.2802701 0 0 0 0 51.792122
-9.7608595 18.214766 4.4262805 0 0 0 0 51.797073
-9.2870436 20.787323 3.2637546 0 0 0 0 51.802017
-9.8356628 20.157221 3.7576437 0 0 0 0 51.806969
-10.311554 19.600456 4.2216945 0 0 0 0 51.811913
-10.038324 17.760132 4.3718843 0 0 0 0 51.816856
-9.6511736 20.276207 3.1981087 0 0 0 0 51.821808
-10.177895 19.664223 3.6940522 0 0 0 0 51.826752
-10.632976 19.136583 4.1671348 0 0 0 0 51.831703
-10.333168 17.366428 4.3323154 0 0 0 0 51.836647
-9.9962187 19.751184 3.1315608 0 0 0 0 51.841591
-10.501165 19.175331 3.6365273 0 0 0 0 51.846542
-10.944369 18.668756 4.1126204 0 0 0 0 51.851486
-10.584668 16.91893 4.2800088 0 0 0 0 51.856438
-10.342517 19.268169 3.073935 0 0 0 0 51.861382
-10.815463 18.692484 3.5790272 0 0 0 0 51.866325
-11.246865 18.216988 4.0641122 0 0 0 0 51.871277
-10.781721 16.402687 4.2100348 0 0 0 0 51.876221
-10.673807 18.784231 3.0173695 0 0 0 0 51.881172
-11.137937 18.2386 3.5284443 0 0 0 0 51.886116
-11.538363 17.766272 4.015646 0 0 0 0 51.891068
-10.601484 15.374233 4.0084333 0 0 0 0 51.896011
-10.997105 18.301332 2.9628329 0 0 0 0 51.900955
-11.434334 17.771852 3.4779859 0 0 0 0 51.905907
-11.83396 17.332537 3.9711335 0 0 0 0 51.910851
-10.987702 15.199129 4.0251284 0 0 0 0 51.915802
-11.304423 17.821524 2.9113536 0 0 0 0 51.920746
-11.73887 17.328068 3.4324551 0 0 0 0 51.92569
-12.135769 16.930786 3.9375405 0 0 0 0 51.930641
-11.160034 14.730034 3.9671743 0 0 0 0 51.935585
-11.607839 17.357738 2.8638616 0 0 0 0 51.940536
-12.062716 16.934195 3.398761 0 0 0 0 51.94548
-12.406367 16.497183 3.8961256 0 0 0 0 51.950432
-11.24581 14.177361 3.8847086 0 0 0 0 51.955376
-11.920391 16.916908 2.8212931 0 0 0 0 51.96032
-12.327138 16.472616 3.3524187 0 0 0 0 51.965271
-12.707252 16.109434 3.8655105 0 0 0 0 51.970215
-11.37106 13.699507 3.821959 0 0 0 0 51.975166
-12.21089 16.467194 2.778827 0 0 0 0 51.98011
-11.341721 14.433189 2.9837735 0 0 0 0 51.985054
-11.632622 14.076385 3.4362113 0 0 0 0 51.990005
-11.513518 13.254576 3.7680852 0 0 0 0 51.994949
-12.515587 16.049412 2.7442479 0 0 0 0 51.999901
-12.900558 15.641247 3.2833962 0 0 0 0 52.004845
-11.880669 13.719928 3.4097614 0 0 0 0 52.009789
-11.640001 12.814731 3.7152669 0 0 0 0 52.01474
-12.807211 15.620694 2.7077394 0 0 0 0 52.019684
-13.202486 15.260491 3.2577629 0 0 0 0 52.024635
-11.784674 12.404799 3.670325 0 0 0 0 52.034531
-13.112029 15.222915 2.6791239 0 0 0 0 52.039474
-13.47219 14.843896 3.2263191 0 0 0 0 52.044418
-11.887177 11.970081 3.6185954 0 0 0 0 52.054314
-13.382672 14.795313 2.6486955 0 0 0 0 52.059265
-13.723882 14.425396 3.1959503 0 0 0 0 52.064209
-12.402676 12.476674 3.2915981 0 0 0 0 52.069153
-11.969631 11.530464 3.5629556 0 0 0 0 52.074104
-13.67043 14.387621 2.6211631 0 0 0 0 52.079048
-14.012845 14.049709 3.176357 0 0 0 0 52.084
-13.347322 12.825773 3.4571292 0 0 0 0 52.088943
-12.039084 11.090919 3.5083687 0 0 0 0 52.093895
-13.94016 13.975024 2.5947113 0 0 0 0 52.098839
-14.279674 13.653133 3.1528881 0 0 0 0 52.103783
-12.84996 11.796027 3.253834 0 0 0 0 52.108734
-12.191127 10.740971 3.4802964 0 0 0 0 52.113678
-14.225198 13.585376 2.5761807 0 0 0 0 51.872757
-14.552769 13.273564 3.137398 0 0 0 0 51.877701
-13.308737 11.663462 3.2950633 0 0 0 0 51.882652
-12.246032 10.318354 3.428561 0 0 0 0 51.887596
-14.497008 13.18079 2.5537097 0 0 0 0 51.892548
-14.812682 12.885048 3.1189458 0 0 0 0 51.897491
-13.213182 11.057735 3.2054033 0 0 0 0 51.902435
-12.295634 9.8999243 3.3780124 0 0 0 0 51.907387
-14.773908 12.789185 2.5371957 0 0 0 0 51.912331
-15.074589 12.49552 3.1014869 0 0 0 0 51.917282
-13.477663 10.765231 3.2037795 0 0 0 0 51.922226
-12.407658 9.546195 3.3471067 0 0 0 0 51.92717
-15.094017 12.431356 2.528451 0 0 0 0 51.932121
-15.321486 12.103074 3.0870919 0 0 0 0 51.937065
-13.496866 10.279942 3.1444612 0 0 0 0 51.942017
-12.505652 9.1885366 3.3152637 0 0 0 0 51.94696
-15.326719 12.007974 2.5081654 0 0 0 0 51.951912
-14.008784 10.535472 2.764925 0 0 0 0 51.956856
-13.59961 9.8762484 3.1116719 0 0 0 0 51.9618
-12.572518 8.8130331 3.2765763 0 0 0 0 51.966751
-14.026296 10.449415 2.246942 0 0 0 0 51.971695
-14.213837 10.175255 2.7506502 0 0 0 0 51.976646
-13.677279 9.4626818 3.0750005 0 0 0 0 51.98159
-12.624395 8.4406099 3.2379444 0 0 0 0 51.986534
-15.871546 11.226807 2.4881632 0 0 0 0 51.991486
-14.308407 9.7405987 2.7179444 0 0 0 0 51.996429
-13.722836 9.0342741 3.0314837 0 0 0 0 52.001381
-12.703437 8.0930538 3.2081621 0 0 0 0 52.006325
-15.507765 10.412483 2.3829331 0 0 0 0 52.011269
-14.431119 9.3288002 2.6910877 0 0 0 0 52.01622
-13.813674 8.6486473 3.0017138 0 0 0 0 52.021164
-12.769441 7.7405643 3.1764417 0 0 0 0 52.026115
-15.806926 10.061771 2.384258 0 0 0 0 52.031059
-15.216614 9.33564 2.7908568 0 0 0 0 52.036011
-13.859365 8.2422514 2.9651613 0 0 0 0 52.040955
-12.835501 7.398077 3.1467042 0 0 0 0 52.045898
-16.678255 10.048107 2.4687076 0 0 0 0 52.05085
-15.424645 8.9694071 2.7835767 0 0 0 0 52.055794
-13.896062 7.836904 2.9296443 0 0 0 0 52.060745
-12.856426 7.0368214 3.1101813 0 0 0 0 52.065689
-16.915037 9.6357059 2.4613833 0 0 0 0 52.070633
-15.164911 8.3415585 2.6936252 0 0 0 0 52.075584
-13.959927 7.4584212 2.9009733 0 0 0 0 52.080528
-12.949648 6.7182031 3.0902958 0 0 0 0 52.08548
-0.41394633 0.21385708 0.086880088 0 0 0 0 52.115158
-0.42901438 0.21580248 0.10281909 0 0 0 0 52.12011
-0.43103668 0.21081531 0.11682258 0 0 0 0 52.125053
-0.41182733 0.20684022 0.071909249 0 0 0 0 52.129997
-0.41475263 0.18984355 0.084941469 0 0 0 0 52.154732
-0.43383023 0.19276872 0.10186247 0 0 0 0 52.159683
-0.4328486 0.18779621 0.11487804 0 0 0 0 52.164627
-0.41965207 0.18479186 0.071938984 0 0 0 0 52.169579
-0.42659202 0.16977501 0.085951596 0 0 0 0 52.194313
-0.43865097 0.17073482 0.10090419 0 0 0 0 52.199257
-0.43867883 0.16675863 0.114914 0 0 0 0 52.204208
-0.43650204 0.16669574 0.072925374 0 0 0 0 52.209152
-0.45145658 0.1536366 0.087902054 0 0 0 0 52.233887
-0.45951027 0.15361825 0.10287245 0 0 0 0 52.238831
-0.45653418 0.14965677 0.11589441 0 0 0 0 52.243782
-0.45333511 0.14559926 0.073916912 0 0 0 0 52.248726
-0.40616661 0.1168649 0.080173098 0 0 0 0 52.27346
-0.38915956 0.11097177 0.088255517 0 0 0 0 52.278412
-0.35911867 0.10114497 0.093397789 0 0 0 0 52.283356
-0.37598932 0.10099845 0.063332178 0 0 0 0 52.288307
-0.34487471 0.082177036 0.069506772 0 0 0 0 52.313042
-0.35692173 0.08313147 0.081459187 0 0 0 0 52.317986
-0.35795394 0.082144745 0.092459828 0 0 0 0 52.322929
-0.34376466 0.07416179 0.05853432 0 0 0 0 52.327881
-0.34208959 0.063215911 0.068413369 0 0 0 0 52.08812
-0.36015061 0.066139996 0.081338897 0 0 0 0 52.093063
-0.35516894 0.064182237 0.090365402 0 0 0 0 52.098015
-0.34498996 0.056180835 0.058422893 0 0 0 0 52.102959
-0.33692688 0.04523579 0.066489592 0 0 0 0 52.127693
-0.36099187 0.04812875 0.080390833 0 0 0 0 52.132645
-0.35801968 0.047161911 0.090407595 0 0 0 0 52.137589
-0.34182549 0.037191503 0.057492871 0 0 0 0 52.14254
-0.33777156 0.027226495 0.066541888 0 0 0 0 52.167274
-0.36083272 0.030122938 0.079446927 0 0 0 0 52.172218
-0.35786602 0.030156165 0.08946199 0 0 0 0 52.17717
-0.34166998 0.019187564 0.057549208 0 0 0 0 52.182114
-0.34062126 0.010206217 0.066584483 0 0 0 0 52.206848
-0.35567322 0.012144482 0.078523375 0 0 0 0 52.211792
-0.35170802 0.01318151 0.087540753 0 0 0 0 52.216743
-0.34051403 0.0011891047 0.057609744 0 0 0 0 52.221687
-0.33947608 -0.0057922145 0.066641591 0 0 0 0 52.246422
-0.35952803 -0.003881511 0.078560114 0 0 0 0 52.251373
-0.3595669 -0.0028645976 0.088561326 0 0 0 0 52.256317
-0.34236303 -0.01582581 0.057656549 0 0 0 0 52.261269
-0.33732504 -0.022785107 0.066704683 0 0 0 0 52.286003
-0.35436764 -0.021859838 0.077636972 0 0 0 0 52.290947
-0.34940955 -0.018818917 0.085654952 0 0 0 0 52.295891
-0.34721011 -0.033855505 0.058693051 0 0 0 0 52.300842
-0.34917593 -0.040851541 0.068712823 0 0 0 0 52.325577
-0.36521858 -0.039920941 0.079649001 0 0 0 0 52.330521
-0.36026058 -0.036879942 0.087667018 0 0 0 0 52.335472
-0.35604975 -0.053905576 0.060716897 0 0 0 0 52.340416
-0.35301694 -0.059875827 0.069755279 0 0 0 0 52.36515
-0.36505571 -0.058925059 0.079707623 0 0 0 0 52.370102
-0.36310324 -0.054900546 0.087711662 0 0 0 0 52.375046
-0.3478936 -0.070867248 0.059804734 0 0 0 0 52.37999
-0.35385352 -0.078885369 0.069810085 0 0 0 0 52.404732
-0.36889639 -0.077949546 0.080750056 0 0 0 0 52.409676
-0.36794952 -0.072930537 0.088748239 0 0 0 0 52.414619
-0.35273239 -0.090895377 0.06184509 0 0 0 0 52.419571
-0.36568505 -0.10095058 0.072825372 0 0 0 0 52.444305
-0.36573821 -0.095937073 0.080819458 0 0 0 0 52.449249
-0.36079296 -0.089897603 0.087832235 0 0 0 0 52.454201
-0.37154129 -0.11699945 0.064838931 0 0 0 0 52.459145
-0.35153499 -0.11588053 0.070934743 0 0 0 0 52.483879
-0.37556526 -0.11799319 0.082842901 0 0 0 0 52.488831
-0.36963126 -0.10994812 0.089856215 0 0 0 0 52.493774
-0.34540781 -0.12886274 0.062992267 0 0 0 0 52.498718
-0.39431307 -0.15110956 0.07884609 0 0 0 0 52.523453
-0.35741639 -0.13190253 0.079967141 0 0 0 0 52.528404
-0.35647684 -0.12488519 0.086961731 0 0 0 0 52.533348
-0.39515755 -0.16913085 0.07088384 0 0 0 0 52.5383
-0.38751614 -0.17104542 0.078778751 0 0 0 0 52.315247
-0.40655306 -0.17113134 0.089704588 0 0 0 0 52.32019
-0.40262371 -0.16209778 0.096707895 0 0 0 0 52.325142
-0.41331586 -0.20119521 0.075735837 0 0 0 0 52.330086
-0.4242678 -0.21123956 0.086724378 0 0 0 0 52.35482
-0.40037781 -0.19210277 0.089791365 0 0 0 0 52.359772
-0.39945409 -0.18208572 0.09678068 0 0 0 0 52.364716
-0.41810384 -0.23022386 0.077792138 0 0 0 0 52.369659
-0.4190793 -0.23521487 0.087812558 0 0 0 0 52.394394
-0.42713746 -0.22924575 0.095772251 0 0 0 0 52.399345
-0.43320528 -0.22226384 0.10473828 0 0 0 0 52.404289
-0.43785188 -0.26932842 0.083805166 0 0 0 0 52.409241
-6.3664875 -3.9355204 1.0230051 0 0 0 0 52.429024
-0.43491766 -0.2602894 0.098819979 0 0 0 0 52.438919
-0.43100676 -0.2472575 0.10481614 0 0 0 0 52.443871
-5.7541237 -3.7513037 0.94418359 0 0 0 0 52.448814
-6.2100997 -3.8855252 1.12055 0 0 0 0 52.453758
-6.3001003 -3.7798462 1.2239928 0 0 0 0 52.45871
-5.549675 -3.8122301 0.93012607 0 0 0 0 52.468605
-5.7004566 -3.7558653 1.0464069 0 0 0 0 52.473549
-6.1533976 -3.8860979 1.2087764 0 0 0 0 52.478493
-5.4160457 -3.9145267 0.92785293 0 0 0 0 52.488388
-5.5468593 -3.8450692 1.0341918 0 0 0 0 52.49334
-5.6995983 -3.7847447 1.1344565 0 0 0 0 52.498283
-6.160604 -3.907016 1.3017764 0 0 0 0 52.503235
-5.2664919 -4.0007381 0.92261851 0 0 0 0 52.508179
-5.4132304 -3.9433734 1.0269128 0 0 0 0 52.513123
-5.5469952 -3.8719597 1.1182351 0 0 0 0 52.518074
-5.7037973 -3.7996604 1.2174605 0 0 0 0 52.523018
-5.2036281 -4.1544032 0.93314856 0 0 0 0 52.527969
-5.2676654 -4.0286131 1.0176613 0 0 0 0 52.532913
-5.4053969 -3.9602289 1.1049721 0 0 0 0 52.537857
-5.5641699 -3.888952 1.1981905 0 0 0 0 52.542809
-4.974411 -4.1691914 0.91411895 0 0 0 0 52.547752
-5.1838856 -4.1611743 1.0202409 0 0 0 0 52.552704
-5.2747779 -4.0535545 1.0936743 0 0 0 0 52.557648
-5.4105906 -3.9671693 1.1759599 0 0 0 0 52.562592
-4.840848 -4.25948 0.91283101 0 0 0 0 52.567543
-4.9626408 -4.1780124 0.9971835 0 0 0 0 52.572487
-5.151144 -4.1509137 1.0843567 0 0 0 0 52.577438
-5.2889414 -4.063549 1.1616317 0 0 0 0 52.582382
-4.7112889 -4.3487887 0.9115265 0 0 0 0 52.587334
-4.8290749 -4.2643104 0.9898895 0 0 0 0 52.592278
-4.9707446 -4.1969752 1.0631839 0 0 0 0 52.597221
-5.1792588 -4.1679893 1.1502697 0 0 0 0 52.602173
-4.5787668 -4.4320774 0.91122508 0 0 0 0 52.607117
-4.7084904 -4.3566718 0.98655427 0 0 0 0 52.612068
-4.8391724 -4.2812901 1.0518792 0 0 0 0 52.617012
-4.9729433 -4.1909237 1.1181639 0 0 0 0 52.621956
-4.4462447 -4.5143666 0.90992343 0 0 0 0 52.626907
-4.580945 -4.4409947 0.98223507 0 0 0 0 52.631851
-4.7106185 -4.3636169 1.04256 0 0 0 0 52.636803
-4.8533382 -4.2803068 1.1058196 0 0 0 0 52.641747
-4.3833904 -4.6670189 0.92346042 0 0 0 0 52.64669
-4.4514117 -4.5223069 0.97692031 0 0 0 0 52.651642
-4.5860567 -4.4479623 1.0342293 0 0 0 0 52.656586
-4.7267575 -4.3636527 1.0914948 0 0 0 0 52.661537
-4.2319927 -4.7252021 0.92019701 0 0 0 0 52.666481
-4.3855791 -4.6679482 0.98645782 0 0 0 0 52.671432
-4.4674635 -4.5383387 1.0268861 0 0 0 0 52.676376
-4.5992093 -4.4409914 1.0771649 0 0 0 0 52.68132
-4.0965166 -4.799468 0.91989797 0 0 0 0 52.686272
-4.2451129 -4.7361979 0.98016798 0 0 0 0 52.691216
-4.3867083 -4.6649084 1.0294522 0 0 0 0 52.696167
-4.4766345 -4.524353 1.0648266 0 0 0 0 52.701111
-3.960073 -4.8677268 0.91959381 0 0 0 0 52.706055
-4.100697 -4.7944245 0.97287822 0 0 0 0 52.711006
-4.2542057 -4.7372069 1.0201374 0 0 0 0 52.71595
-4.4068246 -4.658988 1.0653622 0 0 0 0 52.720901
-3.8892229 -5.0193272 0.93416774 0 0 0 0 52.725845
-3.9722068 -4.8687329 0.9695527 0 0 0 0 52.730797
-4.1137567 -4.7984624 1.0088376 0 0 0 0 52.735741
-4.2673478 -4.7222567 1.0500612 0 0 0 0 52.740685
-3.8993673 -5.0153284 0.98012674 0 0 0 0 52.75058
-3.978303 -4.8617411 0.99952209 0 0 0 0 52.755531
-4.1398277 -4.7945881 1.0367281 0 0 0 0 52.760475
-3.9084499 -5.0083585 1.0070844 0 0 0 0 52.775314
-3.9944241 -4.843822 1.0204296 0 0 0 0 52.780266
-3.9141107 -4.9722023 1.0199503 0 0 0 0 52.630844
-3.8472428 -5.1208425 1.0255003 0 0 0 0 52.650635
-3.3660438 -6.2361155 1.0765212 0 0 0 0 52.69516
-3.3901117 -6.2242403 1.095414 0 0 0 0 52.719894
-3.2797682 -6.2217436 1.0629108 0 0 0 0 52.789154
-1.7808484 -7.2861075 1.1982384 0 0 0 0 52.912827
-1.8128221 -7.2453761 1.1570555 0 0 0 0 52.937561
-1.7239062 -7.2651463 1.0245404 0 0 0 0 53.006821
-1.5721642 -7.383286 1.0264217 0 0 0 0 53.026604
-1.4164149 -7.5024004 1.0283238 0 0 0 0 53.046394
-0.58958006 -7.4382977 1.2257253 0 0 0 0 53.051346
-1.0493933 -7.7441187 1.1293454 0 0 0 0 53.061234
-1.2703124 -7.6895533 1.0393118 0 0 0 0 53.066185
-0.41567999 -7.4063063 1.2234329 0 0 0 0 53.071129
-0.62639844 -7.3986521 1.1495291 0 0 0 0 53.07608
-0.88164818 -7.8671465 1.1383108 0 0 0 0 53.081024
-1.115218 -7.8756499 1.0513384 0 0 0 0 53.085968
-0.24462385 -7.3932943 1.2264341 0 0 0 0 53.966003
-0.45316347 -7.4116979 1.1505448 0 0 0 0 53.970955
-0.65378016 -7.4120679 1.0676554 0 0 0 0 53.975899
-0.077144608 -7.4722557 1.2423644 0 0 0 0 53.985794
-0.28231728 -7.3676853 1.1422509 0 0 0 0 53.990738
-0.48362169 -7.4220557 1.0624622 0 0 0 0 53.995689
0.09125106 -7.537209 1.2582734 0 0 0 0 54.005585
-0.11493409 -7.4246621 1.150139 0 0 0 0 54.010529
-0.30793259 -7.3460288 1.0461286 0 0 0 0 54.015472
-0.5250988 -7.4165144 0.95729911 0 0 0 0 54.020424
0.25614446 -7.3182697 1.2266171 0 0 0 0 54.025368
0.055063024 -7.5965867 1.1762638 0 0 0 0 54.030319
-0.14060341 -7.3880196 1.0459883 0 0 0 0 54.035263
-0.34918472 -7.3784833 0.94204092 0 0 0 0 54.040215
0.41211891 -7.1153765 1.1979529 0 0 0 0 54.045158
0.22192679 -7.3706403 1.1416031 0 0 0 0 54.050102
0.031350881 -7.5459495 1.0630958 0 0 0 0 54.055054
-0.17608944 -7.3734598 0.93083572 0 0 0 0 54.059998
0.55806118 -6.9075422 1.1692344 0 0 0 0 54.064949
0.38086557 -7.1597342 1.1099367 0 0 0 0 54.069893
0.20087937 -7.4419565 1.0446848 0 0 0 0 54.074837
-0.0056214384 -7.4374318 0.92975485 0 0 0 0 54.079788
0.6950832 -6.7147565 1.1425058 0 0 0 0 54.084732
0.5298599 -6.9598827 1.0802478 0 0 0 0 54.089684
0.36273861 -7.2150393 1.0090007 0 0 0 0 54.094627
0.16692467 -7.5163832 0.93171436 0 0 0 0 54.099579
0.82712448 -6.5269952 1.1177649 0 0 0 0 54.104523
0.67087805 -6.7650762 1.0515333 0 0 0 0 54.109467
0.51469886 -7.008173 0.97731179 0 0 0 0 54.114418
0.33383325 -7.2984328 0.89707083 0 0 0 0 54.119362
0.95231563 -6.3672667 1.0970484 0 0 0 0 54.124313
0.80490953 -6.574306 1.0247959 0 0 0 0 54.129257
0.6587103 -6.8123469 0.94860917 0 0 0 0 54.134201
0.48972923 -7.079546 0.86337656 0 0 0 0 54.139153
1.0694216 -6.1915917 1.0732647 0 0 0 0 54.144096
0.933047 -6.4035649 1.0010715 0 0 0 0 54.149048
0.79575783 -6.6235604 0.92088944 0 0 0 0 54.153992
0.63777512 -6.8886971 0.83370227 0 0 0 0 54.158936
1.187719 -6.0528946 1.0565593 0 0 0 0 54.163887
1.052163 -6.2288795 0.97629899 0 0 0 0 54.168831
0.92684758 -6.4428062 0.89415908 0 0 0 0 54.173782
0.77874607 -6.6858892 0.80397314 0 0 0 0 54.178726
1.2969389 -5.9002552 1.037786 0 0 0 0 54.183678
1.1693305 -6.0651979 0.95453978 0 0 0 0 54.188622
1.0510011 -6.2750874 0.87042332 0 0 0 0 54.193565
0.9138521 -6.5071125 0.77626508 0 0 0 0 54.198517
1.4011892 -5.7536435 1.0200025 0 0 0 0 54.203461
1.2856928 -5.9375114 0.93784791 0 0 0 0 54.208412
1.1702107 -6.1183934 0.84868735 0 0 0 0 54.213356
1.039929 -6.3253851 0.75051093 0 0 0 0 54.2183
1.5055416 -5.6270218 1.006259 0 0 0 0 54.223251
1.3929473 -5.7908826 0.91907811 0 0 0 0 54.228195
1.2854311 -5.9637227 0.82693774 0 0 0 0 54.233147
1.1621141 -6.1646719 0.72878087 0 0 0 0 54.238091
1.3247021 -4.5234661 0.81830293 0 0 0 0 54.243034
1.4931926 -5.6422968 0.8992731 0 0 0 0 54.247986
1.3946912 -5.8180809 0.80817926 0 0 0 0 54.25293
1.2772959 -6.0030026 0.70601761 0 0 0 0 54.257881
1.4968061 -4.7263231 0.86151272 0 0 0 0 54.262825
1.3050295 -4.4957633 0.72319537 0 0 0 0 54.267776
1.4989483 -5.6714706 0.78839666 0 0 0 0 54.27272
1.38949 -5.8443484 0.68424708 0 0 0 0 54.277664
1.686993 -4.9460583 0.90984035 0 0 0 0 54.282616
1.4720399 -4.6756701 0.75633812 0 0 0 0 54.28756
1.299415 -4.4759798 0.62616688 0 0 0 0 54.292511
1.4967667 -5.7017169 0.66548622 0 0 0 0 54.297455
1.9114844 -5.2225609 0.96843857 0 0 0 0 54.302399
1.660217 -4.885438 0.79363829 0 0 0 0 54.30735
1.456243 -4.6169715 0.64718777 0 0 0 0 54.312294
1.2969954 -4.4841876 0.52420789 0 0 0 0 54.317245
3.7884583 -9.7364531 1.8129265 0 0 0 0 54.322189
1.887822 -5.1749349 0.84527808 0 0 0 0 54.327141
1.6434337 -4.8227601 0.67647707 0 0 0 0 54.332085
1.4324464 -4.5523381 0.52998877 0 0 0 0 54.337029
3.9452477 -9.5085058 1.7902428 0 0 0 0 54.34198
3.7917318 -9.7668352 1.5960647 0 0 0 0 54.346924
1.867005 -5.0983014 0.71707267 0 0 0 0 54.351875
1.622715 -4.766119 0.55330914 0 0 0 0 54.356819
4.1021309 -9.2985497 1.7705956 0 0 0 0 54.361763
3.9525158 -9.5358677 1.5703936 0 0 0 0 54.366714
2.057864 -5.2440753 0.73926538 0 0 0 0 54.371658
1.8341254 -5.0047617 0.5797779 0 0 0 0 54.37661
4.2529984 -9.0856314 1.7499155 0 0 0 0 54.381554
4.1103511 -9.3159113 1.5477313 0 0 0 0 54.386497
3.9837863 -9.5570993 1.3426419 0 0 0 0 54.391449
2.0523982 -5.2183642 0.60323143 0 0 0 0 54.396393
4.3989029 -8.8807383 1.7312293 0 0 0 0 54.401344
4.2702608 -9.1099367 1.5271066 0 0 0 0 54.406288
4.1425672 -9.3261423 1.3169626 0 0 0 0 54.41124
3.0906897 -7.3775158 0.84629738 0 0 0 0 54.416183
2.3303328 -4.4260631 0.87997752 0 0 0 0 54.421127
4.4140916 -8.8900633 1.5043817 0 0 0 0 54.426079
4.3054628 -9.1171503 1.2953463 0 0 0 0 54.431023
4.1739683 -9.3534136 1.0692242 0 0 0 0 54.435974
2.4000733 -4.3248615 0.87064618 0 0 0 0 54.163467
2.3361757 -4.4234643 0.76155806 0 0 0 0 54.168411
4.4552054 -8.8996563 1.2718953 0 0 0 0 54.173355
3.630312 -7.6404243 0.87671542 0 0 0 0 54.178307
2.4695771 -4.229434 0.86380762 0 0 0 0 54.18325
2.4177349 -4.3369641 0.75479144 0 0 0 0 54.188202
2.3597867 -4.4255352 0.64371037 0 0 0 0 54.193146
4.3509526 -8.6348076 0.99096942 0 0 0 0 54.19809
2.5411024 -4.1369958 0.85598439 0 0 0 0 54.203041
2.487211 -4.2355404 0.74594122 0 0 0 0 54.207985
2.4423442 -4.3380308 0.63594663 0 0 0 0 54.212936
2.3794625 -4.4306507 0.51585108 0 0 0 0 54.21788
2.6066041 -4.0415912 0.84912831 0 0 0 0 54.222832
2.5597284 -4.1410975 0.73711878 0 0 0 0 54.227776
2.5137985 -4.2315984 0.62509584 0 0 0 0 54.232719
2.4579439 -4.3291736 0.50604171 0 0 0 0 54.237671
2.6771607 -3.9561529 0.84331489 0 0 0 0 54.242615
2.6292403 -4.04667 0.72928298 0 0 0 0 54.247566
2.5873053 -4.1361465 0.61727613 0 0 0 0 54.25251
2.538456 -4.2336822 0.49725369 0 0 0 0 54.257454
2.7416801 -3.8647506 0.83746272 0 0 0 0 54.262405
2.6967454 -3.9512541 0.72143644 0 0 0 0 54.267349
2.6578033 -4.0387149 0.60843915 0 0 0 0 54.272301
2.611923 -4.1302342 0.48741835 0 0 0 0 54.277245
2.8072228 -3.7773416 0.8316232 0 0 0 0 54.282188
2.7693086 -3.8678002 0.7166366 0 0 0 0 54.28714
2.7303202 -3.9452677 0.60061944 0 0 0 0 54.292084
2.6844025 -4.0297894 0.47858471 0 0 0 0 54.297035
2.8707767 -3.6919439 0.8257789 0 0 0 0 54.301979
2.8318052 -3.7714133 0.70876586 0 0 0 0 54.306931
2.7978253 -3.8508482 0.59377539 0 0 0 0 54.311874
2.7569129 -3.9353423 0.4707633 0 0 0 0 54.316818
2.9393511 -3.6115108 0.82196748 0 0 0 0 54.32177
2.8963392 -3.6820111 0.70191824 0 0 0 0 54.326714
2.8623199 -3.7534506 0.58491188 0 0 0 0 54.331665
2.8253918 -3.8359184 0.46291396 0 0 0 0 54.336609
2.9978864 -3.5241401 0.81709689 0 0 0 0 54.341553
2.9669137 -3.6015654 0.69811618 0 0 0 0 54.346504
2.9389119 -3.6749701 0.58014113 0 0 0 0 54.351448
2.8948941 -3.7404876 0.45507744 0 0 0 0 54.3564
3.0594406 -3.4407485 0.81324816 0 0 0 0 54.361343
3.028441 -3.5121782 0.6922555 0 0 0 0 54.366295
3.0024199 -3.581573 0.57328159 0 0 0 0 54.371239
2.9724658 -3.6580026 0.44930357 0 0 0 0 54.376183
3.1210046 -3.3583581 0.80840164 0 0 0 0 54.381134
3.0879674 -3.4228024 0.68638593 0 0 0 0 54.386078
3.0689549 -3.4941525 0.56844789 0 0 0 0 54.391029
3.0389674 -3.5635865 0.44245589 0 0 0 0 54.395973
3.4660695 -3.5730808 0.87743992 0 0 0 0 54.400917
3.1565509 -3.3443663 0.68257952 0 0 0 0 54.405869
3.129467 -3.4017723 0.56157708 0 0 0 0 54.410812
3.1034698 -3.47018 0.43660131 0 0 0 0 54.415764
4.022059 -3.9714091 0.99381161 0 0 0 0 54.420708
3.6041782 -3.6544433 0.75827891 0 0 0 0 54.425652
3.2151148 -3.3352265 0.55987269 0 0 0 0 54.430603
3.1699769 -3.3777604 0.43075806 0 0 0 0 54.435547
4.9978576 -4.7309575 1.2058302 0 0 0 0 54.440498
4.1993637 -4.0735526 0.86087632 0 0 0 0 54.445442
3.7622783 -3.7316866 0.63620329 0 0 0 0 54.450394
3.3672698 -3.4245024 0.44179088 0 0 0 0 54.455338
5.1072736 -4.6282449 1.207175 0 0 0 0 54.460281
5.0706639 -4.7078552 1.0131751 0 0 0 0 54.465233
4.4448934 -4.2122717 0.72932917 0 0 0 0 54.470177
3.9174266 -3.8029828 0.49610433 0 0 0 0 54.475128
5.1965923 -4.5056663 1.2023886 0 0 0 0 54.480072
5.1679964 -4.5872278 1.0084293 0 0 0 0 54.485016
5.143301 -4.6577511 0.82146609 0 0 0 0 54.489967
4.7095966 -4.3629112 0.57689714 0 0 0 0 54.494911
5.2849054 -4.3830914 1.1985978 0 0 0 0 54.499863
5.2582779 -4.458643 1.0036358 0 0 0 0 54.504807
5.233561 -4.5231729 0.81366056 0 0 0 0 54.50975
5.2129841 -4.6066875 0.61874217 0 0 0 0 54.514702
5.3591757 -4.2516084 1.1917251 0 0 0 0 54.519646
5.3495831 -4.3340507 0.99885517 0 0 0 0 54.524597
5.3308539 -4.396544 0.80890346 0 0 0 0 54.529541
5.3072138 -4.4680815 0.61194718 0 0 0 0 54.534492
5.4515085 -4.1349998 1.1909654 0 0 0 0 54.539436
5.4318419 -4.2015152 0.99301732 0 0 0 0 54.54438
5.4261398 -4.2689257 0.80413556 0 0 0 0 54.549332
5.4094987 -4.3394232 0.60620946 0 0 0 0 54.554276
5.5368176 -4.0124402 1.1871617 0 0 0 0 54.559227
5.5221391 -4.0769248 0.98923266 0 0 0 0 54.564171
5.5194054 -4.138319 0.79935265 0 0 0 0 54.569115
5.4997211 -4.2008376 0.60039663 0 0 0 0 54.574066
5.6181078 -3.8879025 1.1843358 0 0 0 0 54.57901
5.6104207 -3.9493482 0.98443305 0 0 0 0 54.583961
5.6086636 -4.0067368 0.79454964 0 0 0 0 54.588905
5.5808983 -4.0553074 0.59452856 0 0 0 0 54.593857
5.7114429 -3.7722847 1.1835837 0 0 0 0 54.598801
5.7017169 -3.8257473 0.98165566 0 0 0 0 54.603745
5.6938953 -3.8711779 0.78972036 0 0 0 0 54.608696
5.6751366 -3.9206932 0.58974272 0 0 0 0 54.61364
5.7937307 -3.6477389 1.180763 0 0 0 0 54.618591
5.7839727 -3.6952038 0.97782284 0 0 0 0 54.623535
5.7951908 -3.7475142 0.78698951 0 0 0 0 54.628479
5.3247266 -3.4909294 0.54030877 0 0 0 0 54.63343
5.8714261 -3.521709 1.177295 0 0 0 0 54.387337
5.8867006 -3.5790081 0.97748804 0 0 0 0 54.392288
5.8808122 -3.6134272 0.78253925 0 0 0 0 54.397232
5.3823261 -3.3509784 0.53375137 0 0 0 0 54.402184
5.9707565 -3.4060543 1.1785688 0 0 0 0 54.407127
5.971971 -3.4504483 0.97467214 0 0 0 0 54.412071
5.9690585 -3.4808493 0.77972907 0 0 0 0 54.417023
5.9772739 -3.528192 0.5798704 0 0 0 0 54.421967
6.0520444 -3.2815158 1.1767427 0 0 0 0 54.426918
6.0642409 -3.3228419 0.97289044 0 0 0 0 54.431862
6.0683293 -3.3532 0.77797937 0 0 0 0 54.436806
6.0724936 -3.3905721 0.57608259 0 0 0 0 54.441757
6.1363196 -3.1559558 1.1759287 0 0 0 0 54.446701
6.1404715 -3.1883357 0.97002184 0 0 0 0 54.451653
6.1625681 -3.2205808 0.77619714 0 0 0 0 54.456596
6.1707191 -3.2549305 0.5733127 0 0 0 0 54.461548
6.2246079 -3.0333676 1.1761391 0 0 0 0 54.466492
6.2417536 -3.0646677 0.97028983 0 0 0 0 54.471436
6.2497864 -3.0850039 0.77437723 0 0 0 0 54.476387
6.2779455 -3.121228 0.57258838 0 0 0 0 54.481331
6.5012698 -2.996546 1.2113853 0 0 0 0 54.486282
6.3710909 -2.9538147 0.9757126 0 0 0 0 54.491226
6.3399911 -2.947407 0.77256709 0 0 0 0 54.49617
6.3671265 -2.9796376 0.57076597 0 0 0 0 54.501122
6.5995193 -2.8688908 1.2126331 0 0 0 0 54.506065
6.6406832 -2.8990521 1.0018926 0 0 0 0 54.511017
6.6587067 -2.9123406 0.79901218 0 0 0 0 54.515961
6.6737967 -2.9296656 0.58712626 0 0 0 0 54.520905
6.6897483 -2.7382843 1.2138386 0 0 0 0 54.525856
6.7178473 -2.7555325 1.0000123 0 0 0 0 54.5308
6.7408385 -2.7627921 0.79614288 0 0 0 0 54.535751
6.7739444 -2.7840016 0.58634782 0 0 0 0 54.540695
6.77595 -2.6027033 1.2140158 0 0 0 0 54.545647
6.8110366 -2.6179082 1.0002178 0 0 0 0 54.550591
6.8410106 -2.6221247 0.79637462 0 0 0 0 54.555534
6.8820844 -2.6372867 0.58560443 0 0 0 0 54.560486
6.8781729 -2.4730155 1.217279 0 0 0 0 54.56543
6.9182215 -2.4811919 1.00249 0 0 0 0 54.570381
6.9541645 -2.4803715 0.79866439 0 0 0 0 54.575325
6.9841928 -2.4866059 0.58582562 0 0 0 0 54.580269
6.9743547 -2.3363664 1.2195007 0 0 0 0 54.58522
7.0093722 -2.3385758 1.0036768 0 0 0 0 54.590164
7.0472894 -2.3327451 0.79885042 0 0 0 0 54.595116
7.0882812 -2.3329115 0.58605027 0 0 0 0 54.60006
7.0735435 -2.201695 1.2227404 0 0 0 0 54.605003
7.103507 -2.1929421 1.0038714 0 0 0 0 54.609955
7.1554093 -2.1860201 0.80110776 0 0 0 0 54.614899
7.2234149 -2.1890163 0.58943832 0 0 0 0 54.61985
7.1777129 -2.0649896 1.2269996 0 0 0 0 54.624794
7.2226596 -2.0541413 1.0091958 0 0 0 0 54.629745
7.2675142 -2.0372691 0.80337977 0 0 0 0 54.634689
7.3164434 -2.0263879 0.58959466 0 0 0 0 54.639633
7.2788544 -1.9233032 1.2302351 0 0 0 0 54.644585
7.3307705 -1.9074116 1.0124537 0 0 0 0 54.649529
7.3715868 -1.8835665 0.80560523 0 0 0 0 54.65448
7.4374995 -1.8705773 0.59289467 0 0 0 0 54.659424
7.3669662 -1.7757013 1.2313987 0 0 0 0 54.664368
7.4268599 -1.7567575 1.0146484 0 0 0 0 54.669319
7.4896479 -1.7297711 0.80989558 0 0 0 0 54.674263
7.5425129 -1.7068694 0.59410489 0 0 0 0 54.679214
7.4630728 -1.6290441 1.2346015 0 0 0 0 54.684158
7.4788899 -1.5933877 1.0116134 0 0 0 0 54.68911
7.4665699 -1.5438849 0.79946703 0 0 0 0 54.694054
7.4683185 -1.5023025 0.58340168 0 0 0 0 54.698997
7.3420501 -1.4378104 1.203707 0 0 0 0 54.703949
7.4068279 -1.403826 0.99194926 0 0 0 0 54.708893
7.4715252 -1.3658174 0.7921834 0 0 0 0 54.713844
7.5452847 -1.3317685 0.58446759 0 0 0 0 54.718788
7.4191298 -1.2852774 1.2038089 0 0 0 0 54.723732
7.4148412 -1.2347414 0.98369712 0 0 0 0 54.728683
7.3884239 -1.1733176 0.77646065 0 0 0 0 54.733627
7.3560634 -1.1179396 0.56520855 0 0 0 0 54.738579
7.121109 -1.07521 1.14505 0 0 0 0 54.743523
7.0857325 -1.0158556 0.93177545 0 0 0 0 54.748466
7.05826 -0.95441478 0.7365334 0 0 0 0 54.753418
7.0308299 -0.89598447 0.53629744 0 0 0 0 54.758362
6.9331799 -0.89341944 1.1048573 0 0 0 0 54.763313
6.9997706 -0.84338522 0.91207582 0 0 0 0 54.768257
7.0672746 -0.78832054 0.73128867 0 0 0 0 54.773209
7.147851 -0.73819232 0.54157227 0 0 0 0 54.778152
7.0332947 -0.75173086 1.1110855 0 0 0 0 54.783096
7.1038413 -0.69467151 0.91830856 0 0 0 0 54.788048
7.1803074 -0.63355029 0.73755115 0 0 0 0 54.792992
7.2548265 -0.57346177 0.54678667 0 0 0 0 54.797943
7.1213918 -0.60612065 1.1152502 0 0 0 0 54.802887
7.2098856 -0.54194403 0.92454273 0 0 0 0 54.807831
7.2913074 -0.47379127 0.74379444 0 0 0 0 54.812782
7.3677812 -0.40569216 0.55202311 0 0 0 0 54.817726
7.2334423 -0.45635024 1.1235186 0 0 0 0 54.822678
7.3109021 -0.38524678 0.93074572 0 0 0 0 54.827621
7.392272 -0.30809593 0.74897915 0 0 0 0 54.832573
7.4937048 -0.23483524 0.55931425 0 0 0 0 54.837517
7.3374839 -0.30463088 1.1307458 0 0 0 0 54.842461
7.4248805 -0.22346443 0.93799925 0 0 0 0 54.847412
7.5202017 -0.13922319 0.75728381 0 0 0 0 54.852356
7.6205697 -0.054970656 0.56659198 0 0 0 0 54.857307
7.4393249 -0.14723635 1.137633 0 0 0 0 54.734215
7.5386701 -0.058993351 0.94592649 0 0 0 0 54.739159
8.692441 0.041083965 0.86910009 0 0 0 0 54.74411
7.5992656 0.015846418 1.152097 0 0 0 0 54.754005
8.7109261 0.12668367 1.084057 0 0 0 0 54.758949
8.8301477 0.2450254 0.8783837 0 0 0 0 54.763893
8.7303829 0.20532101 1.3140324 0 0 0 0 54.773788
8.8506327 0.32964098 1.0943519 0 0 0 0 54.77874
9.0027637 0.46019626 0.89180768 0 0 0 0 54.783684
8.8601227 0.40321484 1.3232914 0 0 0 0 54.793579
9.01828 0.53778601 1.1097671 0 0 0 0 54.798523
9.1403618 0.67914516 0.90306133 0 0 0 0 54.803474
9.0207939 0.60731733 1.3386824 0 0 0 0 54.81337
9.1648893 0.75379485 1.122069 0 0 0 0 54.818314
9.3048849 0.90826952 0.91642046 0 0 0 0 54.823257
9.1684389 0.81733382 1.3510011 0 0 0 0 54.833153
9.325428 0.97989553 1.1354158 0 0 0 0 54.838104
9.4373875 1.1421882 0.92662072 0 0 0 0 54.843048
7.8533792 1.0745264 0.5813638 0 0 0 0 54.847992
9.3130198 1.0363351 1.3642879 0 0 0 0 54.852943
9.3441086 1.194073 1.1331236 0 0 0 0 54.857887
9.2901964 1.3452932 0.91057521 0 0 0 0 54.862839
9.2229109 1.2297894 1.3435282 0 0 0 0 54.872726
9.3507767 1.4111707 1.1287688 0 0 0 0 54.877678
9.4835453 1.5976123 0.92802233 0 0 0 0 54.882622
9.3384724 1.4545994 1.3516668 0 0 0 0 54.892517
9.5091906 1.6542667 1.1440713 0 0 0 0 54.897469
9.7416925 1.8763582 0.95272017 0 0 0 0 54.902412
9.499917 1.6917176 1.3679957 0 0 0 0 54.912308
9.7044659 1.9166044 1.162508 0 0 0 0 54.917252
9.9678192 2.1598988 0.97425914 0 0 0 0 54.922203
9.6822472 1.9449745 1.3863903 0 0 0 0 54.932091
9.8906908 2.1848912 1.1828909 0 0 0 0 54.937042
10.130961 2.4440334 0.99050194 0 0 0 0 54.941986
9.8595381 2.2032042 1.4057518 0 0 0 0 54.951881
10.06986 2.4631324 1.2012208 0 0 0 0 54.956833
10.048717 2.4785116 1.4251348 0 0 0 0 54.971672
10.231989 2.7482634 1.2174569 0 0 0 0 54.976616
10.264762 2.7710028 1.4496099 0 0 0 0 54.991455
10.210464 2.9921908 1.2139125 0 0 0 0 54.996407
6.2333632 2.1124706 0.48299256 0 0 0 0 55.006302
10.205395 2.9976673 1.4349219 0 0 0 0 55.011246
10.191923 3.238137 1.2103767 0 0 0 0 55.01619
6.1917462 2.1135101 0.61482489 0 0 0 0 55.021141
10.128068 3.2192125 1.4181583 0 0 0 0 55.031036
6.1681991 2.1116419 0.73574811 0 0 0 0 55.03598
9.8961754 3.3857327 1.3817755 0 0 0 0 55.050819
9.6821089 3.5679061 1.1484007 0 0 0 0 55.055771
9.6523695 3.5391715 1.3443606 0 0 0 0 55.07061
9.4512186 3.7264481 1.1220345 0 0 0 0 55.075554
9.433527 3.6957726 1.3100542 0 0 0 0 55.090401
9.2333412 3.8810742 1.0977353 0 0 0 0 55.095345
6.440691 2.8893452 0.65056139 0 0 0 0 55.100288
5.8640418 2.8013237 0.48001921 0 0 0 0 55.10524
9.2177172 3.8463924 1.2767719 0 0 0 0 55.110184
9.0025234 4.0276103 1.0713887 0 0 0 0 55.115135
6.5900044 3.1413844 0.66978806 0 0 0 0 55.120079
5.6726108 2.8761227 0.47099301 0 0 0 0 55.125031
9.0118971 3.9960794 1.2465361 0 0 0 0 55.129974
7.1515536 3.3913918 0.85496688 0 0 0 0 55.134918
7.4346576 3.7610164 0.75855643 0 0 0 0 55.13987
5.4025211 2.9024012 0.45469147 0 0 0 0 55.144814
8.8081141 4.1397762 1.2163199 0 0 0 0 55.149765
7.5019398 3.7707736 0.89788812 0 0 0 0 55.154709
8.0856848 4.332386 0.83051008 0 0 0 0 55.159653
8.6003723 4.2774434 1.1850947 0 0 0 0 55.169548
7.8850274 4.1923809 0.94587928 0 0 0 0 55.1745
8.4077768 4.7585907 0.87020344 0 0 0 0 55.179443
8.3568182 4.3878713 1.1507529 0 0 0 0 55.189339
8.1912584 4.5964832 0.98554271 0 0 0 0 55.194283
8.2616053 4.5743003 1.1377666 0 0 0 0 55.582047
8.7251873 5.1611733 1.0547857 0 0 0 0 55.586998
8.5487566 4.9823198 1.1763419 0 0 0 0 55.601837
8.6109228 5.3594689 1.0458559 0 0 0 0 55.606781
8.3455753 5.5254221 0.89122516 0 0 0 0 55.611732
6.3410378 4.4526482 0.57876259 0 0 0 0 55.616676
8.6137505 5.281826 1.1850679 0 0 0 0 55.621628
8.4628077 5.5375328 1.0328022 0 0 0 0 55.626572
8.167572 5.6832962 0.88206708 0 0 0 0 55.631516
6.1992226 4.5777602 0.57684249 0 0 0 0 55.636467
8.4139671 5.4185224 1.1588497 0 0 0 0 55.641411
8.2171783 5.648931 1.0084131 0 0 0 0 55.646362
6.2169709 4.5381312 0.6820392 0 0 0 0 55.651306
6.0494781 4.6918187 0.57490534 0 0 0 0 55.65625
8.2420616 5.5714054 1.1357306 0 0 0 0 55.661201
8.0004377 5.7735262 0.98913383 0 0 0 0 55.666145
6.1199822 4.6895356 0.68027925 0 0 0 0 55.671097
5.8967586 4.8018551 0.57296032 0 0 0 0 55.676041
8.0701771 5.7202888 1.1136177 0 0 0 0 55.680984
7.8304996 5.9244375 0.9750244 0 0 0 0 55.685936
5.7440639 4.9078898 0.57102197 0 0 0 0 55.695831
7.8714485 5.8479848 1.0874165 0 0 0 0 55.700775
7.625771 6.0461092 0.95680499 0 0 0 0 55.705727
5.5864267 5.0048904 0.56907678 0 0 0 0 55.715614
7.686687 5.9767799 1.0662788 0 0 0 0 55.720566
7.4349861 6.1738763 0.94163835 0 0 0 0 55.72551
7.2588634 6.4175205 0.84126759 0 0 0 0 55.730461
5.4983454 5.1643624 0.57433683 0 0 0 0 55.735405
7.5118628 6.1156373 1.0441661 0 0 0 0 55.740349
7.2352705 6.2915797 0.92544711 0 0 0 0 55.7453
7.0044541 6.486866 0.8269102 0 0 0 0 55.750244
6.8322573 6.7385426 0.7305392 0 0 0 0 55.755196
7.3450027 6.2575502 1.0250834 0 0 0 0 55.760139
7.0623937 6.4314642 0.91233754 0 0 0 0 55.765091
6.8196263 6.6146822 0.81976616 0 0 0 0 55.770035
6.6126122 6.836134 0.72628754 0 0 0 0 55.774979
7.1741786 6.3944335 1.00499 0 0 0 0 55.77993
6.8796124 6.5572791 0.89820725 0 0 0 0 55.784874
6.6228795 6.7314138 0.81058508 0 0 0 0 55.789825
6.3701687 6.9035702 0.72098601 0 0 0 0 55.794769
6.9974122 6.522275 0.98488456 0 0 0 0 55.799713
6.6898832 6.6750455 0.88405782 0 0 0 0 55.804665
6.4440384 6.8592696 0.8054657 0 0 0 0 55.809608
6.1922517 7.0384431 0.72185445 0 0 0 0 55.81456
6.8286004 6.6561694 0.96580297 0 0 0 0 55.819504
6.528966 6.8180084 0.87399364 0 0 0 0 55.824448
6.2641892 6.9881167 0.80033708 0 0 0 0 55.829399
5.9965081 7.148191 0.72068679 0 0 0 0 55.834343
6.6776462 6.809186 0.9497661 0 0 0 0 55.839294
6.3680434 6.9609718 0.86492735 0 0 0 0 55.844238
6.070488 7.0958648 0.79318327 0 0 0 0 55.84919
5.8136635 7.2700315 0.72355443 0 0 0 0 55.854134
6.1862726 7.0827889 0.85280168 0 0 0 0 55.864029
5.9442163 7.2830787 0.79518867 0 0 0 0 55.868973
5.6654897 7.440104 0.72848707 0 0 0 0 55.873924
6.0233731 7.221735 0.84372991 0 0 0 0 55.883812
8.6785984 11.172153 1.1863424 0 0 0 0 55.888763
8.7840662 11.052024 1.2471435 0 0 0 0 55.903603
8.3835821 11.324239 1.1765932 0 0 0 0 55.908546
7.9841032 11.599448 1.1010402 0 0 0 0 55.913498
8.9295378 10.932158 1.3071423 0 0 0 0 55.918442
8.5079374 11.226218 1.2304392 0 0 0 0 55.923393
8.1093855 11.500468 1.1708915 0 0 0 0 55.928337
7.713757 11.789724 1.1063244 0 0 0 0 55.933289
8.6505356 11.096308 1.278445 0 0 0 0 55.938232
8.2239256 11.383356 1.2127295 0 0 0 0 55.943176
7.8044653 11.63748 1.161119 0 0 0 0 55.948128
7.3880353 11.890611 1.1045241 0 0 0 0 55.953072
8.3953552 11.282625 1.2558144 0 0 0 0 55.958023
7.9389143 11.539484 1.1960136 0 0 0 0 55.962967
7.5520444 11.843856 1.1594532 0 0 0 0 55.967911
6.8350706 11.601898 1.0674355 0 0 0 0 55.972862
8.128315 11.448856 1.2311652 0 0 0 0 55.977806
7.6955199 11.746904 1.1873897 0 0 0 0 55.982758
7.0663362 11.666593 1.1234564 0 0 0 0 55.987701
6.5758057 11.777242 1.0757964 0 0 0 0 55.992653
7.8384347 11.592924 1.2034475 0 0 0 0 55.997597
7.4303041 11.930168 1.1747067 0 0 0 0 56.002541
6.7023649 11.667177 1.1046752 0 0 0 0 56.007492
6.3046002 11.945497 1.0811101 0 0 0 0 56.012436
7.5852165 11.783247 1.1818084 0 0 0 0 56.017387
6.8508344 11.586214 1.1126007 0 0 0 0 56.022331
6.4480815 11.85153 1.1040375 0 0 0 0 56.027275
6.3134151 12.672741 1.1386023 0 0 0 0 56.032227
7.0215507 11.474382 1.1127045 0 0 0 0 56.03717
6.5877657 11.746484 1.1009711 0 0 0 0 56.042122
6.4639888 12.571801 1.1515795 0 0 0 0 56.047066
5.1031823 10.870302 0.97150809 0 0 0 0 56.05201
6.760169 11.637035 1.089797 0 0 0 0 55.787796
6.3341875 11.933249 1.0900835 0 0 0 0 55.792747
5.2786441 10.875049 0.98317182 0 0 0 0 55.797691
4.853806 11.00225 0.97782183 0 0 0 0 55.802643
6.513 11.819415 1.0712162 0 0 0 0 55.807587
6.3402462 12.646429 1.1276088 0 0 0 0 55.812531
4.9687018 10.869008 0.96867961 0 0 0 0 55.817482
4.4612951 10.785637 0.95437151 0 0 0 0 55.822426
6.2469945 11.979658 1.0485873 0 0 0 0 55.827377
5.1506848 10.881195 0.95055693 0 0 0 0 55.832321
4.8546066 11.311355 0.99418795 0 0 0 0 55.837265
4.2026744 10.869967 0.95693284 0 0 0 0 55.842216
6.2669039 12.72091 1.0771174 0 0 0 0 55.84716
4.8683801 10.932327 0.93307489 0 0 0 0 55.852112
4.3402629 10.791851 0.93678361 0 0 0 0 55.857056
4.2539034 11.827531 1.0371462 0 0 0 0 55.862
5.2312899 11.25174 0.9241851 0 0 0 0 55.866951
4.5045271 10.77488 0.90063554 0 0 0 0 55.871895
4.0865912 10.888198 0.93334037 0 0 0 0 55.876846
3.5816102 10.725874 0.93920606 0 0 0 0 55.88179
4.9548202 11.331895 0.90066659 0 0 0 0 55.886742
4.2303252 10.809063 0.8852241 0 0 0 0 55.891685
3.8251338 10.953485 0.92792255 0 0 0 0 55.896629
3.3759062 10.96258 0.95669317 0 0 0 0 55.901581
4.4404945 10.818362 0.83324659 0 0 0 0 55.906525
3.961992 10.862284 0.87079805 0 0 0 0 55.911476
3.5088744 10.847373 0.90959972 0 0 0 0 55.91642
3.3466516 11.843593 1.0306646 0 0 0 0 55.921364
5.1698813 13.49466 1.0021093 0 0 0 0 55.926315
3.6966999 10.908524 0.85739917 0 0 0 0 55.931259
3.2758257 10.995861 0.91213799 0 0 0 0 55.936211
3.7532203 14.58989 1.2647758 0 0 0 0 55.941154
3.9138703 10.928838 0.79043221 0 0 0 0 55.946106
3.4324803 10.943767 0.84402663 0 0 0 0 55.95105
3.1978226 11.704492 0.96223503 0 0 0 0 55.955994
3.6251225 10.901891 0.76507211 0 0 0 0 55.965889
3.4132519 11.835795 0.89501876 0 0 0 0 55.97084
3.6018822 14.534744 1.1801455 0 0 0 0 55.975784
3.7421012 12.204862 0.82785219 0 0 0 0 55.98568
3.7892904 14.401753 1.0653569 0 0 0 0 55.990623
3.3118246 14.821877 1.1940914 0 0 0 0 55.995575
3.2888713 11.673726 0.76775849 0 0 0 0 56.005463
3.4808736 14.606723 1.0603886 0 0 0 0 56.010414
3.7065017 14.461927 0.91781592 0 0 0 0 56.025253
3.1617107 14.77461 1.0534431 0 0 0 0 56.030205
2.1412513 15.654516 1.3604861 0 0 0 0 56.040092
3.4078889 14.70194 0.90481651 0 0 0 0 56.045044
2.8547742 15.051596 1.0553191 0 0 0 0 56.049988
2.3715396 15.696791 1.2355282 0 0 0 0 56.054939
3.083751 14.874763 0.88583177 0 0 0 0 56.064827
2.5398796 15.322524 1.0561645 0 0 0 0 56.069778
2.7653036 15.09063 0.87077832 0 0 0 0 56.084618
2.2253039 15.690465 1.0627972 0 0 0 0 56.089561
1.0371296 15.628203 1.3680242 0 0 0 0 56.099457
2.4358745 15.303419 0.85567307 0 0 0 0 56.104408
1.2626001 15.666376 1.2120498 0 0 0 0 56.114304
0.68202358 15.767879 1.3849394 0 0 0 0 56.119247
2.1052589 15.542202 0.84250152 0 0 0 0 56.124191
0.89865947 15.648938 1.2062612 0 0 0 0 56.134087
0.31788251 15.912489 1.4017949 0 0 0 0 56.139038
1.7665083 15.799929 0.83024412 0 0 0 0 56.143982
1.1164968 15.659978 1.0133083 0 0 0 0 56.148926
0.54135126 15.824576 1.2150829 0 0 0 0 56.153877
-0.0489434 16.150106 1.430431 0 0 0 0 56.158821
1.272141 14.422382 0.73475933 0 0 0 0 56.163773
0.69506496 14.437932 0.92284673 0 0 0 0 56.168716
0.1745986 16.063158 1.2277167 0 0 0 0 56.173668
-0.42682582 16.395645 1.4589902 0 0 0 0 56.178612
0.87397665 13.444546 0.66588682 0 0 0 0 56.183556
0.39062709 15.921108 1.0020862 0 0 0 0 56.188507
-0.19913992 16.297691 1.2423199 0 0 0 0 56.193451
-0.81840914 16.599075 1.4835681 0 0 0 0 56.198402
0.58879668 14.193688 0.68081957 0 0 0 0 56.203346
0.01971586 16.189636 1.0056289 0 0 0 0 56.20829
-0.58884907 16.528111 1.2558476 0 0 0 0 56.213242
-1.2248844 16.924437 1.5218012 0 0 0 0 56.218185
0.25285333 14.190389 0.6591323 0 0 0 0 56.223137
-0.36105222 16.437092 1.0081636 0 0 0 0 56.228081
-0.98576754 16.785488 1.2742759 0 0 0 0 56.233025
-0.081314638 14.650154 0.65844059 0 0 0 0 56.24292
-0.75637394 16.621431 1.0057584 0 0 0 0 56.247871
-1.4906205 18.157347 1.3757269 0 0 0 0 56.252815
-0.48792681 16.602621 0.72242075 0 0 0 0 56.018005
-1.1712102 17.018732 1.0191362 0 0 0 0 56.022957
-0.89278424 16.875904 0.71079916 0 0 0 0 56.037796
-3.1721382 19.121077 1.7666343 0 0 0 0 56.052635
-1.3937476 18.180658 0.74146634 0 0 0 0 56.057579
-2.9249697 19.169025 1.4527214 0 0 0 0 56.067474
-4.7777896 20.108625 1.9053806 0 0 0 0 56.112
-2.8517482 19.201847 0.7109006 0 0 0 0 56.116943
-4.5333786 20.162426 1.5344362 0 0 0 0 56.126839
-6.3023567 20.235487 1.9753437 0 0 0 0 56.171364
-4.4864092 20.168787 0.67651683 0 0 0 0 56.176308
-6.0389962 20.18829 1.5507104 0 0 0 0 56.186203
-6.9515929 20.651245 2.0381379 0 0 0 0 56.191154
-5.7958198 20.177931 1.1138979 0 0 0 0 56.201042
-6.6759377 20.578074 1.5896208 0 0 0 0 56.205994
-7.7654233 21.423981 2.1373248 0 0 0 0 56.210938
-6.4099956 20.476795 1.1221182 0 0 0 0 56.220833
-7.4592614 21.301929 1.6530635 0 0 0 0 56.225777
-8.4297209 21.704597 2.1913211 0 0 0 0 56.230728
-6.0868912 20.378822 0.61889607 0 0 0 0 56.235672
-7.1708326 21.152727 1.1527749 0 0 0 0 56.240623
-8.2089767 21.797962 1.7001609 0 0 0 0 56.245567
-8.7872295 21.186077 2.1665897 0 0 0 0 56.250519
-6.7741942 20.85516 0.61235428 0 0 0 0 56.255463
-7.9562249 21.763474 1.1804409 0 0 0 0 56.260406
-8.5927372 21.317263 1.6752155 0 0 0 0 56.265358
-9.1347704 20.673616 2.1408937 0 0 0 0 56.270302
-7.6138167 21.666489 0.61530834 0 0 0 0 56.275253
-8.4120493 21.438301 1.158795 0 0 0 0 56.280197
-8.9492712 20.806734 1.6464704 0 0 0 0 56.285141
-9.4806547 20.208179 2.1221023 0 0 0 0 56.290092
-8.1936588 21.639488 0.59438837 0 0 0 0 56.295036
-8.785634 20.936653 1.128945 0 0 0 0 56.299988
-9.3019104 20.311234 1.6197109 0 0 0 0 56.304932
-9.8003321 19.715908 2.0994999 0 0 0 0 56.309875
-8.5577698 21.07189 0.55973047 0 0 0 0 56.314827
-9.141098 20.418121 1.0992217 0 0 0 0 56.319771
-9.6345539 19.816862 1.5940483 0 0 0 0 56.324722
-10.126209 19.252592 2.0788021 0 0 0 0 56.329666
-8.9384394 20.585184 0.52881098 0 0 0 0 56.334618
-9.4806356 19.910698 1.0705531 0 0 0 0 56.339561
-9.9693918 19.350479 1.5703121 0 0 0 0 56.344505
-10.440216 18.806364 2.0621254 0 0 0 0 56.349457
-9.2786474 20.032745 0.4962379 0 0 0 0 56.354401
-9.8112841 19.419334 1.043893 0 0 0 0 56.359352
-10.285209 18.881224 1.547677 0 0 0 0 56.364296
-10.746181 18.357178 2.0424948 0 0 0 0 56.36924
-9.6242743 19.539276 0.4685072 0 0 0 0 56.374191
-10.14204 18.943968 1.0181961 0 0 0 0 56.379135
-10.605258 18.444941 1.5279472 0 0 0 0 56.384087
-11.052394 17.940004 2.0297916 0 0 0 0 56.38903
-9.9538927 19.04591 0.44085586 0 0 0 0 56.393982
-10.466975 18.493643 0.99547255 0 0 0 0 56.398926
-10.913229 17.998735 1.5072989 0 0 0 0 56.40387
-11.348589 17.521893 2.01614 0 0 0 0 56.408821
-10.285671 18.574533 0.41614431 0 0 0 0 56.413765
-10.776896 18.04142 0.97382784 0 0 0 0 56.418716
-11.220408 17.580542 1.4915922 0 0 0 0 56.42366
-11.628649 17.086878 1.9996061 0 0 0 0 56.428604
-10.605509 18.112236 0.39247197 0 0 0 0 56.433556
-11.08788 17.599186 0.95215482 0 0 0 0 56.438499
-11.503423 17.141499 1.4720522 0 0 0 0 56.443451
-11.925077 16.701767 1.9898787 0 0 0 0 56.448395
-10.913289 17.643013 0.36787489 0 0 0 0 56.453339
-11.387941 17.168024 0.93251163 0 0 0 0 56.45829
