# .PCD v0.7 - Point Cloud Data file format
VERSION 0.7
FIELDS x y z normal_x normal_y normal_z intensity curvature
SIZE 4 4 4 4 4 4 4 4
TYPE F F F F F F F F
COUNT 1 1 1 1 1 1 1 1
WIDTH 967
HEIGHT 1
VIEWPOINT 0 0 0 1 0 0 0
POINTS 967
DATA ascii
-0.30543309 -3.85344 0.45077297 0 0 0 0 11.596718
-0.41142616 -3.9433036 0.52941597 0 0 0 0 11.601665
-0.008104777 -4.0958967 0.33863854 0 0 0 0 11.606609
-0.1203843 -3.9796355 0.40261254 0 0 0 0 11.611557
-0.21645989 -3.8595455 0.45277548 0 0 0 0 11.616505
-0.31632039 -3.8704505 0.51764113 0 0 0 0 11.621452
0.092037939 -4.2341843 0.35850668 0 0 0 0 11.6264
-0.028996281 -4.0998101 0.42041835 0 0 0 0 11.631344
-0.13109736 -3.9826448 0.46950847 0 0 0 0 11.636292
-0.22828697 -3.8735392 0.51763821 0 0 0 0 11.641239
0.19904804 -4.3825574 0.37943056 0 0 0 0 11.646187
0.069221854 -4.2330709 0.43927377 0 0 0 0 11.651134
-0.041610718 -4.0967903 0.48530379 0 0 0 0 11.656082
-0.1437766 -3.9866221 0.53238028 0 0 0 0 11.661026
0.31406125 -4.5300298 0.40144426 0 0 0 0 11.665974
0.17336912 -4.3714051 0.4591842 0 0 0 0 11.670921
0.055524513 -4.2360392 0.50513446 0 0 0 0 11.675869
-0.055324879 -4.103755 0.54815739 0 0 0 0 11.680817
0.43590406 -4.7006474 0.42536089 0 0 0 0 11.427937
0.28526545 -4.5388808 0.4829815 0 0 0 0 11.43288
0.15777972 -4.3783722 0.52586043 0 0 0 0 11.437828
0.04017669 -4.2299824 0.56582755 0 0 0 0 11.442776
0.56836015 -4.8873596 0.45250368 0 0 0 0 11.447723
0.40599346 -4.7054429 0.5080319 0 0 0 0 11.452671
0.268839 -4.5218048 0.54684722 0 0 0 0 11.457615
0.14212467 -4.3823028 0.58669513 0 0 0 0 11.462563
0.71275872 -5.0772228 0.4817729 0 0 0 0 11.46751
0.53567523 -4.8751163 0.53417528 0 0 0 0 11.472458
0.3884455 -4.6983523 0.57186449 0 0 0 0 11.477406
0.2502588 -4.5216932 0.60565567 0 0 0 0 11.482353
0.87261778 -5.3072863 0.51513612 0 0 0 0 11.487297
0.67511338 -5.0629139 0.56239134 0 0 0 0 11.492245
0.51428926 -4.8569717 0.59598476 0 0 0 0 11.497192
0.36810142 -4.6812124 0.62868488 0 0 0 0 11.50214
1.046224 -5.5545268 0.55261832 0 0 0 0 11.507088
0.83290398 -5.2969546 0.59772223 0 0 0 0 11.512035
0.65081602 -5.0387292 0.62317854 0 0 0 0 11.516979
0.4946894 -4.8588452 0.65477562 0 0 0 0 11.521927
1.216929 -5.7207055 0.58222234 0 0 0 0 11.526875
1.0007848 -5.524117 0.63317746 0 0 0 0 11.531822
0.80754912 -5.2767577 0.65948832 0 0 0 0 11.53677
0.63021785 -5.0415874 0.68095487 0 0 0 0 11.541718
1.334168 -5.6251445 0.58573073 0 0 0 0 11.546661
1.175964 -5.7293611 0.6667546 0 0 0 0 11.551609
0.97343212 -5.5048919 0.69391757 0 0 0 0 11.556557
0.78039503 -5.2485204 0.71224976 0 0 0 0 11.561504
1.4502208 -5.5435691 0.59019762 0 0 0 0 11.566452
1.2960377 -5.6498294 0.66726303 0 0 0 0 11.571396
1.1503196 -5.7321615 0.7294696 0 0 0 0 11.576344
0.94610924 -5.4896541 0.74765033 0 0 0 0 11.581291
1.5617062 -5.44876 0.59440613 0 0 0 0 11.586239
1.408641 -5.5530062 0.66556406 0 0 0 0 11.591187
1.271708 -5.6554337 0.72690088 0 0 0 0 11.596134
1.1241431 -5.7307229 0.78516853 0 0 0 0 11.601078
1.6727706 -5.3661165 0.59876299 0 0 0 0 11.606026
1.5208102 -5.4663677 0.6649403 0 0 0 0 11.610973
1.3888365 -5.5748525 0.72332108 0 0 0 0 11.615921
1.2489494 -5.677238 0.78062654 0 0 0 0 11.620869
1.7827734 -5.2874599 0.60410023 0 0 0 0 11.625816
1.6348697 -5.386755 0.66632378 0 0 0 0 11.63076
1.4982191 -5.4761667 0.71668661 0 0 0 0 11.635708
1.3642788 -5.5856218 0.77104509 0 0 0 0 11.640656
1.8897505 -5.2107639 0.60939974 0 0 0 0 11.645603
1.7410489 -5.2990389 0.66563398 0 0 0 0 11.650551
1.61226 -5.401546 0.71406031 0 0 0 0 11.655499
1.4785092 -5.5009923 0.76243836 0 0 0 0 11.660442
1.9919348 -5.1180038 0.61367345 0 0 0 0 11.66539
1.8510088 -5.2263737 0.66795826 0 0 0 0 11.670338
1.7214093 -5.3188601 0.71039331 0 0 0 0 11.675285
1.5878725 -5.4062977 0.75279456 0 0 0 0 11.680233
2.0988243 -5.0473051 0.61995929 0 0 0 0 11.685177
1.9580523 -5.1476679 0.66925991 0 0 0 0 11.690125
1.8285218 -5.2381482 0.70769954 0 0 0 0 11.695072
1.698992 -5.32863 0.74613959 0 0 0 0 11.70002
2.2008469 -4.9665418 0.6252082 0 0 0 0 11.704967
2.0601673 -5.0638971 0.66951543 0 0 0 0 11.709915
1.936608 -5.1594472 0.70501161 0 0 0 0 11.714859
1.8071103 -5.2509227 0.73945063 0 0 0 0 11.719807
2.2998579 -4.8857417 0.63142335 0 0 0 0 11.724754
2.1670754 -4.9941907 0.6727978 0 0 0 0 11.729702
2.0407057 -5.0796952 0.70228088 0 0 0 0 11.73465
1.913264 -5.1701894 0.73274428 0 0 0 0 11.739597
2.4046712 -4.8200135 0.63867444 0 0 0 0 11.744541
2.264214 -4.9073567 0.67400223 0 0 0 0 11.749489
2.1418154 -4.9979057 0.70052016 0 0 0 0 11.754436
2.0242467 -5.1015177 0.72806841 0 0 0 0 11.759384
2.4928741 -4.7250719 0.64279425 0 0 0 0 11.764332
2.3680952 -4.8396091 0.67724574 0 0 0 0 11.769279
2.2497175 -4.9312029 0.7008059 0 0 0 0 11.774223
2.1264117 -5.0187325 0.7223199 0 0 0 0 11.779171
2.5898209 -4.6482425 0.64997679 0 0 0 0 11.784119
2.4671092 -4.761797 0.67945266 0 0 0 0 11.789066
2.3507631 -4.8544092 0.69903338 0 0 0 0 11.794014
2.2266104 -4.9339199 0.71555233 0 0 0 0 11.798958
2.6896923 -4.5774479 0.65717947 0 0 0 0 11.803905
2.5631483 -4.6809478 0.68263155 0 0 0 0 11.808853
2.4420383 -4.760489 0.6951834 0 0 0 0 11.813801
2.3316031 -4.8631701 0.71181142 0 0 0 0 11.818748
2.7865887 -4.5036168 0.66535401 0 0 0 0 11.823696
2.6552567 -4.596045 0.68377358 0 0 0 0 11.82864
2.5439873 -4.6887088 0.69640982 0 0 0 0 11.833588
2.4297636 -4.7803307 0.706016 0 0 0 0 11.838535
2.886375 -4.4378214 0.67454487 0 0 0 0 11.843483
2.7571111 -4.5282683 0.68899053 0 0 0 0 11.848431
2.6429703 -4.6148877 0.6966064 0 0 0 0 11.853378
2.5298393 -4.7025166 0.70223165 0 0 0 0 11.858322
3.1096909 -4.5496006 0.71276426 0 0 0 0 11.86327
2.8481464 -4.4473529 0.69211209 0 0 0 0 11.868217
2.7360845 -4.5319891 0.69475406 0 0 0 0 11.873165
2.6308415 -4.6297135 0.69944751 0 0 0 0 11.878113
3.2056832 -4.467751 0.72093832 0 0 0 0 11.88306
3.0724473 -4.5631366 0.72733319 0 0 0 0 11.888004
2.8370047 -4.4621906 0.69596237 0 0 0 0 11.892952
2.7240102 -4.5458074 0.6935966 0 0 0 0 11.8979
3.297776 -4.3852935 0.72915411 0 0 0 0 11.630558
3.1783645 -4.4948325 0.73466474 0 0 0 0 11.635506
3.0515995 -4.5642524 0.72616374 0 0 0 0 11.640453
2.8221171 -4.4703465 0.69182444 0 0 0 0 11.645401
3.4015806 -4.3175535 0.73939466 0 0 0 0 11.650349
3.2763603 -4.4160118 0.73986131 0 0 0 0 11.655296
3.1624203 -4.5005898 0.73047435 0 0 0 0 11.66024
3.0141742 -4.5367255 0.71179742 0 0 0 0 11.665188
3.5004842 -4.2407527 0.75059628 0 0 0 0 11.670135
3.3733656 -4.3371754 0.74404597 0 0 0 0 11.675083
3.2643981 -4.4258122 0.73270655 0 0 0 0 11.680031
3.1515133 -4.5103955 0.71833163 0 0 0 0 11.684978
3.5934706 -4.1588731 0.75974107 0 0 0 0 11.689922
3.4772625 -4.2644277 0.75129408 0 0 0 0 11.69487
3.3644226 -4.3480062 0.73392141 0 0 0 0 11.699818
3.2526064 -4.4305964 0.71556181 0 0 0 0 11.704765
3.6923578 -4.0840664 0.76993668 0 0 0 0 11.709713
3.5752308 -4.1866031 0.75748521 0 0 0 0 11.714657
3.461509 -4.264164 0.73611361 0 0 0 0 11.719604
3.3556387 -4.3538227 0.71480674 0 0 0 0 11.724552
3.79616 -4.0143228 0.7821759 0 0 0 0 11.7295
3.6702354 -4.1057401 0.76364827 0 0 0 0 11.734447
3.5654345 -4.1924062 0.73935813 0 0 0 0 11.739395
3.4557056 -4.2750087 0.71302176 0 0 0 0 11.744339
3.902962 -3.9436154 0.79544812 0 0 0 0 11.749287
3.7721527 -4.0309625 0.77087486 0 0 0 0 11.754234
3.6615179 -4.1085477 0.74153721 0 0 0 0 11.759182
3.5548093 -4.1921825 0.71223205 0 0 0 0 11.76413
4.0018606 -3.8658068 0.80764556 0 0 0 0 11.769077
3.8760469 -3.9562109 0.78012156 0 0 0 0 11.774021
3.7526493 -4.0206265 0.7436685 0 0 0 0 11.778969
3.6568618 -4.1133909 0.71146625 0 0 0 0 11.783916
4.1027455 -3.789021 0.81986159 0 0 0 0 11.788864
3.9799504 -3.8814557 0.78836721 0 0 0 0 11.793812
3.8723903 -3.9600656 0.75106168 0 0 0 0 11.798759
3.7470844 -4.0214496 0.70959377 0 0 0 0 11.803703
4.1996779 -3.7081845 0.83204067 0 0 0 0 11.808651
4.0828648 -3.8056862 0.79660255 0 0 0 0 11.813599
3.9822879 -3.888377 0.75636595 0 0 0 0 11.818546
3.8649051 -3.9578559 0.71297032 0 0 0 0 11.823494
4.2966232 -3.6253476 0.84522218 0 0 0 0 11.828442
4.1818657 -3.721868 0.80580837 0 0 0 0 11.833385
4.0793562 -3.8035266 0.76055276 0 0 0 0 11.838333
3.982784 -3.8902588 0.71535283 0 0 0 0 11.843281
4.3846741 -3.5363944 0.85531682 0 0 0 0 11.848228
4.2818518 -3.6400585 0.81402016 0 0 0 0 11.853176
4.184351 -3.7227752 0.76681721 0 0 0 0 11.85812
4.0848703 -3.806463 0.71659118 0 0 0 0 11.863068
4.322453 -3.3285441 0.83799052 0 0 0 0 11.868015
4.3927407 -3.5633862 0.82533985 0 0 0 0 11.872963
4.2893424 -3.6430204 0.77207857 0 0 0 0 11.877911
4.1879787 -3.7206776 0.71784288 0 0 0 0 11.882858
4.4282479 -3.2558162 0.85324818 0 0 0 0 11.887802
4.3167415 -3.3433545 0.80088615 0 0 0 0 11.89275
4.3844671 -3.5531399 0.77624953 0 0 0 0 11.897697
4.2989659 -3.6429908 0.72116441 0 0 0 0 11.902645
4.3826685 -3.0741775 0.83905751 0 0 0 0 11.907593
4.4107356 -3.2594693 0.81003457 0 0 0 0 11.91254
4.3283181 -3.3433559 0.75399339 0 0 0 0 11.917484
4.4070234 -3.5602639 0.72346181 0 0 0 0 11.922432
4.1429386 -2.7710962 0.78798181 0 0 0 0 11.92738
4.4305363 -3.1206486 0.80547613 0 0 0 0 11.932327
4.4273305 -3.2605252 0.76019317 0 0 0 0 11.937275
4.3340998 -3.3352671 0.69705147 0 0 0 0 11.942223
4.1446033 -2.6420598 0.7842133 0 0 0 0 11.947166
4.1690803 -2.798296 0.75020158 0 0 0 0 11.952114
4.4491978 -3.1187236 0.752662 0 0 0 0 11.957062
4.4500446 -3.2596383 0.70142043 0 0 0 0 11.962009
4.23839 -2.5691836 0.79934114 0 0 0 0 11.966957
4.1450882 -2.6479304 0.73819309 0 0 0 0 11.971901
4.1867609 -2.7943618 0.69738275 0 0 0 0 11.976849
4.4264016 -3.085263 0.68445492 0 0 0 0 11.981796
4.3331633 -2.4973173 0.81447679 0 0 0 0 11.986744
4.2438936 -2.5761085 0.75037235 0 0 0 0 11.991692
4.1598268 -2.6399579 0.68434995 0 0 0 0 11.996639
4.1837826 -2.7711556 0.63437432 0 0 0 0 12.001583
4.4319134 -2.4255016 0.83165413 0 0 0 0 12.006531
4.349637 -2.5083711 0.76361793 0 0 0 0 12.011478
4.2626743 -2.5671782 0.6935733 0 0 0 0 12.016426
4.1866255 -2.6331191 0.62363386 0 0 0 0 12.021374
4.5237818 -2.3455961 0.84677023 0 0 0 0 12.026321
4.433609 -2.4243603 0.77365631 0 0 0 0 12.031265
4.3585935 -2.48931 0.70172971 0 0 0 0 12.036213
4.2865629 -2.5572929 0.62783003 0 0 0 0 12.041161
4.6156383 -2.2656906 0.86288518 0 0 0 0 12.046108
4.5434012 -2.3506718 0.78895348 0 0 0 0 12.051056
4.4644628 -2.4145629 0.7109865 0 0 0 0 12.056004
4.3855486 -2.4764547 0.6330235 0 0 0 0 12.060947
4.7253981 -2.1910064 0.88218242 0 0 0 0 12.065895
4.6343584 -2.2667441 0.80006468 0 0 0 0 12.070843
4.5664039 -2.3337657 0.72021037 0 0 0 0 12.07579
4.491497 -2.397701 0.63928699 0 0 0 0 12.080738
4.8302407 -2.1102583 0.90043604 0 0 0 0 12.085682
4.740232 -2.1870019 0.81432778 0 0 0 0 12.09063
4.6713443 -2.2520049 0.73046702 0 0 0 0 12.095577
4.5965042 -2.3139336 0.64554787 0 0 0 0 12.100525
4.937439 -2.0301983 0.9209162 0 0 0 0 11.831059
4.8524704 -2.1069858 0.83085513 0 0 0 0 11.836006
4.7756848 -2.1688728 0.74090862 0 0 0 0 11.840954
4.6969252 -2.2277374 0.65194625 0 0 0 0 11.845901
5.993062 -2.3074465 1.1218487 0 0 0 0 11.850849
4.9564366 -2.0202293 0.8451159 0 0 0 0 11.855793
4.8856711 -2.0821867 0.75323451 0 0 0 0 11.860741
4.8228559 -2.1482418 0.66143227 0 0 0 0 11.865688
6.1231151 -2.2050154 1.1464108 0 0 0 0 11.870636
6.0183291 -2.2925057 1.0271144 0 0 0 0 11.875584
4.98774 -1.9903976 0.76348233 0 0 0 0 11.880531
4.946847 -2.0637195 0.67090446 0 0 0 0 11.885475
6.2224073 -2.0871949 1.1656655 0 0 0 0 11.890423
6.1634231 -2.1892507 1.0488391 0 0 0 0 11.89537
6.0748539 -2.2599373 0.92874742 0 0 0 0 11.900318
6.0032206 -2.3358314 0.80882984 0 0 0 0 11.905266
6.4062581 -1.9914371 1.2017946 0 0 0 0 11.910213
6.2797213 -2.0726328 1.066274 0 0 0 0 11.915157
6.2180724 -2.1506472 0.94546062 0 0 0 0 11.920105
6.1524696 -2.2276077 0.82160616 0 0 0 0 11.925053
6.5672631 -1.8863887 1.2336907 0 0 0 0 11.93
6.4447789 -1.9676254 1.0932143 0 0 0 0 11.934948
6.374279 -2.0405164 0.96431369 0 0 0 0 11.939896
6.2878723 -2.109206 0.83124894 0 0 0 0 11.944839
6.7015066 -1.7660006 1.2603228 0 0 0 0 11.949787
6.6238489 -1.859789 1.1223083 0 0 0 0 11.954735
6.5126405 -1.9191607 0.98099196 0 0 0 0 11.959682
6.4531913 -1.9931759 0.84620863 0 0 0 0 11.96463
6.8636327 -1.648963 1.2942483 0 0 0 0 11.969574
6.7691936 -1.7335279 1.1460686 0 0 0 0 11.974522
6.7008338 -1.8054229 1.0051925 0 0 0 0 11.979469
6.6404624 -1.8774174 0.86540252 0 0 0 0 11.984417
6.9900084 -1.5164748 1.3218135 0 0 0 0 11.989365
6.9265013 -1.6084135 1.1719542 0 0 0 0 11.994312
6.8572297 -1.6782863 1.0250715 0 0 0 0 11.999256
6.7889829 -1.7461716 0.87820363 0 0 0 0 12.004204
6.8973632 -1.3382422 1.3070974 0 0 0 0 12.009151
6.9902616 -1.4581305 1.1828743 0 0 0 0 12.014099
7.0306277 -1.5473605 1.0491385 0 0 0 0 12.019047
6.9644651 -1.6152563 0.89429259 0 0 0 0 12.023994
7.0586166 -1.2101868 1.341029 0 0 0 0 12.028938
6.9753523 -1.2908665 1.1809769 0 0 0 0 12.033886
6.9630251 -1.3644342 1.0357009 0 0 0 0 12.038834
7.0872135 -1.4656885 0.90584487 0 0 0 0 12.043781
7.2288823 -1.0782431 1.3780624 0 0 0 0 12.048729
7.1496925 -1.1589596 1.2110538 0 0 0 0 12.053677
7.0936451 -1.2199728 1.053329 0 0 0 0 12.05862
7.0336308 -1.2799343 0.89356351 0 0 0 0 12.063568
7.406209 -0.93938529 1.4171816 0 0 0 0 12.068516
7.343082 -1.0192875 1.2453469 0 0 0 0 12.073463
7.2801328 -1.0792018 1.0795496 0 0 0 0 12.078411
7.2192173 -1.1371391 0.91277748 0 0 0 0 12.083355
7.5965614 -0.79468918 1.460449 0 0 0 0 12.088303
7.527555 -0.87250304 1.2795545 0 0 0 0 12.09325
7.4687157 -0.92945391 1.1068059 0 0 0 0 12.098198
7.4298158 -0.98965061 0.93626606 0 0 0 0 12.103146
7.7840195 -0.64195198 1.5026972 0 0 0 0 12.108093
7.7260876 -0.71888876 1.3159225 0 0 0 0 12.113037
7.6833124 -0.77402645 1.1393493 0 0 0 0 12.117985
7.6365566 -0.83011061 0.9597317 0 0 0 0 12.122932
7.988492 -0.48342615 1.5501359 0 0 0 0 12.12788
7.9346809 -0.55739754 1.3554101 0 0 0 0 12.132828
7.8830261 -0.61041063 1.1697448 0 0 0 0 12.137775
7.8404045 -0.66153109 0.98317975 0 0 0 0 12.142719
8.2199888 -0.31823239 1.6028734 0 0 0 0 12.147667
8.1613102 -0.38912761 1.3991005 0 0 0 0 12.152615
8.1058121 -0.43707672 1.2044023 0 0 0 0 12.157562
8.0812616 -0.48840228 1.0110298 0 0 0 0 12.16251
8.4416285 -0.14191245 1.6545222 0 0 0 0 12.167458
8.3860579 -0.21082996 1.4427855 0 0 0 0 12.172401
8.3506565 -0.25601026 1.2423068 0 0 0 0 12.177349
8.328228 -0.30334753 1.0419635 0 0 0 0 12.182297
8.4796896 0.039692935 1.6702113 0 0 0 0 12.187244
8.5759687 -0.024095578 1.4801096 0 0 0 0 12.192192
8.5985851 -0.065979555 1.2822573 0 0 0 0 12.197136
8.5833235 -0.10738545 1.0730002 0 0 0 0 12.202084
8.3440771 0.22145304 1.6530418 0 0 0 0 12.207031
8.4254971 0.16585268 1.4587947 0 0 0 0 12.211979
8.4971275 0.13236305 1.2694817 0 0 0 0 12.216927
8.5858307 0.098681077 1.0733502 0 0 0 0 12.221874
8.200387 0.39531112 1.633774 0 0 0 0 12.226818
8.275938 0.3507829 1.4394834 0 0 0 0 12.231766
8.3676519 0.32604855 1.2524002 0 0 0 0 12.236713
8.4414625 0.30054924 1.0551236 0 0 0 0 12.241661
8.0646353 0.5660668 1.6165881 0 0 0 0 12.246609
8.1532593 0.53037667 1.4254525 0 0 0 0 12.251556
8.2161026 0.51299882 1.2340733 0 0 0 0 12.2565
8.2909956 0.49448746 1.0368202 0 0 0 0 12.261448
7.9378085 0.73270839 1.6014925 0 0 0 0 12.266396
8.0075264 0.70225251 1.4071637 0 0 0 0 12.271343
8.0894308 0.69363886 1.2200034 0 0 0 0 12.276291
8.1334286 0.68050766 1.0184296 0 0 0 0 12.281239
7.830874 0.89410031 1.5906022 0 0 0 0 12.286182
7.8897185 0.87178206 1.3931713 0 0 0 0 12.29113
7.9716949 0.87016672 1.2070237 0 0 0 0 12.296078
8.067791 0.87139744 1.013031 0 0 0 0 12.301025
7.6837749 1.0464543 1.5714884 0 0 0 0 12.16135
7.77668 1.034707 1.3814439 0 0 0 0 12.166298
7.8147683 1.0356292 1.1878341 0 0 0 0 12.171246
7.8699331 1.0393529 0.99041182 0 0 0 0 12.176193
7.5877395 1.2017117 1.5637015 0 0 0 0 12.181137
7.6357584 1.1925224 1.3651803 0 0 0 0 12.186085
7.6638951 1.1975652 1.1714714 0 0 0 0 12.191032
7.7221446 1.2102489 0.9760977 0 0 0 0 12.19598
7.473649 1.3491918 1.5517093 0 0 0 0 12.200928
7.5247645 1.3489643 1.3542368 0 0 0 0 12.205875
7.5709972 1.3647841 1.1637405 0 0 0 0 12.210819
7.6183052 1.3816025 0.96725684 0 0 0 0 12.215767
7.3635588 1.498618 1.5417653 0 0 0 0 12.220715
7.4127326 1.5034148 1.3442806 0 0 0 0 12.225662
7.4470358 1.5243809 1.1526657 0 0 0 0 12.23061
7.4874272 1.5482836 0.95612055 0 0 0 0 12.235558
7.2583814 1.6419806 1.5328649 0 0 0 0 12.240501
7.2906361 1.6509875 1.3322067 0 0 0 0 12.245449
7.330987 1.6778777 1.1426668 0 0 0 0 12.250397
7.3754725 1.7097318 0.94617933 0 0 0 0 12.255344
7.150176 1.7823793 1.5229287 0 0 0 0 12.260292
7.1824903 1.7973841 1.3232818 0 0 0 0 12.265236
7.2249374 1.8332481 1.13478 0 0 0 0 12.270184
7.2504444 1.8653349 0.93609023 0 0 0 0 12.275131
7.301188 1.9885598 1.569878 0 0 0 0 12.280079
7.3827376 2.0259693 1.3737953 0 0 0 0 12.285027
7.493475 2.087013 1.1870655 0 0 0 0 12.289974
7.6274157 2.158792 0.99360132 0 0 0 0 12.294918
7.6525397 2.2612586 1.6620806 0 0 0 0 12.299866
7.7573957 2.3154094 1.4562742 0 0 0 0 12.304813
7.8734045 2.3904116 1.2596233 0 0 0 0 12.309761
7.7740641 2.4020708 1.0215639 0 0 0 0 12.314709
8.0391846 2.5675232 1.7647147 0 0 0 0 12.319656
8.1763582 2.6413047 1.5512853 0 0 0 0 12.3246
8.358819 2.7505209 1.3514006 0 0 0 0 12.329548
8.5345306 2.8648536 1.1334516 0 0 0 0 12.334496
8.4550848 2.9034293 1.8767083 0 0 0 0 12.339443
8.6346846 3.0067191 1.6567804 0 0 0 0 12.344391
8.8435659 3.1406457 1.445218 0 0 0 0 12.349339
9.0898438 3.2971489 1.2220919 0 0 0 0 12.354282
8.9624405 3.2972085 2.0117729 0 0 0 0 12.35923
9.1935472 3.4359014 1.7844532 0 0 0 0 12.364178
9.4469681 3.606319 1.5634258 0 0 0 0 12.369125
8.7084198 3.3978825 1.1821729 0 0 0 0 12.374073
8.5619383 3.3652201 1.9425933 0 0 0 0 12.379017
8.4340525 3.3703158 1.6532174 0 0 0 0 12.383965
10.13704 4.1409435 1.6966699 0 0 0 0 12.388912
10.314051 4.3133841 1.4208277 0 0 0 0 12.39386
8.7066574 3.6404855 1.9985851 0 0 0 0 12.398808
10.595189 4.5127931 2.1071832 0 0 0 0 12.403755
10.989105 4.7875896 1.863826 0 0 0 0 12.408699
10.144703 4.5305371 1.4123663 0 0 0 0 12.413647
9.4342413 4.1895475 2.1942556 0 0 0 0 12.418594
10.976583 4.9681773 2.2099946 0 0 0 0 12.423542
11.545639 5.3518639 1.9836864 0 0 0 0 12.42849
9.9793081 4.7476315 1.4079494 0 0 0 0 12.433437
10.104063 4.7503333 2.3793242 0 0 0 0 12.438381
10.758049 5.1629353 2.1929696 0 0 0 0 12.443329
11.35149 5.5883193 1.9769911 0 0 0 0 12.448277
9.4712811 4.7878914 1.3535863 0 0 0 0 12.453224
10.692013 5.3111343 2.5505157 0 0 0 0 12.458172
10.718189 5.4464927 2.2140009 0 0 0 0 12.46312
9.1995449 4.798697 1.6197107 0 0 0 0 12.468063
9.7900972 5.2490883 1.4207449 0 0 0 0 12.473011
9.5846529 5.1474686 2.0064023 0 0 0 0 12.482906
8.7705212 4.8399959 1.5671979 0 0 0 0 12.487854
8.7419634 4.9638972 1.2860893 0 0 0 0 12.492798
8.5971308 4.8696404 1.8234035 0 0 0 0 12.502693
8.884059 5.1776657 1.6129653 0 0 0 0 12.507641
10.770535 6.4593258 1.6161932 0 0 0 0 12.512589
8.0019951 4.7759852 1.7219006 0 0 0 0 12.52248
8.0304384 4.9341359 1.4794596 0 0 0 0 12.527428
9.7593956 6.1796718 1.4879475 0 0 0 0 12.532375
7.8689322 4.9396582 1.7197536 0 0 0 0 12.542271
7.9709296 5.1579089 1.4931982 0 0 0 0 12.547218
10.393083 6.9350486 1.6159518 0 0 0 0 12.552162
8.6047831 5.5141068 2.1995559 0 0 0 0 12.55711
8.4950924 5.6020246 1.888526 0 0 0 0 12.562057
9.2838678 6.3129516 1.7721055 0 0 0 0 12.567005
9.0630665 6.3672423 1.4318395 0 0 0 0 12.571953
8.4618349 5.687901 2.1973212 0 0 0 0 12.5769
8.3964453 5.8112726 1.8978236 0 0 0 0 12.581844
8.1972227 5.861237 1.5927826 0 0 0 0 12.586792
8.1057892 5.9918952 1.3050244 0 0 0 0 12.59174
8.3932533 5.9097762 2.2149601 0 0 0 0 12.596687
10.077014 7.3147311 2.3222215 0 0 0 0 12.601635
8.1167994 6.0952554 1.6083201 0 0 0 0 12.606579
9.8483324 7.6548314 1.62635 0 0 0 0 12.611526
7.9787707 6.0754504 1.8698229 0 0 0 0 12.621422
8.6297331 6.7980475 1.7449558 0 0 0 0 12.626369
9.6710672 7.8950315 1.6308682 0 0 0 0 12.631317
9.8815479 7.6271262 2.7035878 0 0 0 0 13.197186
8.5750484 6.8414621 2.0485997 0 0 0 0 13.202133
9.564209 7.9042563 1.9767424 0 0 0 0 13.207077
9.473258 8.123003 1.6341672 0 0 0 0 13.212025
9.7099152 7.8362174 2.70315 0 0 0 0 13.216972
9.5775814 8.001483 2.3370492 0 0 0 0 13.22192
9.3796558 8.1254845 1.9811964 0 0 0 0 13.226868
9.2908897 8.3641996 1.6426812 0 0 0 0 13.231815
9.5855923 8.08673 2.71928 0 0 0 0 13.236759
9.4151087 8.231452 2.3437486 0 0 0 0 13.241707
9.2051687 8.3545904 1.9877717 0 0 0 0 13.246655
9.1014242 8.5964746 1.6501087 0 0 0 0 13.251602
9.0256567 8.5827484 1.9952962 0 0 0 0 13.266441
8.9190235 8.8366613 1.6596266 0 0 0 0 13.271389
8.8360615 8.8050165 2.0037091 0 0 0 0 13.286232
8.7315874 9.0749006 1.670092 0 0 0 0 13.291176
8.3102016 8.6782789 1.9340203 0 0 0 0 13.306019
8.5341282 9.3142471 1.683459 0 0 0 0 13.310966
8.2596474 8.6573067 2.2514586 0 0 0 0 13.320858
8.0659008 8.8281879 1.9287455 0 0 0 0 13.325806
7.9624329 9.1200151 1.6181829 0 0 0 0 13.330753
8.1866379 8.6045732 2.5776091 0 0 0 0 13.335701
8.0162029 8.7892132 2.2401614 0 0 0 0 13.340649
7.8953109 9.0552149 1.9413741 0 0 0 0 13.345596
7.7596893 9.3324146 1.628455 0 0 0 0 13.35054
7.9683328 8.7501841 2.5685973 0 0 0 0 13.355488
7.8717666 9.0349274 2.2590947 0 0 0 0 13.360435
7.7136016 9.271369 1.9528712 0 0 0 0 13.365383
7.5741282 9.5646057 1.6429433 0 0 0 0 13.370331
7.8247204 8.9768925 2.5835059 0 0 0 0 13.375278
7.6707401 9.2153158 2.2613292 0 0 0 0 13.380222
7.5309138 9.4915257 1.9663686 0 0 0 0 13.38517
7.4017739 9.8196335 1.6626121 0 0 0 0 13.390118
7.630682 9.155201 2.5848098 0 0 0 0 13.395065
7.4949932 9.4283953 2.2728863 0 0 0 0 13.400013
7.3472705 9.7176867 1.9818699 0 0 0 0 13.404957
7.2011023 10.04299 1.676935 0 0 0 0 13.409904
7.4578171 9.3552504 2.593374 0 0 0 0 13.414852
7.3172798 9.6474876 2.287437 0 0 0 0 13.4198
7.1535072 9.9319639 1.9952488 0 0 0 0 13.424747
6.1959553 9.1028509 1.4988742 0 0 0 0 13.429695
7.2850218 9.5642891 2.6049581 0 0 0 0 13.434639
7.1547971 9.8923922 2.3081944 0 0 0 0 13.439587
6.9497094 10.145349 2.0105259 0 0 0 0 13.444534
6.2963047 9.7396326 1.5870527 0 0 0 0 13.449482
7.1466689 9.8249063 2.6309929 0 0 0 0 13.45443
6.971077 10.111547 2.3226893 0 0 0 0 13.459377
6.890974 10.576001 2.068692 0 0 0 0 13.464321
6.9633026 11.356694 1.8348345 0 0 0 0 13.469269
6.9617953 10.026082 2.640444 0 0 0 0 13.474216
6.8411722 10.422046 2.359906 0 0 0 0 13.479164
6.7937284 11.697648 1.8717017 0 0 0 0 13.489059
6.7617803 10.213428 2.6477177 0 0 0 0 13.494003
6.8526549 11.663335 2.2262528 0 0 0 0 13.503899
5.2324204 9.530097 1.5057279 0 0 0 0 13.508846
4.9802117 9.607028 1.5052797 0 0 0 0 13.528633
4.6861382 9.5984478 1.4932501 0 0 0 0 13.54842
6.6158648 11.579932 2.8736792 0 0 0 0 13.553368
4.5226593 9.854311 1.5240442 0 0 0 0 13.568211
5.7321019 13.018205 2.3692114 0 0 0 0 13.60284
5.6127081 12.974418 3.0229375 0 0 0 0 13.652309
4.4495301 14.455124 2.5506766 0 0 0 0 13.399075
3.6293147 14.788193 2.2398391 0 0 0 0 13.423809
3.2906396 14.937068 2.2626429 0 0 0 0 13.443596
4.4151983 14.409379 3.1892896 0 0 0 0 13.448544
3.4476683 14.791673 2.5790191 0 0 0 0 13.458439
2.9772646 15.218614 2.3069534 0 0 0 0 13.463387
3.6222081 14.768106 2.8847938 0 0 0 0 13.473278
3.1326492 15.003261 2.6081853 0 0 0 0 13.478226
2.6728866 15.603024 2.3685482 0 0 0 0 13.483173
3.2809124 14.841043 2.8834372 0 0 0 0 13.493069
2.8305936 15.315666 2.655673 0 0 0 0 13.498016
2.3495309 15.992641 2.4329634 0 0 0 0 13.50296
3.4556124 14.734491 3.1790609 0 0 0 0 13.507908
2.9719687 15.05756 2.9106796 0 0 0 0 13.512856
2.5231328 15.694102 2.718231 0 0 0 0 13.517803
2.007884 16.356461 2.4961491 0 0 0 0 13.522751
3.1244454 14.81232 3.1708221 0 0 0 0 13.527699
2.6773882 15.420856 2.9683425 0 0 0 0 13.532642
2.1974134 16.047745 2.7775617 0 0 0 0 13.53759
1.7750365 17.919752 2.745645 0 0 0 0 13.542538
2.8280334 15.083672 3.207298 0 0 0 0 13.547485
2.359987 15.697435 3.0086176 0 0 0 0 13.552433
1.8671311 16.447424 2.8449347 0 0 0 0 13.557377
2.5383282 15.430917 3.258986 0 0 0 0 13.567272
2.0447631 16.102938 3.0771558 0 0 0 0 13.57222
1.6171447 17.918884 3.1010954 0 0 0 0 13.577168
2.2337732 15.797316 3.3165624 0 0 0 0 13.587059
1.7166966 16.525576 3.1485996 0 0 0 0 13.592007
0.54432571 19.369375 3.0078056 0 0 0 0 13.601902
1.9193623 16.177818 3.3750682 0 0 0 0 13.60685
1.4534254 17.98815 3.4206157 0 0 0 0 13.611797
0.089653037 20.056341 3.1344583 0 0 0 0 13.621689
1.5899512 16.562479 3.437434 0 0 0 0 13.626637
0.39414531 19.343391 3.362309 0 0 0 0 13.636532
-0.39275998 20.772604 3.2668896 0 0 0 0 13.641479
0.53630412 19.302626 3.9558094 0 0 0 0 13.686001
-1.0532812 21.38316 3.7524252 0 0 0 0 13.695896
-1.9065543 21.248455 3.4184833 0 0 0 0 13.70084
0.10374356 19.570461 3.9959331 0 0 0 0 13.705788
-1.5335678 21.180609 3.7302144 0 0 0 0 13.715683
-2.4766514 21.811682 3.5417724 0 0 0 0 13.720631
-0.33985999 19.619484 3.9925482 0 0 0 0 13.725578
-1.1706638 20.631111 3.906951 0 0 0 0 13.730522
-2.0333045 21.248188 3.7583084 0 0 0 0 13.73547
-3.1500971 22.962912 3.7620995 0 0 0 0 13.740417
-0.80396962 20.049601 4.0696626 0 0 0 0 13.745365
-1.6824774 21.103725 4.0006661 0 0 0 0 13.750313
-2.6031568 21.835396 3.8836522 0 0 0 0 13.75526
-3.7476804 23.278471 3.8516729 0 0 0 0 13.760204
-2.1948118 21.31241 4.0478983 0 0 0 0 13.7701
-3.2852583 23.03368 4.1209898 0 0 0 0 13.775047
-4.2457662 22.921062 3.8330281 0 0 0 0 13.779995
-2.7619445 21.864595 4.1612139 0 0 0 0 13.789886
-3.8715932 23.262142 4.1875248 0 0 0 0 13.794834
-4.7279506 22.553467 3.8135316 0 0 0 0 13.799782
-2.3372483 21.469419 4.335856 0 0 0 0 13.804729
-3.4567101 23.103991 4.4095101 0 0 0 0 13.809677
-4.3567886 22.873621 4.1459584 0 0 0 0 13.814621
-5.1930857 22.188671 3.7932191 0 0 0 0 13.819569
-2.9024777 22.00559 4.4401703 0 0 0 0 13.824516
-4.0143313 23.184179 4.4380713 0 0 0 0 13.829464
-4.8258862 22.494907 4.1065793 0 0 0 0 13.834412
-5.6589551 21.855858 3.7829638 0 0 0 0 13.839359
-3.6011257 23.245516 4.6865964 0 0 0 0 13.601517
-4.4930882 22.812208 4.3806949 0 0 0 0 13.606464
-5.2885737 22.156788 4.0753765 0 0 0 0 13.611412
-6.1029649 21.508577 3.7688811 0 0 0 0 13.61636
-4.1225691 23.115442 4.6601019 0 0 0 0 13.621307
-4.9608464 22.456549 4.3303418 0 0 0 0 13.626251
-5.744442 21.807945 4.0441642 0 0 0 0 13.631199
-6.5438499 21.177517 3.759861 0 0 0 0 13.636147
-4.5983396 22.737915 4.5866261 0 0 0 0 13.641094
-5.4166336 22.097742 4.2801113 0 0 0 0 13.646042
-6.1911402 21.478981 4.0190878 0 0 0 0 13.65099
-6.9738684 20.833323 3.7499325 0 0 0 0 13.655933
-5.0666509 22.409277 4.5233221 0 0 0 0 13.660881
-5.8683968 21.745869 4.23594 0 0 0 0 13.665829
-6.6307626 21.157923 3.9961028 0 0 0 0 13.670776
-7.4045305 20.527117 3.7480726 0 0 0 0 13.675724
-5.5175447 22.022444 4.4530945 0 0 0 0 13.680668
-6.3109031 21.417881 4.1939125 0 0 0 0 13.685616
-7.0644665 20.831785 3.9761746 0 0 0 0 13.690563
-7.824266 20.214773 3.747318 0 0 0 0 13.695511
-5.9697928 21.705591 4.3979869 0 0 0 0 13.700459
-6.7494664 21.088829 4.1569285 0 0 0 0 13.705406
-7.483181 20.501472 3.9533961 0 0 0 0 13.71035
-8.2459459 19.910439 3.7505636 0 0 0 0 13.715298
-6.4033718 21.353527 4.3370104 0 0 0 0 13.720245
-7.1769795 20.764643 4.1210713 0 0 0 0 13.725193
-7.8950334 20.162066 3.9346762 0 0 0 0 13.730141
-8.6496944 19.5959 3.7499776 0 0 0 0 13.735088
-6.8455811 21.043537 4.2870283 0 0 0 0 13.740032
-7.5896587 20.424282 4.0843401 0 0 0 0 13.74498
-8.3124533 19.866705 3.9229853 0 0 0 0 13.749928
-9.055418 19.288364 3.7553895 0 0 0 0 13.754875
-7.2631555 20.696264 4.232234 0 0 0 0 13.759823
-8.0051899 20.100935 4.0526161 0 0 0 0 13.764771
-8.7169943 19.558193 3.9094062 0 0 0 0 13.769714
-9.4521027 18.983721 3.7609034 0 0 0 0 13.774662
-7.688612 20.36606 4.1853957 0 0 0 0 13.77961
-8.4266157 19.793633 4.0288672 0 0 0 0 13.784557
-9.1285543 19.254738 3.9037704 0 0 0 0 13.789505
-9.856741 18.688145 3.7723579 0 0 0 0 13.794449
-8.0960665 20.034647 4.137743 0 0 0 0 13.799397
-8.8349476 19.494177 4.0052705 0 0 0 0 13.804344
-9.532074 18.955181 3.8992281 0 0 0 0 13.809292
-10.248364 18.392418 3.7829492 0 0 0 0 13.81424
-8.5191412 19.745384 4.1000147 0 0 0 0 13.819187
-9.2363529 19.188631 3.9827383 0 0 0 0 13.824131
-9.9226265 18.649477 3.8918109 0 0 0 0 13.829079
-10.638933 18.103666 3.7965689 0 0 0 0 13.834026
-8.9146023 19.415812 4.0564971 0 0 0 0 13.838974
-9.6318321 18.875013 3.9592555 0 0 0 0 13.843922
-10.320007 18.364832 3.8913679 0 0 0 0 13.848869
-10.020308 16.177128 3.4613953 0 0 0 0 13.853813
-9.3188019 19.116316 4.0209517 0 0 0 0 13.858761
-10.037035 18.594481 3.94574 0 0 0 0 13.863708
-10.713507 18.069132 3.890949 0 0 0 0 13.868656
-11.417125 17.527092 3.8318536 0 0 0 0 13.873604
-9.7201071 18.808777 3.9874249 0 0 0 0 13.878551
-10.430484 18.28981 3.9303045 0 0 0 0 13.883495
-10.084653 16.140533 3.5338635 0 0 0 0 13.888443
-11.810667 17.246338 3.8534722 0 0 0 0 13.893391
-10.132182 18.528336 3.9618444 0 0 0 0 13.898338
-10.81887 17.991074 3.9159355 0 0 0 0 13.903286
-11.49147 17.486595 3.8982329 0 0 0 0 13.90823
-12.212116 16.97965 3.8820417 0 0 0 0 13.913177
-10.515557 18.21258 3.9274936 0 0 0 0 13.918125
-10.158095 16.03117 3.535104 0 0 0 0 13.923073
-11.876935 17.198769 3.9049234 0 0 0 0 13.92802
-12.589785 16.686699 3.9038076 0 0 0 0 13.932968
-10.913792 17.917965 3.9030368 0 0 0 0 13.937912
-11.591698 17.393518 3.8942513 0 0 0 0 13.94286
-12.286168 16.939188 3.9204314 0 0 0 0 13.947807
-11.304053 17.620255 3.8786597 0 0 0 0 13.957703
-11.986055 17.104807 3.8898549 0 0 0 0 13.96265
-12.648919 16.622099 3.9243073 0 0 0 0 13.967594
-11.693289 17.325523 3.8553028 0 0 0 0 13.977489
-12.382315 16.827103 3.8884647 0 0 0 0 13.982437
-11.838498 14.828479 3.573283 0 0 0 0 13.987385
-12.211797 14.064637 3.5411382 0 0 0 0 13.992332
-12.079681 17.018745 3.8349574 0 0 0 0 13.997276
-12.766718 16.534266 3.8851705 0 0 0 0 14.002224
-12.756848 15.247293 3.7559223 0 0 0 0 14.007172
-12.989065 14.28491 3.6958354 0 0 0 0 14.012119
-12.490698 16.754219 3.8244464 0 0 0 0 14.017067
-11.917472 14.707256 3.5174627 0 0 0 0 14.022015
-12.270507 14.00011 3.5236318 0 0 0 0 14.026958
-12.849806 13.502388 3.5879118 0 0 0 0 14.031906
-12.894923 16.46961 3.8129721 0 0 0 0 14.036854
-12.293338 14.471298 3.5263593 0 0 0 0 14.041801
-13.073524 14.236671 3.6711094 0 0 0 0 14.046749
-12.860887 12.912462 3.5288298 0 0 0 0 14.051693
-13.267435 16.151651 3.7937598 0 0 0 0 14.056641
-12.393 13.914381 3.4604433 0 0 0 0 14.061588
-12.987716 13.50774 3.5687449 0 0 0 0 14.066536
-12.921386 12.392053 3.4893787 0 0 0 0 14.071484
-13.279163 14.23045 3.6135643 0 0 0 0 14.291466
-13.02347 12.929725 3.5067255 0 0 0 0 14.296413
-12.961524 11.87706 3.4474149 0 0 0 0 14.301357
-12.722934 14.073596 3.4159062 0 0 0 0 14.306305
-13.445101 13.753206 3.5691438 0 0 0 0 14.311253
-13.119524 12.44071 3.4629774 0 0 0 0 14.3162
-12.985839 11.36425 3.4053369 0 0 0 0 14.321148
-12.887738 13.598366 3.360497 0 0 0 0 14.326096
-13.29653 12.976627 3.4472997 0 0 0 0 14.331039
-13.153896 11.912033 3.4087703 0 0 0 0 14.335987
-13.010878 10.877446 3.3652992 0 0 0 0 14.340935
-13.200196 13.281689 3.3449144 0 0 0 0 14.345882
-13.40156 12.48372 3.3974566 0 0 0 0 14.35083
-13.210971 11.418587 3.3644023 0 0 0 0 14.355774
-13.03676 10.407644 3.3292842 0 0 0 0 14.360722
-13.941204 13.381528 3.4398487 0 0 0 0 14.365669
-13.469747 11.969416 3.3409407 0 0 0 0 14.370617
-13.242 10.924862 3.3162928 0 0 0 0 14.375565
-13.046647 9.9376631 3.2944279 0 0 0 0 14.380512
-13.792352 12.625954 3.3150444 0 0 0 0 14.385456
-13.562559 11.498363 3.2952609 0 0 0 0 14.390404
-13.301743 10.466433 3.2789633 0 0 0 0 14.395351
-13.432294 9.7606392 3.3553836 0 0 0 0 14.400299
-13.890431 12.119977 3.2572494 0 0 0 0 14.405247
-13.629423 11.020027 3.2478259 0 0 0 0 14.410194
-13.303636 9.983386 3.2311623 0 0 0 0 14.415138
-13.556406 9.3888521 3.3515775 0 0 0 0 14.420086
-13.976384 11.623868 3.1985936 0 0 0 0 14.425034
-13.673338 10.534441 3.1986048 0 0 0 0 14.429981
-13.474479 9.6371136 3.2279391 0 0 0 0 14.434929
-13.563991 8.9488344 3.3218012 0 0 0 0 14.439877
-14.074198 11.146873 3.1478562 0 0 0 0 14.44482
-13.756834 10.096271 3.1600795 0 0 0 0 14.449768
-13.851286 9.432004 3.2749388 0 0 0 0 14.454716
-13.53361 8.4984121 3.2853813 0 0 0 0 14.459663
-14.171845 10.687867 3.1011543 0 0 0 0 14.464611
-13.750764 9.6031446 3.1063397 0 0 0 0 14.469555
-13.880812 8.9932308 3.2409484 0 0 0 0 14.474503
-13.528016 8.0742474 3.2567635 0 0 0 0 14.47945
-14.244545 10.22159 3.0526869 0 0 0 0 14.484398
-13.946507 9.2631407 3.1008861 0 0 0 0 14.489346
-13.921233 8.5695639 3.2138779 0 0 0 0 14.494293
-13.522288 7.6640768 3.2311723 0 0 0 0 14.499237
-14.322156 9.7653608 3.0071898 0 0 0 0 14.504185
-14.31346 9.0329313 3.1359451 0 0 0 0 14.509132
-13.923658 8.137495 3.1791673 0 0 0 0 14.51408
-13.505534 7.2557859 3.205693 0 0 0 0 14.519028
-14.344904 9.2885437 2.9541969 0 0 0 0 14.523975
-14.41669 8.6309366 3.113296 0 0 0 0 14.528919
-13.921988 7.7153792 3.1465154 0 0 0 0 14.533867
-13.599282 6.9186511 3.2082531 0 0 0 0 14.538815
-14.452196 8.8736095 2.9234838 0 0 0 0 14.543762
-14.428202 8.1859732 3.0734739 0 0 0 0 14.54871
-13.931227 7.3053727 3.1187773 0 0 0 0 14.553658
-14.828248 8.6245031 2.948426 0 0 0 0 14.563549
-14.445634 7.7520638 3.0386133 0 0 0 0 14.568497
-0.47636127 0.20616589 0.08450035 0 0 0 0 14.578392
-15.043043 8.275692 2.9407783 0 0 0 0 14.583336
-0.47522354 0.21216258 0.078540578 0 0 0 0 14.593231
-15.207115 7.8953333 2.9275744 0 0 0 0 14.603127
-0.47409782 0.2161613 0.071576901 0 0 0 0 14.608074
-0.47358835 0.18112788 0.083528891 0 0 0 0 14.617966
-0.47045282 0.18510671 0.075584918 0 0 0 0 14.632809
-0.46709973 0.20409702 0.061664928 0 0 0 0 14.6427
-0.47531459 0.1911688 0.069566056 0 0 0 0 14.647648
-0.48078966 0.16019474 0.084466726 0 0 0 0 14.657543
-0.480643 0.16520615 0.076495223 0 0 0 0 14.672382
-0.46930501 0.18011546 0.0596461 0 0 0 0 14.682278
-0.48251697 0.16923749 0.069502033 0 0 0 0 14.687225
-0.50397366 0.14442724 0.089257188 0 0 0 0 14.697117
-0.49983928 0.1473971 0.080321163 0 0 0 0 14.71196
-0.47849593 0.15920579 0.059564382 0 0 0 0 14.721855
-0.4937171 0.14834733 0.070400797 0 0 0 0 14.726799
-0.40422031 0.096382111 0.066194892 0 0 0 0 14.736694
-0.40210631 0.098372638 0.058236625 0 0 0 0 14.751537
-0.46939179 0.13202918 0.057087254 0 0 0 0 15.122143
-0.431656 0.10762294 0.058412936 0 0 0 0 15.12709
-0.41104344 0.079380088 0.068571419 0 0 0 0 15.136982
-0.4109306 0.081392415 0.060593586 0 0 0 0 15.151825
-0.39266381 0.089232974 0.042796362 0 0 0 0 15.16172
-0.40882868 0.082383551 0.052633069 0 0 0 0 15.166664
-0.41319659 0.061394967 0.068563335 0 0 0 0 15.176559
-0.41208386 0.063396677 0.060595158 0 0 0 0 15.191402
-0.39480761 0.071250133 0.041788086 0 0 0 0 15.201294
-0.41399121 0.064428397 0.053595953 0 0 0 0 15.206242
-0.40834013 0.043337435 0.067622833 0 0 0 0 15.216137
-0.41024733 0.044369161 0.060623612 0 0 0 0 15.230976
-0.39797089 0.052275959 0.041768111 0 0 0 0 15.240871
-0.40814632 0.044362377 0.051661052 0 0 0 0 15.245819
-0.40449253 0.025288772 0.067672439 0 0 0 0 15.255711
-0.40539017 0.02631183 0.059682894 0 0 0 0 15.270554
-0.38911536 0.033178598 0.039863758 0 0 0 0 15.280445
-0.40229982 0.025294624 0.050727878 0 0 0 0 15.285393
-0.41065192 0.00834205 0.069627576 0 0 0 0 15.295288
-0.41455984 0.0083967997 0.061607193 0 0 0 0 15.310127
-0.39928523 0.015274428 0.04177827 0 0 0 0 15.320023
-0.40946963 0.007358497 0.052671403 0 0 0 0 15.32497
-0.41279089 -0.0076452512 0.070623308 0 0 0 0 15.334866
-0.41570944 -0.0086010611 0.062610567 0 0 0 0 15.349705
-0.39641628 -0.0017614258 0.040819939 0 0 0 0 15.3596
-0.40960968 -0.0096478779 0.052684341 0 0 0 0 15.364544
-0.41094014 -0.024674697 0.0716554 0 0 0 0 15.374439
-0.40082151 -0.025759654 0.059767541 0 0 0 0 15.389282
-0.39055753 -0.019828657 0.039888207 0 0 0 0 15.399174
-0.39974135 -0.027755512 0.050791144 0 0 0 0 15.404121
-0.4211373 -0.043583591 0.075568222 0 0 0 0 15.414017
-0.42004737 -0.045577664 0.065591954 0 0 0 0 15.428856
-0.40976447 -0.039642692 0.043712653 0 0 0 0 15.438751
-0.42397711 -0.048521094 0.056565758 0 0 0 0 15.443699
-0.42832431 -0.062522441 0.078509986 0 0 0 0 15.45359
-0.42522499 -0.064535581 0.067552909 0 0 0 0 15.468433
-0.40592411 -0.058690857 0.043759614 0 0 0 0 15.478325
-0.4281652 -0.068489522 0.058534302 0 0 0 0 15.483273
-0.42447245 -0.080571063 0.078559153 0 0 0 0 15.493168
-0.41635358 -0.081634544 0.066651799 0 0 0 0 15.508007
-0.40508273 -0.077707499 0.043777768 0 0 0 0 15.517902
-0.41930416 -0.086588413 0.057631154 0 0 0 0 15.52285
-0.42062944 -0.098621458 0.07960809 0 0 0 0 15.532745
-0.43562907 -0.10645372 0.072466865 0 0 0 0 15.547585
-0.42434889 -0.10252459 0.048592795 0 0 0 0 15.55748
-0.43757001 -0.11141629 0.062455911 0 0 0 0 15.562428
-0.43689311 -0.12147431 0.086455896 0 0 0 0 15.572319
-0.43079567 -0.12551458 0.07352329 0 0 0 0 15.587162
-0.41681391 -0.12256052 0.048336249 0 0 0 0 15.31152
-0.43103707 -0.13143989 0.06218873 0 0 0 0 15.316463
-0.42532256 -0.13854872 0.085243009 0 0 0 0 15.326359
-0.42826375 -0.1444986 0.074220307 0 0 0 0 15.341198
-0.44114366 -0.1523248 0.054092105 0 0 0 0 15.351093
-0.4684667 -0.16707486 0.071807705 0 0 0 0 15.356041
-0.48390955 -0.18097942 0.10364591 0 0 0 0 15.365936
-0.47478256 -0.18504661 0.087742887 0 0 0 0 15.380775
-0.45645383 -0.1821809 0.057934914 0 0 0 0 15.390671
-0.46770528 -0.19109826 0.074816428 0 0 0 0 15.395618
-0.47205755 -0.20011145 0.10277048 0 0 0 0 15.40551
-0.46294016 -0.20418029 0.087867223 0 0 0 0 15.420353
-0.49296498 -0.22582775 0.067548379 0 0 0 0 15.430244
-0.504215 -0.23374744 0.085432053 0 0 0 0 15.435192
-0.52472544 -0.25060791 0.1212166 0 0 0 0 15.445087
-0.51661897 -0.25666443 0.10529987 0 0 0 0 15.459927
-0.51139498 -0.26465926 0.074345045 0 0 0 0 15.469822
-0.52668506 -0.27553907 0.093184508 0 0 0 0 15.47477
-7.5037575 -4.7598734 1.5139761 0 0 0 0 15.529186
-5.2530394 -6.7005634 1.5438042 0 0 0 0 15.542557
-5.3440356 -6.6701198 1.7880169 0 0 0 0 15.547504
-5.0038934 -6.7131767 1.5272079 0 0 0 0 15.562344
-5.1486335 -6.7441983 1.7817898 0 0 0 0 15.567291
-5.258749 -6.7345366 2.01578 0 0 0 0 15.572239
-5.4005256 -6.7646008 2.2753932 0 0 0 0 15.577187
-4.8401012 -6.8329515 1.5345883 0 0 0 0 15.58213
-4.9725437 -6.8410888 1.7833321 0 0 0 0 15.587078
-5.062151 -6.7946138 2.0045886 0 0 0 0 15.592026
-5.1651368 -6.7700334 2.2416768 0 0 0 0 15.596973
-4.7584829 -7.0777822 1.5758812 0 0 0 0 15.601921
-4.8468747 -7.0073009 1.8052033 0 0 0 0 15.606865
-4.9291968 -6.9418597 2.0215733 0 0 0 0 15.611813
-5.0299559 -6.9032602 2.254724 0 0 0 0 15.61676
-4.3111968 -6.7582822 1.4876807 0 0 0 0 15.621708
-4.5586109 -6.9332581 1.7660831 0 0 0 0 15.626656
-4.7947412 -7.087338 2.0376284 0 0 0 0 15.631603
-4.8413124 -6.9622393 2.2404382 0 0 0 0 15.636547
-3.9143882 -6.4732752 1.4109414 0 0 0 0 15.641495
-4.1393771 -6.6264443 1.668592 0 0 0 0 15.646442
-4.3612146 -6.7696376 1.9212904 0 0 0 0 15.65139
-4.5974879 -6.9307337 2.2008243 0 0 0 0 15.656338
-3.561017 -6.2208295 1.3437334 0 0 0 0 15.661285
-3.7706921 -6.3601246 1.5835518 0 0 0 0 15.666229
-3.9783056 -6.4954381 1.8213971 0 0 0 0 15.671177
-4.1910448 -6.6277313 2.0762014 0 0 0 0 15.676125
-3.23382 -5.9801164 1.2812555 0 0 0 0 15.681072
-3.4281297 -6.1005368 1.5032507 0 0 0 0 15.68602
-3.6337512 -6.2458539 1.7310973 0 0 0 0 15.690968
-3.8383582 -6.3782067 1.9719776 0 0 0 0 15.695911
-2.9430187 -5.7690382 1.2273812 0 0 0 0 15.700859
-3.1333048 -5.8954854 1.4404038 0 0 0 0 15.705807
-3.3194304 -6.0119648 1.6474832 0 0 0 0 15.710754
-3.5148933 -6.1413903 1.8764544 0 0 0 0 15.715702
-2.6774824 -5.5777063 1.1792326 0 0 0 0 15.720646
-2.8585231 -5.693223 1.3783609 0 0 0 0 15.725594
-3.0314229 -5.7988176 1.5735831 0 0 0 0 15.730541
-3.2309434 -5.9421864 1.7934923 0 0 0 0 15.735489
-2.4330888 -5.3961582 1.1348661 0 0 0 0 15.740437
-2.604964 -5.5057497 1.3230907 0 0 0 0 15.745384
-2.7809408 -5.6253014 1.5112599 0 0 0 0 15.750328
-2.9610543 -5.7438402 1.715394 0 0 0 0 15.755276
-2.2119601 -5.2353759 1.0952432 0 0 0 0 15.760223
-2.3736186 -5.334053 1.2725825 0 0 0 0 15.765171
-2.5445194 -5.4536428 1.4527993 0 0 0 0 15.770119
-2.7154286 -5.5642533 1.6440333 0 0 0 0 15.775066
-2.006994 -5.0864305 1.0594461 0 0 0 0 15.78001
-2.1635463 -5.182147 1.2288384 0 0 0 0 15.784958
-2.3211412 -5.2848473 1.3952091 0 0 0 0 15.789906
-2.4941254 -5.4074287 1.581403 0 0 0 0 15.794853
-1.8120492 -4.9373822 1.0255531 0 0 0 0 15.799801
-1.9696259 -5.0410776 1.1889222 0 0 0 0 15.804749
-2.1252451 -5.1507912 1.3502994 0 0 0 0 15.809692
-2.2818434 -5.2505112 1.5206861 0 0 0 0 15.81464
-1.634287 -4.8021612 0.99547338 0 0 0 0 15.819588
-1.7847782 -4.9049158 1.1509105 0 0 0 0 15.824535
-1.9362805 -5.0106573 1.3043332 0 0 0 0 15.829483
-2.0939424 -5.1203609 1.470693 0 0 0 0 15.834427
-1.4739298 -4.6997724 0.97217184 0 0 0 0 15.839375
-1.6129817 -4.7716198 1.1147701 0 0 0 0 15.844322
-1.7584282 -4.8784118 1.2612475 0 0 0 0 15.84927
-1.9110045 -4.9871531 1.4196566 0 0 0 0 15.854218
-1.3163018 -4.5743442 0.94488341 0 0 0 0 15.859165
-1.4544475 -4.6581969 1.0844692 0 0 0 0 15.864109
-1.5968072 -4.7630081 1.2239792 0 0 0 0 15.869057
-1.7432766 -4.8678002 1.3754524 0 0 0 0 15.874004
-1.1688757 -4.4638181 0.922472 0 0 0 0 15.878952
-1.3101659 -4.5646348 1.0589992 0 0 0 0 15.8839
-1.4422377 -4.6505332 1.1886383 0 0 0 0 15.888847
-1.580421 -4.7383881 1.3282183 0 0 0 0 15.893791
-1.033632 -4.3681707 0.90291947 0 0 0 0 15.898739
-1.1677041 -4.4550471 1.0315386 0 0 0 0 15.903687
-1.2967193 -4.540966 1.1552063 0 0 0 0 15.908634
-1.4328661 -4.6308317 1.2888021 0 0 0 0 15.913582
-0.90434915 -4.2684598 0.88331717 0 0 0 0 15.91853
-1.0333043 -4.3503757 1.0049927 0 0 0 0 15.923473
-1.1634917 -4.4532847 1.1286201 0 0 0 0 15.928421
-1.2956015 -4.5441833 1.257252 0 0 0 0 15.933369
-0.78114766 -4.1746879 0.8656463 0 0 0 0 15.938316
-0.90810555 -4.2606182 0.98333371 0 0 0 0 15.943264
-1.0330759 -4.3505635 1.0980327 0 0 0 0 15.948208
-1.1611282 -4.4404955 1.2217041 0 0 0 0 15.953156
-0.66396713 -4.0818539 0.84891647 0 0 0 0 15.958103
-0.78998774 -4.1767898 0.96359712 0 0 0 0 15.963051
-0.90770096 -4.2497926 1.0693934 0 0 0 0 15.967999
-1.0337567 -4.3447366 1.1880747 0 0 0 0 15.972946
-0.55506843 -4.0119438 0.83706802 0 0 0 0 15.97789
-0.67482173 -4.0889263 0.94283867 0 0 0 0 15.982838
-0.79164684 -4.1739383 1.0476223 0 0 0 0 15.987785
-0.91349524 -4.2559104 1.1583661 0 0 0 0 15.992733
-0.44862646 -3.9300218 0.82235897 0 0 0 0 16.120518
-0.56631207 -4.0050259 0.9241581 0 0 0 0 16.125465
-0.68117845 -4.0970621 1.0269531 0 0 0 0 16.130413
-0.79680204 -4.1660886 1.1287826 0 0 0 0 16.135357
-0.34878358 -3.8630133 0.81241441 0 0 0 0 16.140305
-0.46341136 -3.9360416 0.91024548 0 0 0 0 16.145252
-0.57392418 -4.0040994 1.0011233 0 0 0 0 16.1502
-0.68981665 -4.0971298 1.1059083 0 0 0 0 16.155148
-0.2619276 -3.9599466 0.83805901 0 0 0 0 16.160095
-0.36449257 -3.8660131 0.89529681 0 0 0 0 16.165039
-0.47297704 -3.9340863 0.98319352 0 0 0 0 16.169987
-0.58570421 -4.0181346 1.0800239 0 0 0 0 16.174934
-0.17242639 -4.0859199 0.87067497 0 0 0 0 16.179882
-0.28059483 -3.9599137 0.91991901 0 0 0 0 16.18483
-0.37616947 -3.8750355 0.96820515 0 0 0 0 16.189777
-0.48559248 -3.9380987 1.0551032 0 0 0 0 16.194721
-0.078050919 -4.2219462 0.90631616 0 0 0 0 16.199669
-0.19510084 -4.0868454 0.95249593 0 0 0 0 16.204617
-0.29419082 -3.9629118 0.99081975 0 0 0 0 16.209564
-0.38971841 -3.87603 1.0361108 0 0 0 0 16.214512
0.022199063 -4.3680363 0.94499165 0 0 0 0 16.21946
-0.1016128 -4.2128596 0.98714608 0 0 0 0 16.224403
-0.20862488 -4.0838413 1.0224073 0 0 0 0 16.229351
-0.30975789 -3.9658852 1.0587027 0 0 0 0 16.234299
0.13135383 -4.5212207 0.98673415 0 0 0 0 16.239246
-0.0044576526 -4.3659234 1.0287802 0 0 0 0 16.244194
-0.11915424 -4.2118144 1.0570164 0 0 0 0 16.249138
-0.22626802 -4.0927968 1.0922599 0 0 0 0 16.254086
0.24824564 -4.6954927 1.0345079 0 0 0 0 16.259033
0.10072046 -4.5170665 1.0704893 0 0 0 0 16.263981
-0.023818998 -4.3508506 1.094658 0 0 0 0 16.268929
-0.13886407 -4.2267499 1.1278389 0 0 0 0 16.273876
0.37503299 -4.8778677 1.0853554 0 0 0 0 16.27882
0.21285224 -4.6722789 1.1132525 0 0 0 0 16.283768
0.07833185 -4.504962 1.1363333 0 0 0 0 16.288715
-0.045221329 -4.3417544 1.1585069 0 0 0 0 16.293663
0.51067704 -5.0713382 1.1402619 0 0 0 0 16.298611
0.33455467 -4.8616066 1.1660407 0 0 0 0 16.303558
0.18748663 -4.6581435 1.1790721 0 0 0 0 16.308502
0.054030865 -4.4878316 1.1981691 0 0 0 0 16.31345
0.65902025 -5.2889471 1.2022387 0 0 0 0 16.318398
0.46541023 -5.0370202 1.2179346 0 0 0 0 16.323345
0.30632094 -4.8364363 1.2298529 0 0 0 0 16.328293
0.16115837 -4.6439915 1.2408835 0 0 0 0 16.333241
0.82109255 -5.5287037 1.2702985 0 0 0 0 16.338184
0.60876739 -5.2535782 1.2798669 0 0 0 0 16.343132
0.43413955 -5.0158191 1.2817111 0 0 0 0 16.34808
0.27606419 -4.8172398 1.2896364 0 0 0 0 16.353027
0.9990828 -5.7736244 1.3424909 0 0 0 0 16.357975
0.7658549 -5.4912853 1.348884 0 0 0 0 16.362919
0.57172614 -5.2143073 1.338622 0 0 0 0 16.367867
0.40008146 -4.9815731 1.3364859 0 0 0 0 16.372814
1.1258067 -5.7098799 1.3437639 0 0 0 0 16.377762
0.94153589 -5.7611952 1.4280099 0 0 0 0 16.38271
0.72294492 -5.4419479 1.4046024 0 0 0 0 16.387657
0.536309 -5.2090626 1.4013319 0 0 0 0 16.392601
1.246814 -5.6230631 1.3390244 0 0 0 0 16.397549
1.0738143 -5.7375169 1.4342611 0 0 0 0 16.402496
0.89366025 -5.7088065 1.4836874 0 0 0 0 16.407444
0.68088406 -5.4086185 1.4593008 0 0 0 0 16.412392
1.3628409 -5.533196 1.3352435 0 0 0 0 16.417339
1.1928089 -5.6546736 1.4264953 0 0 0 0 16.422283
1.0360347 -5.7612615 1.5058937 0 0 0 0 16.427231
0.84104294 -5.6413479 1.5273492 0 0 0 0 16.432178
1.4777483 -5.45332 1.3334328 0 0 0 0 16.437126
1.3088907 -5.563797 1.4177157 0 0 0 0 16.442074
1.1532019 -5.6673851 1.49113 0 0 0 0 16.447021
0.99828219 -5.7869973 1.5725235 0 0 0 0 16.451965
1.5877823 -5.3623891 1.3295963 0 0 0 0 16.456913
1.421 -5.4708767 1.4079021 0 0 0 0 16.461861
1.2721328 -5.592535 1.4813467 0 0 0 0 16.466808
1.1144652 -5.6951032 1.5537463 0 0 0 0 16.471756
1.6948444 -5.2684259 1.3257366 0 0 0 0 16.4767
1.5358052 -5.4019947 1.4050686 0 0 0 0 16.481647
1.3822976 -5.4975863 1.4675183 0 0 0 0 16.486595
1.2315485 -5.6112194 1.5369614 0 0 0 0 16.491543
1.8046507 -5.195498 1.3268628 0 0 0 0 16.49649
1.6438534 -5.3130341 1.3972081 0 0 0 0 16.501438
1.4923531 -5.4116387 1.4556713 0 0 0 0 16.506382
1.3445925 -5.5292978 1.5221349 0 0 0 0 16.51133
1.910583 -5.111526 1.3259721 0 0 0 0 16.516277
1.7479101 -5.2230306 1.389312 0 0 0 0 16.521225
1.6052226 -5.3397274 1.4488231 0 0 0 0 16.526173
1.4556546 -5.445354 1.5072926 0 0 0 0 16.53112
2.0154264 -5.0345449 1.3270576 0 0 0 0 16.536064
1.856733 -5.1500864 1.3884271 0 0 0 0 16.541012
1.7093056 -5.2497177 1.4379265 0 0 0 0 16.545959
1.5666174 -5.369411 1.4944334 0 0 0 0 16.550907
2.1202209 -4.9605646 1.3301358 0 0 0 0 16.555855
1.9586998 -5.0660648 1.3834984 0 0 0 0 16.560802
1.8142698 -5.1697192 1.4290184 0 0 0 0 16.565746
1.6736673 -5.2854247 1.4805518 0 0 0 0 16.570694
2.2191205 -4.8785186 1.3301737 0 0 0 0 16.575642
2.0615678 -4.9900537 1.3805623 0 0 0 0 16.580589
1.9191854 -5.0917239 1.4231048 0 0 0 0 16.585537
1.7767354 -5.1993966 1.4666367 0 0 0 0 16.590485
2.3207452 -4.7989521 1.3332671 0 0 0 0 17.060352
2.1652248 -4.9145365 1.3796945 0 0 0 0 17.065296
2.0122979 -4.9851108 1.4082252 0 0 0 0 17.070244
1.882622 -5.1169477 1.4548516 0 0 0 0 17.075191
2.4214909 -4.7269053 1.3372834 0 0 0 0 17.080139
2.2670262 -4.8404937 1.3797244 0 0 0 0 17.085087
2.1238682 -4.9341664 1.4093004 0 0 0 0 17.090034
1.9738925 -5.0117679 1.435846 0 0 0 0 17.094978
2.5212276 -4.653851 1.3432913 0 0 0 0 17.099926
2.3629205 -4.7593856 1.3767135 0 0 0 0 17.104874
2.2334962 -4.8772016 1.410368 0 0 0 0 17.109821
2.0854709 -4.9618196 1.4349188 0 0 0 0 17.114769
2.6140852 -4.5717201 1.3452535 0 0 0 0 17.119713
2.4656348 -4.6913543 1.379738 0 0 0 0 17.12466
2.3294258 -4.7950873 1.4043584 0 0 0 0 17.129608
2.1902843 -4.8927908 1.4279646 0 0 0 0 17.134556
2.7166963 -4.5086956 1.3542658 0 0 0 0 17.139503
2.5585089 -4.6102166 1.3786979 0 0 0 0 17.144451
2.4272788 -4.7189941 1.4003537 0 0 0 0 17.149395
2.2940598 -4.8257546 1.4229962 0 0 0 0 17.154343
2.9262357 -4.6138039 1.4159131 0 0 0 0 17.15929
2.6582208 -4.5421524 1.3816931 0 0 0 0 17.164238
2.5241117 -4.6438913 1.3973368 0 0 0 0 17.169186
2.3909752 -4.747642 1.4139861 0 0 0 0 17.174133
