# .PCD v0.7 - Point Cloud Data file format
VERSION 0.7
FIELDS x y z normal_x normal_y normal_z intensity curvature
SIZE 4 4 4 4 4 4 4 4
TYPE F F F F F F F F
COUNT 1 1 1 1 1 1 1 1
WIDTH 975
HEIGHT 1
VIEWPOINT 0 0 0 1 0 0 0
POINTS 975
DATA ascii
-2.0410845 -5.8273797 4.7690353 0 0 0 0 13.215549
-2.2277746 -5.6686296 4.7370925 0 0 0 0 13.220497
-1.5306369 -6.1460528 4.8326707 0 0 0 0 13.225444
-1.7428455 -6.0572591 4.8414831 0 0 0 0 13.230391
-1.9246979 -5.9145007 4.797462 0 0 0 0 13.235338
-2.1144936 -5.766705 4.760478 0 0 0 0 13.240285
-1.3792465 -6.0971146 4.7786059 0 0 0 0 13.245232
-1.6183193 -6.1284456 4.8699627 0 0 0 0 13.250179
-1.8042881 -5.9986458 4.8238945 0 0 0 0 13.255126
-1.9991964 -5.8638082 4.7868648 0 0 0 0 13.260073
-1.2279154 -6.0447645 4.7248259 0 0 0 0 14.041524
-1.4661629 -6.0991907 4.8210773 0 0 0 0 14.046471
-1.6810112 -6.091578 4.8605351 0 0 0 0 14.051418
-1.8790456 -5.9657726 4.8194404 0 0 0 0 14.056365
-1.0876173 -6.00875 4.6857309 0 0 0 0 14.061312
-1.3179172 -6.0672026 4.7719507 0 0 0 0 14.066259
-1.5452746 -6.1326799 4.8581357 0 0 0 0 14.071206
-1.756683 -6.0588813 4.8448553 0 0 0 0 14.076153
-0.94624275 -5.9617128 4.639679 0 0 0 0 14.0811
-1.1705515 -6.0181637 4.7128949 0 0 0 0 14.086047
-1.3878965 -6.0776477 4.7800846 0 0 0 0 14.090994
-1.6282216 -6.138001 4.8613157 0 0 0 0 14.095942
-0.80986291 -5.9146457 4.5966368 0 0 0 0 14.100887
-1.0241076 -5.9580908 4.6478858 0 0 0 0 14.105835
-1.2365903 -6.0346208 4.7159972 0 0 0 0 14.110783
-1.471063 -6.1130238 4.7971435 0 0 0 0 14.115728
-0.67329264 -5.8394961 4.5337086 0 0 0 0 14.120676
-0.88377672 -5.9150229 4.5968194 0 0 0 0 14.125623
-1.0882245 -5.9835553 4.6489472 0 0 0 0 14.130569
-1.3127432 -6.0649972 4.7190619 0 0 0 0 14.135517
-0.54191267 -5.7934036 4.4956722 0 0 0 0 14.140464
-0.74533063 -5.8559046 4.5378222 0 0 0 0 14.145411
-0.94396347 -5.9485106 4.5958414 0 0 0 0 14.150358
-1.1594161 -6.016943 4.6449909 0 0 0 0 14.155305
-0.41442779 -5.7322412 4.4487047 0 0 0 0 14.160252
-0.61101615 -5.8168197 4.4957519 0 0 0 0 14.165199
-0.80053955 -5.8904042 4.52983 0 0 0 0 14.170146
-1.0070918 -5.9698911 4.5739174 0 0 0 0 14.175093
-0.29149705 -5.754303 4.4664097 0 0 0 0 14.18004
-0.47848916 -5.7466331 4.4328108 0 0 0 0 14.184987
-0.65803373 -5.8202562 4.4558692 0 0 0 0 14.189934
-0.85977471 -5.9248166 4.5078459 0 0 0 0 14.194881
-0.16948999 -5.7663431 4.4811573 0 0 0 0 14.199828
-0.35148677 -5.7556548 4.4325609 0 0 0 0 14.204775
-0.52272356 -5.7801523 4.4078012 0 0 0 0 14.209723
-0.71124357 -5.8486681 4.4218974 0 0 0 0 14.214668
-0.047371019 -5.7613254 4.4819741 0 0 0 0 14.219616
-0.22777185 -5.8087974 4.4691396 0 0 0 0 14.224564
-0.38938114 -5.7360315 4.3597527 0 0 0 0 14.229509
-0.56988096 -5.798553 4.3588576 0 0 0 0 14.234457
0.075377502 -5.8135085 4.5315599 0 0 0 0 14.239404
-0.10148036 -5.7756953 4.4410615 0 0 0 0 14.24435
-0.26500311 -5.8372922 4.4241376 0 0 0 0 14.249298
-0.43037099 -5.7273722 4.2839069 0 0 0 0 14.254245
0.19850634 -5.8085141 4.5373759 0 0 0 0 14.259192
0.02372795 -5.7556314 4.424933 0 0 0 0 14.264139
-0.13259952 -5.7851505 4.3741245 0 0 0 0 14.269086
-0.30103821 -5.832644 4.3412662 0 0 0 0 14.274033
0.15126815 -5.8369069 4.4883938 0 0 0 0 14.283927
-0.0032916015 -5.7480383 4.3380566 0 0 0 0 14.288874
-0.16470642 -5.7895379 4.2922087 0 0 0 0 14.293821
0.27843893 -5.8238945 4.4822345 0 0 0 0 14.303715
0.12738189 -5.8072419 4.3775997 0 0 0 0 14.308662
-0.030406145 -5.7514343 4.2481356 0 0 0 0 14.313609
0.25655127 -5.7922087 4.3624449 0 0 0 0 14.328449
0.10266539 -5.7484345 4.232924 0 0 0 0 14.333397
0.23838167 -5.7996278 4.2604914 0 0 0 0 14.353186
1.1194748 -6.0872135 4.8867302 0 0 0 0 14.397708
1.2244409 -6.0355721 4.732655 0 0 0 0 14.442231
1.2333629 -6.0179572 4.5707517 0 0 0 0 14.466967
1.256956 -6.0475717 4.4356313 0 0 0 0 14.491701
2.9194176 -5.5826144 4.825304 0 0 0 0 14.462938
2.9716647 -5.4989023 4.5565839 0 0 0 0 14.487673
3.0596035 -5.4636531 4.3306017 0 0 0 0 14.512407
4.6974754 -5.0968213 4.9713469 0 0 0 0 14.705341
4.7653518 -4.9098334 4.6050038 0 0 0 0 14.730076
5.5235591 -4.1555047 4.9013305 0 0 0 0 14.590442
5.582345 -4.1117506 4.5974002 0 0 0 0 14.595388
5.381372 -4.0685906 5.4719677 0 0 0 0 14.600336
5.4541388 -4.0167747 5.1240425 0 0 0 0 14.605283
5.5359387 -3.9722219 4.8240719 0 0 0 0 14.610229
5.6117196 -3.9326646 4.5350928 0 0 0 0 14.615177
5.4423995 -3.9419131 5.4483914 0 0 0 0 14.620124
5.5491052 -3.9044809 5.1283455 0 0 0 0 14.625071
5.64293 -3.8580446 4.8333597 0 0 0 0 14.630018
5.7526469 -3.8318474 4.5662632 0 0 0 0 14.634965
5.5930996 -3.8783231 5.517396 0 0 0 0 14.639912
5.717814 -3.8410549 5.2023153 0 0 0 0 14.644859
5.8625288 -3.8161535 4.9391484 0 0 0 0 14.649806
5.9822841 -3.7840161 4.6670575 0 0 0 0 14.654753
5.7587738 -3.8209014 5.5993476 0 0 0 0 14.6597
5.9244375 -3.7960598 5.3091412 0 0 0 0 14.664647
6.071238 -3.7581344 5.0360227 0 0 0 0 14.669594
6.2578564 -3.7526865 4.8027 0 0 0 0 14.674541
5.8587012 -3.7167041 5.6196079 0 0 0 0 14.679487
5.9835839 -3.6533535 5.2836304 0 0 0 0 14.684435
6.180306 -3.6349852 5.0503411 0 0 0 0 14.689383
6.3410935 -3.6022305 4.7921758 0 0 0 0 14.694328
5.9745998 -3.6196959 5.6558099 0 0 0 0 14.699276
6.2182107 -3.6136739 5.4153829 0 0 0 0 14.704224
6.4000802 -3.5700746 5.1542215 0 0 0 0 14.709169
6.5130935 -3.4977515 4.8493018 0 0 0 0 14.714117
6.2171564 -3.5941675 5.8104911 0 0 0 0 14.719064
6.430974 -3.5517316 5.5262651 0 0 0 0 14.72401
6.6139278 -3.4951003 5.2551527 0 0 0 0 14.728958
6.8088045 -3.4516191 4.9979668 0 0 0 0 14.733905
6.4178987 -3.5351341 5.9233847 0 0 0 0 14.738852
6.6447849 -3.4837968 5.6381688 0 0 0 0 14.743799
6.8338261 -3.4141772 5.3580971 0 0 0 0 14.748746
7.1465149 -3.4129376 5.1775241 0 0 0 0 14.753693
6.6097078 -3.4660013 6.030334 0 0 0 0 14.75864
6.7798443 -3.3679619 5.6824088 0 0 0 0 14.763587
7.1595402 -3.3764234 5.5446734 0 0 0 0 14.768534
7.3286777 -3.2895608 5.2437062 0 0 0 0 14.773481
6.651895 -3.3161373 6.0018806 0 0 0 0 14.778428
7.1494265 -3.3597667 5.9227872 0 0 0 0 14.783375
7.4065247 -3.2897956 5.6705894 0 0 0 0 14.788322
8.6576424 -3.6405015 6.1188836 0 0 0 0 14.793269
7.097261 -3.3568997 6.3329253 0 0 0 0 14.798216
8.4672985 -3.7551544 6.935813 0 0 0 0 14.803164
8.373251 -3.7481189 7.3910484 0 0 0 0 14.818005
8.1480942 -3.0574327 6.9902911 0 0 0 0 14.877368
8.21346 -2.8898346 6.9878616 0 0 0 0 14.897156
10.017716 -3.1933701 7.8273368 0 0 0 0 14.902103
8.5555582 -2.8123326 7.217567 0 0 0 0 14.916945
11.779964 -2.7940392 7.8146906 0 0 0 0 14.931786
8.9397306 -2.7332871 7.4812012 0 0 0 0 14.936731
11.700808 -2.8143368 8.3327913 0 0 0 0 14.946626
11.098474 -2.358573 7.3166924 0 0 0 0 14.951572
9.1268711 -2.5848057 7.5822339 0 0 0 0 14.818858
9.7129793 -2.4107993 7.4228349 0 0 0 0 14.823805
10.953938 -2.3749115 7.7516761 0 0 0 0 14.828753
11.173312 -2.1009254 7.3223519 0 0 0 0 14.833698
9.5192404 -2.4828591 7.8509417 0 0 0 0 14.838646
10.293529 -2.3158216 7.8141656 0 0 0 0 14.843594
10.956945 -2.1156311 7.7087269 0 0 0 0 14.848539
11.319419 -1.8541824 7.3820872 0 0 0 0 14.853487
9.8847332 -2.3596087 8.0987835 0 0 0 0 14.858434
10.521308 -2.1259818 7.9375248 0 0 0 0 14.86338
11.181942 -1.8967391 7.8262053 0 0 0 0 14.868328
11.512577 -1.6079299 7.4727311 0 0 0 0 14.873275
10.050364 -2.1791291 8.1842203 0 0 0 0 14.878222
10.998153 -1.9738554 8.2512741 0 0 0 0 14.883169
11.39099 -1.6686851 7.9357486 0 0 0 0 14.888116
11.439685 -1.3269206 7.3980036 0 0 0 0 14.893063
10.177036 -1.985217 8.23878 0 0 0 0 14.89801
11.291107 -1.7747405 8.4315481 0 0 0 0 14.902957
11.327012 -1.3977383 7.8589635 0 0 0 0 14.907904
11.37579 -1.0480232 7.3332486 0 0 0 0 14.912851
10.280739 -1.7830582 8.2774143 0 0 0 0 14.917798
11.231041 -1.5127932 8.3467197 0 0 0 0 14.922745
11.261995 -1.1317971 7.7851586 0 0 0 0 14.927692
11.308845 -0.77510762 7.2694731 0 0 0 0 14.932639
10.388468 -1.5789562 8.3230476 0 0 0 0 14.937586
11.172941 -1.2568984 8.2708626 0 0 0 0 14.942533
11.201974 -0.86792821 7.7193341 0 0 0 0 14.947479
11.224857 -0.50604385 7.2017112 0 0 0 0 14.952427
10.482226 -1.3676952 8.3567333 0 0 0 0 14.957375
11.11782 -1.0040443 8.1989851 0 0 0 0 14.96232
11.131914 -0.60797417 7.6515107 0 0 0 0 14.967268
11.162872 -0.24022162 7.1508946 0 0 0 0 14.972216
10.568007 -1.1523579 8.3874474 0 0 0 0 14.977161
11.070684 -0.75529742 8.1380749 0 0 0 0 14.982109
11.066824 -0.35309222 7.5916557 0 0 0 0 14.987056
11.087844 0.021717127 7.0960836 0 0 0 0 14.992002
10.646799 -0.93495995 8.417182 0 0 0 0 14.99695
10.995506 -0.50726944 8.0612106 0 0 0 0 15.001897
11.000704 -0.1022156 7.5347848 0 0 0 0 15.006844
11.012782 0.27863485 7.0462508 0 0 0 0 15.011791
10.745628 -0.71679157 8.4658804 0 0 0 0 15.016738
10.930301 -0.26536843 7.9963031 0 0 0 0 15.021685
10.934574 0.14664 7.482904 0 0 0 0 15.026632
10.957725 0.53232396 7.0143666 0 0 0 0 15.031579
10.76641 -0.48977599 8.4547558 0 0 0 0 15.036526
10.872095 -0.024551129 7.9383759 0 0 0 0 15.041473
10.868416 0.39147863 7.4350052 0 0 0 0 15.04642
10.876632 0.78526622 6.9695253 0 0 0 0 15.051367
10.746147 -0.26133773 8.4177103 0 0 0 0 15.056314
10.806856 0.21231966 7.880444 0 0 0 0 15.061261
10.80826 0.63523769 7.3950891 0 0 0 0 15.066208
10.805522 1.0340897 6.9346476 0 0 0 0 15.071156
10.707854 -0.032700963 8.3656969 0 0 0 0 15.076101
10.752626 0.44805232 7.8354855 0 0 0 0 15.081049
10.742082 0.87705016 7.3531737 0 0 0 0 15.085997
10.733391 1.2799081 6.9027572 0 0 0 0 15.090942
10.667556 0.19493873 8.3166809 0 0 0 0 15.09589
10.689377 0.6828773 7.7845378 0 0 0 0 15.100837
10.680908 1.1177872 7.3202438 0 0 0 0 15.105783
10.669287 1.5276273 6.8798575 0 0 0 0 15.110731
10.604198 0.41880754 8.2546911 0 0 0 0 15.115678
10.625106 0.91469324 7.7375784 0 0 0 0 15.120625
10.605678 1.3536595 7.2803183 0 0 0 0 15.125572
10.583106 1.768556 6.8469696 0 0 0 0 15.130519
10.550859 0.64255029 8.2046804 0 0 0 0 15.135466
10.551806 1.1435819 7.6896219 0 0 0 0 15.140413
10.524416 1.5855732 7.2413859 0 0 0 0 15.14536
10.51193 2.0073118 6.8280439 0 0 0 0 15.150307
10.489485 0.86337346 8.1496706 0 0 0 0 15.155254
10.494515 1.3702862 7.6566257 0 0 0 0 15.160201
10.469218 1.8212014 7.2234187 0 0 0 0 15.165148
10.430756 2.2471521 6.8071384 0 0 0 0 15.170095
10.42009 1.0822614 8.093667 0 0 0 0 15.175042
10.427217 1.5980903 7.61765 0 0 0 0 15.179989
10.382932 2.0501356 7.1884804 0 0 0 0 15.184937
10.352555 2.4829478 6.7912097 0 0 0 0 15.189882
10.358723 1.3030505 8.0466537 0 0 0 0 15.19483
10.367929 1.8247843 7.5906534 0 0 0 0 15.199778
10.317705 2.2828352 7.1715155 0 0 0 0 15.204723
10.280371 2.7196689 6.7822714 0 0 0 0 15.209671
10.343452 1.5273305 8.0385675 0 0 0 0 15.214618
10.307638 2.0514812 7.5646567 0 0 0 0 15.219564
10.248452 2.5125647 7.1545448 0 0 0 0 15.224512
10.216225 2.9592876 6.7833271 0 0 0 0 15.229459
10.271041 1.7442144 7.988555 0 0 0 0 15.234406
10.232293 2.2733202 7.5316668 0 0 0 0 15.239353
10.172175 2.7403548 7.1355772 0 0 0 0 15.2443
12.186614 3.8369191 8.1461315 0 0 0 0 15.249247
10.214673 1.9629071 7.9555187 0 0 0 0 15.254194
10.16799 2.4980261 7.5106654 0 0 0 0 15.259141
10.10192 2.9690588 7.1266003 0 0 0 0 15.264088
12.075714 4.1139746 8.1334133 0 0 0 0 15.269035
10.155288 2.1796181 7.9234781 0 0 0 0 15.273982
10.097641 2.7177813 7.4886541 0 0 0 0 15.278929
12.049334 3.8376729 8.5504112 0 0 0 0 15.283876
11.988883 4.3947506 8.1446638 0 0 0 0 15.288823
10.077897 2.3911028 7.882268 0 0 0 0 15.060148
10.019373 2.9352279 7.4654932 0 0 0 0 15.065096
11.965664 4.1108599 8.5474939 0 0 0 0 15.070044
11.886294 4.6720939 8.1458216 0 0 0 0 15.074989
10.032588 2.6116428 7.8672242 0 0 0 0 15.079937
11.930815 3.7847369 8.9313011 0 0 0 0 15.084885
11.868739 4.3807883 8.5417328 0 0 0 0 15.08983
11.79349 4.9529066 8.1610928 0 0 0 0 15.094778
9.9612055 2.8274515 7.8352079 0 0 0 0 15.099725
11.873951 4.0593061 8.9374847 0 0 0 0 15.104671
11.779854 4.6546254 8.5429688 0 0 0 0 15.109619
11.690653 5.2308073 8.1733675 0 0 0 0 15.114566
9.9199247 3.0499153 7.8311605 0 0 0 0 15.119513
11.792009 4.3281283 8.92869 0 0 0 0 15.12446
11.681934 4.9245305 8.5442047 0 0 0 0 15.129407
11.593864 5.5136285 8.1936483 0 0 0 0 15.134354
11.104702 3.6830623 8.8014593 0 0 0 0 15.139301
11.698021 4.5920467 8.9188948 0 0 0 0 15.144248
11.590071 5.2003565 8.5534487 0 0 0 0 15.149195
11.497081 5.7964249 8.2199278 0 0 0 0 15.154142
11.04261 3.9327211 8.792551 0 0 0 0 15.159089
11.61209 4.8618741 8.9161062 0 0 0 0 15.164036
11.507258 5.4800568 8.5766907 0 0 0 0 15.168983
11.373182 6.0684848 8.2322111 0 0 0 0 15.17393
10.996611 4.1901803 8.8026419 0 0 0 0 15.178877
11.513077 5.1228127 8.910305 0 0 0 0 15.183825
11.404351 5.7509542 8.5889311 0 0 0 0 15.18877
11.289491 6.3590956 8.2794905 0 0 0 0 15.193718
10.914456 4.4350276 8.7847471 0 0 0 0 15.198666
11.428179 5.395586 8.9185209 0 0 0 0 15.203611
11.296433 6.0208888 8.6011753 0 0 0 0 15.208559
11.188762 6.647872 8.317791 0 0 0 0 15.213506
10.854445 4.6926012 8.792861 0 0 0 0 15.218452
11.290012 5.6429057 8.8917332 0 0 0 0 15.2234
11.19658 6.2967086 8.6264248 0 0 0 0 15.228347
11.06994 6.9268103 8.3500853 0 0 0 0 15.233294
10.771347 4.9434147 8.7849865 0 0 0 0 15.238241
11.196081 5.9117303 8.903945 0 0 0 0 15.243188
11.102808 6.5814462 8.6606951 0 0 0 0 15.248135
10.962208 7.2146072 8.39639 0 0 0 0 15.253082
10.662121 5.1824937 8.7601128 0 0 0 0 15.258029
11.085084 6.1747203 8.9071627 0 0 0 0 15.262976
10.99396 6.8583179 8.6899605 0 0 0 0 15.267923
10.827344 7.4896698 8.4276915 0 0 0 0 15.27287
10.548878 5.4195981 8.7362366 0 0 0 0 15.277817
10.953998 6.429913 8.8973856 0 0 0 0 15.282764
10.882112 7.1352029 8.7212276 0 0 0 0 15.287711
10.249336 7.443471 8.1135616 0 0 0 0 15.292658
10.449744 5.6675301 8.7283745 0 0 0 0 15.297606
10.779634 6.6565409 8.8605747 0 0 0 0 15.302551
10.77835 7.420979 8.7645121 0 0 0 0 15.307499
10.145596 7.7281733 8.1738396 0 0 0 0 15.312447
10.346581 5.9114799 8.7235012 0 0 0 0 15.317392
10.618349 6.8910184 8.8357668 0 0 0 0 15.32234
10.235524 7.397491 8.452405 0 0 0 0 15.327287
10.010653 7.992187 8.2150927 0 0 0 0 15.332233
10.218312 6.1466899 8.7006388 0 0 0 0 15.337181
10.428873 7.1057825 8.7919331 0 0 0 0 15.342128
10.091422 7.6466722 8.4686165 0 0 0 0 15.347075
9.9150972 8.2967396 8.2974262 0 0 0 0 15.352022
10.081992 6.3759637 8.6767645 0 0 0 0 15.356969
10.215239 7.3047976 8.7300806 0 0 0 0 15.361916
9.9795904 7.9234767 8.5178747 0 0 0 0 15.366863
10.245116 8.9766245 8.7474241 0 0 0 0 15.37181
9.9416742 6.6062694 8.6518993 0 0 0 0 15.376757
10.053945 7.5362158 8.7182541 0 0 0 0 15.381704
9.8698378 8.2092333 8.57516 0 0 0 0 15.386651
10.105445 9.272584 8.8127985 0 0 0 0 15.391598
9.7872458 6.8247108 8.6190138 0 0 0 0 15.396545
9.8634729 7.749928 8.6874113 0 0 0 0 15.401492
9.7964277 8.5305586 8.672514 0 0 0 0 15.406439
9.8174562 9.428153 8.752903 0 0 0 0 15.411386
9.638895 7.0510612 8.5971432 0 0 0 0 15.416332
9.6588564 7.9477859 8.6455297 0 0 0 0 15.42128
9.605092 8.7561617 8.6707115 0 0 0 0 15.426228
9.5062094 9.5549641 8.6749363 0 0 0 0 15.431173
9.470396 7.2616086 8.5632477 0 0 0 0 15.436121
9.4320469 8.1248703 8.5876083 0 0 0 0 15.441069
9.3249254 8.8927298 8.5927277 0 0 0 0 15.446014
9.2019567 9.6796923 8.6029472 0 0 0 0 15.450962
9.3059139 7.4730954 8.5363455 0 0 0 0 15.455909
9.2032108 8.2979555 8.5326729 0 0 0 0 15.460855
9.0740242 9.0569592 8.5437956 0 0 0 0 15.465803
8.8946066 9.7924404 8.5299168 0 0 0 0 15.47075
9.126358 7.677732 8.4994421 0 0 0 0 15.475697
8.9793882 8.4719744 8.4837294 0 0 0 0 15.480644
8.7978296 9.1884556 8.4737816 0 0 0 0 15.485591
8.5730314 9.8793497 8.4418125 0 0 0 0 15.490538
8.9407463 7.8754077 8.463522 0 0 0 0 15.495485
8.7374125 8.6291723 8.4227524 0 0 0 0 15.500432
8.5246058 9.315917 8.4057446 0 0 0 0 15.505379
8.2797165 9.9939308 8.3817587 0 0 0 0 15.510326
8.7551489 8.0750761 8.428606 0 0 0 0 15.515273
8.5075035 8.7922258 8.374774 0 0 0 0 15.52022
8.2533846 9.4423342 8.3436985 0 0 0 0 15.525167
7.9640651 10.069759 8.2995977 0 0 0 0 15.530114
8.5496397 8.2553625 8.3815022 0 0 0 0 15.798316
8.2626371 8.9398203 8.3145704 0 0 0 0 15.803263
7.9802094 9.5601187 8.2803888 0 0 0 0 15.80821
7.6504321 10.14087 8.2191429 0 0 0 0 15.813157
8.3408146 8.4312153 8.3355198 0 0 0 0 15.818104
8.0195446 9.0829563 8.2605228 0 0 0 0 15.823051
7.7018008 9.6655712 8.2112608 0 0 0 0 15.827998
7.3345819 10.192666 8.1318769 0 0 0 0 15.832945
8.1188469 8.5912037 8.2784996 0 0 0 0 15.837893
7.7642794 9.2062235 8.1944218 0 0 0 0 15.842838
7.4142227 9.7501097 8.1360693 0 0 0 0 15.847786
7.0176415 10.232463 8.0445681 0 0 0 0 15.852734
7.8979011 8.7531624 8.2264824 0 0 0 0 15.857679
7.5261831 9.3472795 8.149354 0 0 0 0 15.862627
7.1356778 9.8375483 8.0678701 0 0 0 0 15.867574
6.706706 10.272199 7.9602461 0 0 0 0 15.87252
7.679976 8.9160585 8.1834621 0 0 0 0 15.877468
7.2668581 9.4625587 8.085227 0 0 0 0 15.882415
6.8459291 9.9011135 7.9866009 0 0 0 0 15.887362
6.4047575 10.308838 7.881896 0 0 0 0 15.892309
7.445878 9.060132 8.1243992 0 0 0 0 15.897256
6.9993482 9.5559311 8.0110292 0 0 0 0 15.902203
6.5662799 9.9745464 7.9193492 0 0 0 0 15.90715
6.1017103 10.332483 7.8024979 0 0 0 0 15.912097
7.2137737 9.2021646 8.0713205 0 0 0 0 15.917044
6.7368722 9.6522369 7.9438338 0 0 0 0 15.921991
6.2885709 10.039955 7.8530631 0 0 0 0 15.926938
5.8036451 10.353076 7.7260785 0 0 0 0 15.931885
6.9765968 9.3352356 8.0162182 0 0 0 0 15.936832
6.4773908 9.7464914 7.8826232 0 0 0 0 15.941779
5.9935431 10.068575 7.7626686 0 0 0 0 15.946726
5.5014377 10.356725 7.6406026 0 0 0 0 15.951674
6.7242293 9.4464684 7.9470587 0 0 0 0 15.956619
6.2108164 9.8298111 7.8163824 0 0 0 0 15.961567
5.721765 10.123914 7.7003322 0 0 0 0 15.966515
5.2102609 10.362253 7.5641131 0 0 0 0 15.97146
6.4789462 9.5666027 7.8889184 0 0 0 0 15.976408
5.9482093 9.9080868 7.7531152 0 0 0 0 15.981355
5.4418535 10.163338 7.6299491 0 0 0 0 15.986301
4.9210262 10.359757 7.4885893 0 0 0 0 15.991249
6.2326312 9.6817245 7.8347588 0 0 0 0 15.996196
5.6805124 9.9754086 7.6858144 0 0 0 0 16.001143
5.1628394 10.189759 7.5565147 0 0 0 0 16.00609
4.6306853 10.344287 7.4070191 0 0 0 0 16.011036
5.9740939 9.7709913 7.7645245 0 0 0 0 16.015984
5.4107127 10.029752 7.6154685 0 0 0 0 16.020931
4.8888192 10.214121 7.4880633 0 0 0 0 16.025879
4.3534465 10.338655 7.3414607 0 0 0 0 16.030825
5.7206388 9.8691788 7.7043118 0 0 0 0 16.035772
5.1459289 10.085035 7.5501156 0 0 0 0 16.040718
4.611692 10.225521 7.413569 0 0 0 0 16.045666
4.067903 10.297159 7.2537842 0 0 0 0 16.050613
5.4569693 9.9414806 7.6320205 0 0 0 0 16.055561
4.8709507 10.117435 7.4716949 0 0 0 0 16.060507
4.3313675 10.212981 7.3279905 0 0 0 0 16.065454
3.8026772 10.291401 7.1952028 0 0 0 0 16.0704
5.2014284 10.027662 7.5747643 0 0 0 0 16.075348
4.6070266 10.153698 7.407268 0 0 0 0 16.080296
4.0652432 10.222253 7.2634664 0 0 0 0 16.085241
3.5311947 10.254743 7.1205182 0 0 0 0 16.090189
4.9336114 10.080996 7.4994073 0 0 0 0 16.095137
4.3359795 10.176047 7.3318009 0 0 0 0 16.100082
3.8000686 10.224509 7.199914 0 0 0 0 16.10503
3.2637124 10.217035 7.0498219 0 0 0 0 16.109978
4.6749301 10.149201 7.4390883 0 0 0 0 16.114923
4.0699182 10.195337 7.261313 0 0 0 0 16.119871
3.5337694 10.211797 7.1283078 0 0 0 0 16.124817
3.0011609 10.170294 6.9770832 0 0 0 0 16.129765
4.402988 10.186565 7.3606772 0 0 0 0 16.134712
3.8037999 10.206617 7.1917949 0 0 0 0 16.13966
3.2765779 10.209959 7.0717249 0 0 0 0 16.144606
2.7425625 10.116509 6.906311 0 0 0 0 16.149553
4.14116 10.235795 7.2972908 0 0 0 0 16.154499
3.5457964 10.230794 7.1333089 0 0 0 0 16.159447
3.0130925 10.173238 6.9940238 0 0 0 0 16.164394
2.486932 10.058706 6.833519 0 0 0 0 16.169342
3.8741941 10.268082 7.22685 0 0 0 0 16.174288
3.278482 10.217099 7.0566993 0 0 0 0 16.179235
2.7525306 10.126497 6.9142809 0 0 0 0 16.184181
2.2403715 10.007794 6.7707357 0 0 0 0 16.189129
3.6122551 10.302301 7.1634064 0 0 0 0 16.194077
3.020277 10.215287 6.9921165 0 0 0 0 16.199022
2.5073173 10.119527 6.8656564 0 0 0 0 16.20397
2.0030067 9.9787426 6.7270164 0 0 0 0 16.208918
3.3410728 10.307646 7.0828724 0 0 0 0 16.213863
2.7671375 10.220406 6.9355493 0 0 0 0 16.218811
2.2548239 10.078671 6.7989202 0 0 0 0 16.223759
1.7591923 9.8958454 6.6521106 0 0 0 0 16.228704
3.0831487 10.341794 7.02842 0 0 0 0 16.233652
2.5149884 10.223501 6.8819728 0 0 0 0 16.238598
2.006227 10.024798 6.7271285 0 0 0 0 16.243546
1.5204049 9.8158989 6.5792065 0 0 0 0 16.248493
2.8096912 10.312183 6.9367604 0 0 0 0 16.253441
2.2533321 10.165787 6.79319 0 0 0 0 16.258387
1.7616348 9.9708853 6.6573296 0 0 0 0 16.263334
1.2907239 9.7468309 6.5203266 0 0 0 0 16.26828
2.5430145 10.292994 6.8564115 0 0 0 0 16.079525
2.0046809 10.146429 6.7348113 0 0 0 0 16.084471
1.5237629 9.92348 6.6008286 0 0 0 0 16.089418
1.0635438 9.6624193 6.4546695 0 0 0 0 16.094364
2.2879457 10.307124 6.8028827 0 0 0 0 16.099312
1.7573843 10.129497 6.6811543 0 0 0 0 16.104259
1.282851 9.8306112 6.5148807 0 0 0 0 16.109205
0.83979964 9.5853195 6.39575 0 0 0 0 16.114153
2.02758 10.285355 6.7312298 0 0 0 0 16.119101
1.50774 10.070656 6.6053462 0 0 0 0 16.124046
1.0492134 9.7685928 6.4540339 0 0 0 0 16.128994
0.62199432 9.5001793 6.3347907 0 0 0 0 16.133942
1.7713903 10.283492 6.675643 0 0 0 0 16.138887
1.2598971 9.9878454 6.5164466 0 0 0 0 16.143835
0.82147783 9.6945477 6.3871322 0 0 0 0 16.148781
0.40700915 9.393054 6.2627454 0 0 0 0 16.153728
1.5159991 10.256654 6.6099615 0 0 0 0 16.158676
1.0194466 9.949851 6.461699 0 0 0 0 16.163624
0.59671038 9.615469 6.3222065 0 0 0 0 16.16857
0.19822671 9.308814 6.2087736 0 0 0 0 16.173517
1.2594037 10.204864 6.5321903 0 0 0 0 16.178463
0.78621739 9.9367237 6.4280291 0 0 0 0 16.183411
0.37397528 9.5393534 6.2622881 0 0 0 0 16.188358
-0.0047041094 9.206562 6.1447253 0 0 0 0 16.193306
1.0079916 10.173972 6.4704862 0 0 0 0 16.198252
0.55051947 9.8677301 6.3611588 0 0 0 0 16.203199
0.1582121 9.4591827 6.202343 0 0 0 0 16.208145
-0.20555855 9.1122589 6.0897031 0 0 0 0 16.213093
0.78647619 10.484058 6.6309772 0 0 0 0 16.21804
0.3179284 9.8106718 6.3043256 0 0 0 0 16.222988
-0.053670175 9.3640003 6.1363358 0 0 0 0 16.227934
-0.40144801 9.0129147 6.0346537 0 0 0 0 16.232882
0.53186119 10.427203 6.5631809 0 0 0 0 16.237827
0.089010261 9.7136545 6.2273402 0 0 0 0 16.242775
-0.26344526 9.2807627 6.080368 0 0 0 0 16.247723
-0.59142679 8.9025459 5.9735537 0 0 0 0 16.252668
0.2772091 10.365347 6.4943671 0 0 0 0 16.257616
-0.13391554 9.6145773 6.153337 0 0 0 0 16.262562
-0.46829382 9.1874886 6.0233564 0 0 0 0 16.267509
-0.77841645 8.7901478 5.9134417 0 0 0 0 16.272457
0.029466808 10.291442 6.4234962 0 0 0 0 16.277405
-0.35583597 9.5154819 6.0813322 0 0 0 0 16.282351
-0.6691553 9.0921803 5.9663296 0 0 0 0 16.287298
-0.96038985 8.6786947 5.8573246 0 0 0 0 16.292244
-0.21628898 10.214504 6.3566113 0 0 0 0 16.297192
-0.56989831 9.3983498 6.0022483 0 0 0 0 16.302139
-0.86799353 8.9988394 5.9133067 0 0 0 0 16.307087
-1.1392472 8.5801764 5.8122497 0 0 0 0 16.312033
-0.46010691 10.129558 6.2866931 0 0 0 0 16.31698
-0.78175938 9.3041315 5.9412436 0 0 0 0 16.321926
-1.0609082 8.895463 5.8572373 0 0 0 0 16.326874
-1.3132697 8.4616613 5.7550936 0 0 0 0 16.331821
-0.69799966 10.03457 6.2147284 0 0 0 0 16.336769
-0.99255544 9.2168779 5.8872633 0 0 0 0 16.341715
-1.2469444 8.7770596 5.7931018 0 0 0 0 16.346663
-1.4831997 8.3530779 5.7079673 0 0 0 0 16.351608
-0.93305743 9.9185858 6.1346827 0 0 0 0 16.356556
-1.1955512 9.1046019 5.8221779 0 0 0 0 16.361504
-1.4319389 8.6626253 5.7349792 0 0 0 0 16.366451
-1.6491841 8.2374735 5.6578083 0 0 0 0 16.371397
-1.1639471 9.8215094 6.0706983 0 0 0 0 16.376343
-1.3945341 8.9932852 5.7590895 0 0 0 0 16.38129
-1.6128935 8.5521393 5.6818643 0 0 0 0 16.386238
-1.8111826 8.1198397 5.606636 0 0 0 0 16.391186
-1.389895 9.7163954 6.0056763 0 0 0 0 16.396132
-1.593425 8.8919296 5.7060375 0 0 0 0 16.401079
-1.7888517 8.4406099 5.6297369 0 0 0 0 16.406025
-1.9671811 8.0011482 5.5584497 0 0 0 0 16.410973
-1.5919613 9.4763937 5.8591251 0 0 0 0 16.41592
-1.7863504 8.7855253 5.652957 0 0 0 0 16.420868
-1.9628191 8.3270559 5.5795989 0 0 0 0 16.425814
-2.1211689 7.8834362 5.5112643 0 0 0 0 16.430761
-1.7705479 9.1723423 5.6773033 0 0 0 0 16.435707
-1.9773118 8.6741076 5.5988555 0 0 0 0 16.440655
-2.1308386 8.2064629 5.5274262 0 0 0 0 16.445602
-2.267293 7.7486963 5.4550042 0 0 0 0 16.45055
-1.9784931 9.0640526 5.6212406 0 0 0 0 16.455496
-2.1613238 8.5556393 5.5437164 0 0 0 0 16.460442
-2.2948289 8.0888252 5.4782577 0 0 0 0 16.465389
-2.4142351 7.6349025 5.4148211 0 0 0 0 16.470337
-2.1825085 8.9467459 5.5611391 0 0 0 0 16.475285
-2.3374615 8.421134 5.4815063 0 0 0 0 16.480232
-2.4568372 7.9681668 5.4300752 0 0 0 0 16.485178
-2.5552723 7.5090842 5.3685856 0 0 0 0 16.490124
-2.3795869 8.820384 5.5009933 0 0 0 0 16.495071
-2.5183868 8.3116007 5.4363952 0 0 0 0 16.500019
-2.6138742 7.8434739 5.3808694 0 0 0 0 16.504967
-2.6962323 7.3922415 5.328383 0 0 0 0 16.509912
-2.5658674 8.6689901 5.4267392 0 0 0 0 16.51486
-2.6894681 8.1820211 5.3831954 0 0 0 0 16.519806
-2.7600381 7.7027273 5.3235884 0 0 0 0 16.524754
-2.8322098 7.272356 5.2891607 0 0 0 0 16.529701
-2.7539916 8.5355558 5.3665538 0 0 0 0 16.534649
-2.8545973 8.0464096 5.325964 0 0 0 0 16.539595
-2.9130151 7.5839734 5.2813988 0 0 0 0 16.544542
-2.9612427 7.1454329 5.2459025 0 0 0 0 16.549488
-2.9397814 8.4050379 5.3109589 0 0 0 0 16.826149
-3.0212831 7.9197135 5.2783775 0 0 0 0 16.831097
-3.0606034 7.461112 5.23982 0 0 0 0 16.836044
-3.0907981 7.0194387 5.2033076 0 0 0 0 16.84099
-3.1286852 8.2945042 5.2718596 0 0 0 0 16.845936
-3.1823153 7.7920055 5.232172 0 0 0 0 16.850883
-3.2026441 7.3312654 5.1945767 0 0 0 0 16.855831
-3.2187142 6.9034467 5.1710911 0 0 0 0 16.860779
-3.2999492 8.1389322 5.2065716 0 0 0 0 16.865725
-3.335463 7.6492634 5.1789012 0 0 0 0 16.870672
-3.3416619 7.2033811 5.153336 0 0 0 0 16.875618
-3.3377357 6.7744207 5.1298137 0 0 0 0 16.880566
-3.4740248 8.0053148 5.1593671 0 0 0 0 16.885513
-3.4875646 7.5114932 5.1306467 0 0 0 0 16.890461
-3.4727564 7.0654554 5.1070471 0 0 0 0 16.895407
-3.4537756 6.6423712 5.088522 0 0 0 0 16.900354
-3.6441331 7.8666649 5.1121383 0 0 0 0 16.9053
-3.636641 7.3756809 5.0873947 0 0 0 0 16.910248
-3.6018221 6.9305019 5.0637655 0 0 0 0 16.915195
-3.5707207 6.5212946 5.0562711 0 0 0 0 16.920143
-3.8063354 7.7159805 5.0578547 0 0 0 0 16.925089
-3.7768044 7.2288275 5.0370889 0 0 0 0 16.930035
-3.7357755 6.8085432 5.031539 0 0 0 0 16.934982
-3.676795 6.3841772 5.0129461 0 0 0 0 16.93993
-3.9664741 7.5722547 5.0105925 0 0 0 0 16.944878
-3.9208641 7.0939646 4.9968328 0 0 0 0 16.949825
-3.8529139 6.6635146 4.9842038 0 0 0 0 16.954771
-3.7867656 6.2590508 4.97967 0 0 0 0 16.959717
-4.1167312 7.4124737 4.9582582 0 0 0 0 16.964664
-4.0540142 6.9470391 4.9515166 0 0 0 0 16.969612
-3.9779239 6.5334978 4.9489355 0 0 0 0 16.97456
-3.8897898 6.1268873 4.9423585 0 0 0 0 16.979506
-4.2600274 7.2476544 4.901895 0 0 0 0 16.984453
-4.1851511 6.8010902 4.9082017 0 0 0 0 16.989399
-4.0939755 6.3974199 4.9126306 0 0 0 0 16.994347
-3.9819043 5.9836764 4.8959908 0 0 0 0 16.999294
-4.4072022 7.0968184 4.8575888 0 0 0 0 17.004242
-4.3182335 6.6611309 4.8709111 0 0 0 0 17.009188
-4.2020998 6.2523074 4.8692827 0 0 0 0 17.014135
-4.084837 5.8614736 4.8687158 0 0 0 0 17.019081
-4.5474167 6.9399304 4.8132496 0 0 0 0 17.024029
-4.4443502 6.5161247 4.832592 0 0 0 0 17.028976
-4.3141451 6.1161938 4.8339729 0 0 0 0 17.033924
-4.213439 5.7783341 4.8746204 0 0 0 0 17.03887
-4.6925464 6.7930493 4.7759547 0 0 0 0 17.043816
-4.5496593 6.3470254 4.7781549 0 0 0 0 17.048763
-4.4162507 5.9720216 4.7946191 0 0 0 0 17.053711
-4.3726954 5.7352753 4.9187174 0 0 0 0 17.058659
-3.7439783 4.9647584 3.7939618 0 0 0 0 17.068552
-3.9247463 5.060854 4.1295977 0 0 0 0 17.073498
-4.7937908 6.0658922 4.7165389 0 0 0 0 17.088341
-4.6510482 5.7317395 4.7581329 0 0 0 0 17.093287
-5.067347 6.2960453 4.641778 0 0 0 0 17.10318
-4.8930359 5.9027171 4.670115 0 0 0 0 17.108128
-4.6783562 5.3785276 4.8639264 0 0 0 0 17.118023
-5.1885724 6.1339912 4.6033936 0 0 0 0 17.122969
-4.9991937 5.7495565 4.6327381 0 0 0 0 17.127916
-4.9432263 5.5626063 4.7919922 0 0 0 0 17.132862
-4.7920842 5.2772918 4.8647461 0 0 0 0 17.13781
-5.3097744 5.9739213 4.5690174 0 0 0 0 17.142757
-5.093411 5.5883245 4.5913148 0 0 0 0 17.147705
-5.0848856 5.4685192 4.8048816 0 0 0 0 17.152651
-4.8800468 5.1479607 4.840425 0 0 0 0 17.157597
-5.4200215 5.8077865 4.5306025 0 0 0 0 17.162544
-5.202457 5.4471321 4.567986 0 0 0 0 17.167492
-5.17102 5.3172097 4.7694807 0 0 0 0 17.17244
-4.9620304 5.0155902 4.815084 0 0 0 0 17.177387
-5.5153694 5.6285739 4.4841189 0 0 0 0 17.182333
-5.4096751 5.4043221 4.6311631 0 0 0 0 17.187279
-5.2561259 5.1688814 4.7370892 0 0 0 0 17.192226
-5.0430164 4.8822074 4.7907386 0 0 0 0 17.197174
-5.6057115 5.4493179 4.4396281 0 0 0 0 17.202122
-5.5871706 5.3273892 4.6691723 0 0 0 0 17.207067
-5.3412271 5.0205479 4.7056985 0 0 0 0 17.212015
-5.1090794 4.7397552 4.7563386 0 0 0 0 17.216961
-5.7238159 5.2981696 4.4192815 0 0 0 0 17.221909
-5.6743984 5.1620831 4.6327257 0 0 0 0 17.226856
-5.4223218 4.8721743 4.6773019 0 0 0 0 17.231804
-5.1781125 4.6003075 4.7259545 0 0 0 0 17.23675
-5.9461288 5.2414541 4.4824343 0 0 0 0 17.241697
-5.7635703 5.0027652 4.6033044 0 0 0 0 17.246643
-5.4914732 4.7167416 4.6418624 0 0 0 0 17.251591
-4.7408462 4.0319037 4.2442498 0 0 0 0 17.256538
-6.1258116 5.1385508 4.5133576 0 0 0 0 17.261486
-5.841804 4.8353906 4.5678377 0 0 0 0 17.266432
-5.0343285 4.128171 4.1680565 0 0 0 0 17.271378
-4.8106709 3.917407 4.2299571 0 0 0 0 17.276325
-6.1942444 4.9451456 4.465785 0 0 0 0 17.281273
-5.9150491 4.6659799 4.5323577 0 0 0 0 17.286221
-5.1032734 3.9976854 4.147707 0 0 0 0 17.291168
-5.3731303 4.1888366 4.6458111 0 0 0 0 17.296114
-6.2732954 4.7643046 4.4295883 0 0 0 0 17.001816
-5.4187293 4.0725412 4.0707254 0 0 0 0 17.006763
-5.2386088 3.9188755 4.1838827 0 0 0 0 17.011711
-5.4210129 4.0436606 4.6116247 0 0 0 0 17.016657
-6.3605795 4.5899663 4.4031062 0 0 0 0 17.021603
-5.4858074 3.9260614 4.0463114 0 0 0 0 17.02655
-5.7577267 4.1093092 4.5214071 0 0 0 0 17.031498
-5.4879589 3.9141545 4.5952692 0 0 0 0 17.036446
-6.4398775 4.4135776 4.3746052 0 0 0 0 17.041393
-5.5578451 3.7835939 4.0279198 0 0 0 0 17.046339
-5.8357291 3.9708657 4.508039 0 0 0 0 17.051285
-5.5479393 3.7806153 4.5738893 0 0 0 0 17.056232
-5.8618855 3.8091071 3.9085071 0 0 0 0 17.06118
-5.6885262 3.6813819 4.0537686 0 0 0 0 17.066128
-5.9027891 3.8253651 4.4886289 0 0 0 0 17.071074
-5.6019402 3.644037 4.5514894 0 0 0 0 17.076021
-5.9558954 3.666739 3.9041538 0 0 0 0 17.080967
-6.02807 3.7061043 4.2304106 0 0 0 0 17.085915
-5.9399924 3.6637244 4.4491129 0 0 0 0 17.090862
-5.6499572 3.5054262 4.5260735 0 0 0 0 17.09581
-6.0279989 3.5132549 3.8887262 0 0 0 0 17.100756
-6.3030972 3.6735461 4.3567433 0 0 0 0 17.105703
-5.9990525 3.5171621 4.4306874 0 0 0 0 17.110649
-5.704917 3.3728349 4.5086904 0 0 0 0 17.115597
-6.067266 3.3406105 3.8531778 0 0 0 0 17.120544
-6.3602672 3.5119805 4.3342624 0 0 0 0 17.125492
-6.0561099 3.3705852 4.4122596 0 0 0 0 17.130438
-5.7459364 3.2331736 4.4832611 0 0 0 0 17.135384
-6.1094832 3.1729612 3.8246529 0 0 0 0 17.140331
-6.4015055 3.3423343 4.3027282 0 0 0 0 17.145279
-6.10221 3.2189512 4.3877974 0 0 0 0 17.150227
-5.7958879 3.1005387 4.4678717 0 0 0 0 17.155174
-6.1536632 3.009311 3.8001463 0 0 0 0 17.16012
-6.3352103 3.1211758 4.2028365 0 0 0 0 17.165066
-6.1522698 3.0713236 4.3693562 0 0 0 0 17.170013
-5.8438482 2.9668961 4.4504771 0 0 0 0 17.174961
-6.1998262 2.8466597 3.7796481 0 0 0 0 17.179909
-6.1025605 2.8312235 3.9984307 0 0 0 0 17.184855
-6.1973438 2.9216673 4.3489008 0 0 0 0 17.189802
-5.8758674 2.8261697 4.4250317 0 0 0 0 17.194748
-6.9142933 2.9762352 4.1672778 0 0 0 0 17.199696
-5.9633975 2.5986938 3.8603826 0 0 0 0 17.204643
-6.2264638 2.7669272 4.3204021 0 0 0 0 17.209591
-5.9267812 2.6965182 4.415657 0 0 0 0 17.214537
-6.9426217 2.7914853 4.1376739 0 0 0 0 17.219484
-5.9685774 2.4368191 3.8228216 0 0 0 0 17.22443
-6.2595482 2.6151896 4.2989221 0 0 0 0 17.229378
-5.956779 2.5577695 4.3922172 0 0 0 0 17.234325
-6.9799008 2.6117728 4.1151032 0 0 0 0 17.239273
-6.0066037 2.2910917 3.8083725 0 0 0 0 17.244219
-5.7198253 2.2388389 3.8857129 0 0 0 0 17.249165
-5.9927335 2.4230337 4.3768024 0 0 0 0 17.254112
-7.0211439 2.4350626 4.0995507 0 0 0 0 17.25906
-6.6674414 2.3683043 4.1897302 0 0 0 0 17.264008
-5.753758 2.106082 3.8723035 0 0 0 0 17.268955
-6.0087638 2.2802079 4.3473272 0 0 0 0 17.273901
-7.0563855 2.2583139 4.0829897 0 0 0 0 17.278847
-6.7015862 2.2055519 4.1732163 0 0 0 0 17.283794
-6.3995709 2.1821239 4.2726316 0 0 0 0 17.288742
-5.5126352 1.9571081 3.951381 0 0 0 0 17.29369
-7.0826502 2.0785129 4.0634046 0 0 0 0 17.298635
-6.7367096 2.0447948 4.1597123 0 0 0 0 17.303583
-6.4096937 2.0252528 4.2430997 0 0 0 0 17.308529
-6.1045423 2.0218115 4.3415799 0 0 0 0 17.313477
-6.7558694 1.8799517 4.1391687 0 0 0 0 17.323372
-6.4317403 1.876426 4.224617 0 0 0 0 17.328318
-6.1155477 1.8809392 4.3151069 0 0 0 0 17.333265
-0.52924854 0.12134385 0.27879044 0 0 0 0 17.338211
-6.7829857 1.7191353 4.1266537 0 0 0 0 17.343159
-6.4587822 1.7266157 4.2111402 0 0 0 0 17.348106
-6.1365004 1.7451043 4.297668 0 0 0 0 17.353054
-6.8051057 1.557284 4.1141276 0 0 0 0 17.362946
-6.4828062 1.5787809 4.1986661 0 0 0 0 17.367893
-6.1624408 1.6092824 4.2862382 0 0 0 0 17.372841
-0.53435814 0.097376317 0.2777321 0 0 0 0 17.377789
-6.8242254 1.3954154 4.1005979 0 0 0 0 17.382736
-6.4968419 1.4298909 4.1821728 0 0 0 0 17.387682
-6.1793876 1.4734155 4.2697954 0 0 0 0 17.392628
-6.8353434 1.233495 4.0860562 0 0 0 0 17.402523
-6.5168581 1.2820209 4.1716943 0 0 0 0 17.407471
-6.2053032 1.3395789 4.2623749 0 0 0 0 17.412418
-0.56941599 0.076551706 0.29473439 0 0 0 0 17.417364
-6.8334761 1.0705062 4.0654907 0 0 0 0 17.42231
-6.5368695 1.1341472 4.1622171 0 0 0 0 17.427258
-6.223238 1.2037044 4.2499352 0 0 0 0 17.432205
-6.8296108 0.90650034 4.0459199 0 0 0 0 17.442099
-6.5488911 0.9852289 4.149724 0 0 0 0 17.447046
-6.2481456 1.0698533 4.2445149 0 0 0 0 17.451992
-0.53559029 0.04738294 0.27459463 0 0 0 0 17.45694
-6.5588994 0.83728981 4.1392322 0 0 0 0 17.466835
-6.2560849 0.9329133 4.2310572 0 0 0 0 17.471781
-0.4989574 0.040081251 0.27269739 0 0 0 0 17.928055
-6.5695214 0.68847686 4.1306348 0 0 0 0 17.933002
-6.2736421 0.79721248 4.2235169 0 0 0 0 17.93795
-0.50508678 0.021172065 0.25665069 0 0 0 0 17.942896
-6.2855363 0.66128242 4.2140837 0 0 0 0 17.957737
-0.58094597 0.021457916 0.32078385 0 0 0 0 17.967632
-0.61378497 0.034535591 0.3628819 0 0 0 0 17.972578
-0.4771983 -0.00096766703 0.2415489 0 0 0 0 17.982471
-0.60684997 0.021503095 0.35783562 0 0 0 0 17.992367
-0.60571229 0.035416454 0.38188165 0 0 0 0 17.997313
-0.59004426 -0.0035051429 0.32573214 0 0 0 0 18.007206
-0.60077554 0.022393988 0.37783867 0 0 0 0 18.017101
-0.58722508 -0.02844782 0.30165157 0 0 0 0 18.022049
-0.59796774 -0.0035387701 0.3507548 0 0 0 0 18.031942
-0.59683192 0.010378096 0.37380072 0 0 0 0 18.036888
-0.5901565 -0.029510943 0.32566294 0 0 0 0 18.046783
-0.58888978 -0.0016606571 0.36875644 0 0 0 0 18.056677
-0.60333991 -0.057381786 0.31159872 0 0 0 0 18.061623
-0.59907812 -0.029541241 0.35168734 0 0 0 0 18.071518
-0.60639703 -0.07137505 0.31456602 0 0 0 0 18.081413
-0.60326785 -0.057457961 0.33360866 0 0 0 0 18.086359
-0.58799183 -0.02566614 0.36669239 0 0 0 0 18.096252
-0.52944916 -0.073743537 0.27244338 0 0 0 0 18.1012
-0.60818607 -0.056507878 0.3576299 0 0 0 0 18.111094
-0.55538172 -0.077691905 0.30748245 0 0 0 0 18.125935
-0.59309137 -0.050648842 0.36963513 0 0 0 0 18.13583
-6.7590208 -1.3215427 3.7593386 0 0 0 0 18.140776
-6.4774718 -1.1015885 3.8236077 0 0 0 0 18.145723
-0.62829959 -0.086429179 0.37158081 0 0 0 0 18.150669
-0.60414004 -0.064606115 0.37761548 0 0 0 0 18.155617
-6.7380342 -1.4847493 3.7667775 0 0 0 0 18.160564
-6.4934149 -1.2576041 3.8471289 0 0 0 0 18.165512
-0.60219669 -0.077618659 0.37657821 0 0 0 0 18.175404
-6.6950216 -1.6420658 3.7642021 0 0 0 0 18.180351
-6.4693584 -1.408808 3.8486028 0 0 0 0 18.185299
-0.57440257 -0.10368177 0.33945534 0 0 0 0 18.190247
-0.65224981 -0.098404258 0.40959865 0 0 0 0 18.195194
-6.6529956 -1.7983848 3.7646327 0 0 0 0 18.20014
-6.4392881 -1.5580473 3.8490751 0 0 0 0 18.205086
-6.2266269 -1.3196372 3.9135122 0 0 0 0 18.210033
-0.69031245 -0.11924867 0.43659982 0 0 0 0 18.214981
-6.608973 -1.955716 3.7650583 0 0 0 0 18.219929
-6.4022059 -1.7053248 3.8475437 0 0 0 0 18.224874
-6.195509 -1.4598577 3.9070129 0 0 0 0 18.229822
-6.00174 -1.2063479 3.9795282 0 0 0 0 18.234768
-6.5719414 -2.1140273 3.7734935 0 0 0 0 18.239716
-6.3701329 -1.8555855 3.8510125 0 0 0 0 18.244663
-6.1693769 -1.6000681 3.9075229 0 0 0 0 18.249611
-5.9895763 -1.3414693 3.9810762 0 0 0 0 18.254557
-6.5098705 -2.2634573 3.768919 0 0 0 0 18.259504
-6.3280306 -2.0008974 3.8504822 0 0 0 0 18.26445
-6.1472564 -1.7432652 3.9120305 0 0 0 0 18.269398
-5.9653993 -1.4736518 3.9776156 0 0 0 0 18.274345
-6.4488049 -2.4148896 3.7673411 0 0 0 0 18.279293
-6.2939491 -2.151176 3.8559499 0 0 0 0 18.284239
-6.1151152 -1.8825102 3.9115365 0 0 0 0 18.289185
-5.9382224 -1.6058468 3.9721513 0 0 0 0 18.294132
-6.6401372 -2.6651826 3.9168453 0 0 0 0 18.29908
-6.2358184 -2.2915735 3.8504131 0 0 0 0 18.304028
-6.0779638 -2.0207899 3.9120388 0 0 0 0 18.308975
-5.9240522 -1.7419931 3.9776962 0 0 0 0 18.313921
-6.5830979 -2.8236141 3.923254 0 0 0 0 18.318867
-6.3098845 -2.4833908 3.928921 0 0 0 0 18.323814
-6.0358167 -2.1590884 3.9085345 0 0 0 0 18.328762
-5.8978667 -1.8752033 3.9792328 0 0 0 0 18.33371
-6.5130258 -2.9761124 3.9246628 0 0 0 0 18.338655
-6.3739848 -2.680263 4.0043983 0 0 0 0 18.343603
-5.9946537 -2.2963929 3.9090362 0 0 0 0 18.348549
-5.857676 -2.0054708 3.9707575 0 0 0 0 18.353497
-6.4649849 -3.137516 3.9410794 0 0 0 0 18.358444
-6.3128686 -2.8256974 4.0048447 0 0 0 0 18.363392
-6.1748457 -2.5257561 4.0585928 0 0 0 0 18.368338
-5.826489 -2.138706 3.9702885 0 0 0 0 18.373285
-6.3959141 -3.2920182 3.9464862 0 0 0 0 18.378231
-6.2577615 -2.9741085 4.0102921 0 0 0 0 18.383179
-6.1317253 -2.6710825 4.062068 0 0 0 0 18.388126
-5.8123288 -2.279876 3.9838221 0 0 0 0 18.393074
-6.3287578 -3.4438574 3.9556808 0 0 0 0 18.044483
-6.2005377 -3.1218934 4.0155339 0 0 0 0 18.049431
-6.0824227 -2.8128238 4.0633607 0 0 0 0 18.054377
-5.9742389 -2.4957242 4.1222286 0 0 0 0 18.059324
-6.2617068 -3.600378 3.9680741 0 0 0 0 18.06427
-6.1414385 -3.2693441 4.0229688 0 0 0 0 18.069218
-6.0313058 -2.9562078 4.0668201 0 0 0 0 18.074165
-5.9401078 -2.6370022 4.1277213 0 0 0 0 18.079113
-6.1896224 -3.7519267 3.9794772 0 0 0 0 18.084059
-6.0833511 -3.4197967 4.0333962 0 0 0 0 18.089005
-5.9871945 -3.1025679 4.0772829 0 0 0 0 18.093952
-5.8989725 -2.7773159 4.1302075 0 0 0 0 18.0989
-6.1065035 -3.8975329 3.9868832 0 0 0 0 18.103848
-6.0172334 -3.5652907 4.0408297 0 0 0 0 18.108795
-5.9400878 -3.2499466 4.087739 0 0 0 0 18.113741
-5.8508143 -2.9136643 4.1296968 0 0 0 0 18.118687
-6.0364304 -4.0530853 4.0042791 0 0 0 0 18.123634
-5.9581337 -3.7157638 4.0562582 0 0 0 0 18.128582
-5.8739247 -3.3864126 4.0872011 0 0 0 0 18.13353
-5.8086696 -3.0539927 4.1351838 0 0 0 0 18.138477
-5.9543104 -4.2006979 4.0166836 0 0 0 0 18.143423
-5.8789806 -3.8553243 4.058692 0 0 0 0 18.148369
-5.8238082 -3.533819 4.1006551 0 0 0 0 18.153316
-5.7585196 -3.1933656 4.1386623 0 0 0 0 18.158264
-5.8651657 -4.3443489 4.027091 0 0 0 0 18.163212
-5.8178778 -4.0068178 4.0771174 0 0 0 0 18.168158
-5.7556553 -3.6733053 4.103107 0 0 0 0 18.173105
-5.7103705 -3.3337314 4.1441422 0 0 0 0 18.178051
-5.7870612 -4.4969587 4.0474882 0 0 0 0 18.182999
-5.7357135 -4.1464076 4.0835495 0 0 0 0 18.187946
-5.693501 -3.8147745 4.1125636 0 0 0 0 18.192894
-5.6532125 -3.4721413 4.1456156 0 0 0 0 18.19784
-5.6888762 -4.6346583 4.0559034 0 0 0 0 18.202787
-5.6655874 -4.2949533 4.1009731 0 0 0 0 18.207733
-5.6333776 -3.9622421 4.1260052 0 0 0 0 18.212681
-5.6050735 -3.6165278 4.1580853 0 0 0 0 18.217628
-5.5947104 -4.7773528 4.0713105 0 0 0 0 18.222576
-5.5864272 -4.4375439 4.1144028 0 0 0 0 18.227522
-5.5622082 -4.1017642 4.1344566 0 0 0 0 18.232468
-5.5419044 -3.7539747 4.1595545 0 0 0 0 18.237415
-5.5065641 -4.9250255 4.0927119 0 0 0 0 18.242363
-5.5012546 -4.5781651 4.1258311 0 0 0 0 18.247311
-5.4840088 -4.23632 4.139914 0 0 0 0 18.252258
-5.4877563 -3.8973947 4.1710205 0 0 0 0 18.257204
-5.4013371 -5.0577717 4.1031365 0 0 0 0 18.26215
-5.412055 -4.7148075 4.1362672 0 0 0 0 18.267097
-5.4178796 -4.3848329 4.1563473 0 0 0 0 18.272045
-5.428607 -4.0408425 4.1814795 0 0 0 0 18.276993
-5.2971191 -5.1935258 4.1185546 0 0 0 0 18.281939
-5.3268747 -4.8564444 4.1536951 0 0 0 0 18.286886
-5.3437076 -4.5263863 4.1697912 0 0 0 0 18.291832
-5.3554163 -4.1763544 4.1839433 0 0 0 0 18.29678
-5.2110019 -5.3492126 4.1499381 0 0 0 0 18.301727
-5.2386942 -4.9980965 4.1701193 0 0 0 0 18.306675
-5.2575049 -4.6619964 4.177237 0 0 0 0 18.311621
-5.2892542 -4.3188481 4.1953974 0 0 0 0 18.316568
-5.1047678 -5.4839849 4.1683588 0 0 0 0 18.321514
-5.1334434 -5.1268239 4.1765594 0 0 0 0 18.326462
-5.1783271 -4.8035822 4.1916757 0 0 0 0 18.331409
-5.218082 -4.4593635 4.2038512 0 0 0 0 18.336357
-4.9945126 -5.6157813 4.1867847 0 0 0 0 18.341303
-5.0472751 -5.2734885 4.2019739 0 0 0 0 18.346249
-5.0921245 -4.941205 4.2041178 0 0 0 0 18.351196
-5.1509347 -4.6058741 4.2192931 0 0 0 0 18.356144
-4.8872986 -5.7555723 4.2101908 0 0 0 0 18.361092
-4.951057 -5.4111962 4.2214026 0 0 0 0 18.366039
-5.0069385 -5.0828328 4.2205505 0 0 0 0 18.370985
-5.0777674 -4.7494187 4.233737 0 0 0 0 18.375931
-4.7760439 -5.8893871 4.2336106 0 0 0 0 18.380878
-4.8397708 -5.5359635 4.2298508 0 0 0 0 18.385826
-4.9177399 -5.2224813 4.2359838 0 0 0 0 18.390774
-4.9915557 -4.8840132 4.2381897 0 0 0 0 18.39572
-4.6587582 -6.0182319 4.2550392 0 0 0 0 18.400667
-4.7476006 -5.6846771 4.260253 0 0 0 0 18.405613
-4.8255239 -5.3601508 4.2524209 0 0 0 0 18.410561
-4.9103794 -5.0266032 4.2516274 0 0 0 0 18.415508
-4.5314107 -6.136116 4.2694879 0 0 0 0 18.420456
-4.6463795 -5.8244305 4.2856717 0 0 0 0 18.425402
-4.7273011 -5.4968538 4.2678523 0 0 0 0 18.430349
-4.8272099 -5.1712108 4.267056 0 0 0 0 18.435295
-4.2730689 -6.0674291 4.1583281 0 0 0 0 18.440243
-4.5280695 -5.9472456 4.2971191 0 0 0 0 18.44519
-4.6270695 -5.6325674 4.2832856 0 0 0 0 18.450138
-4.7390099 -5.310842 4.2804942 0 0 0 0 18.455084
-4.1386251 -6.1693373 4.1678195 0 0 0 0 18.46003
-4.4137812 -6.0760627 4.317555 0 0 0 0 18.464977
-4.5278492 -5.7712855 4.3027124 0 0 0 0 18.469925
-4.6437874 -5.4465036 4.2899356 0 0 0 0 18.474873
-4.0273571 -6.3051753 4.2022395 0 0 0 0 18.47982
-4.1705327 -6.0222807 4.2083721 0 0 0 0 18.484766
-4.431664 -5.9180083 4.3301196 0 0 0 0 18.489712
-4.5646892 -5.6071286 4.3203239 0 0 0 0 18.494659
-3.9070182 -6.4290533 4.2316852 0 0 0 0 18.499607
-4.0350351 -6.1131568 4.2068977 0 0 0 0 18.504555
-4.3163757 -6.0447993 4.3415623 0 0 0 0 18.509501
-4.4624596 -5.7428374 4.3317571 0 0 0 0 18.514448
-3.775456 -6.5431881 4.2555838 0 0 0 0 18.814274
-3.9185922 -6.2402234 4.2327552 0 0 0 0 18.819221
-4.0810657 -5.9972143 4.2337689 0 0 0 0 18.824169
-4.3652072 -5.8908191 4.3525443 0 0 0 0 18.829115
-3.6480625 -6.6610847 4.2840505 0 0 0 0 18.834061
-3.8063033 -6.3750339 4.2631912 0 0 0 0 18.839008
-3.9405267 -6.0810699 4.2223191 0 0 0 0 18.843956
-4.2569518 -6.0265574 4.366982 0 0 0 0 18.848904
-3.5126238 -6.7710161 4.3085308 0 0 0 0 18.853851
-3.6869674 -6.5018759 4.2906423 0 0 0 0 18.858797
-3.8403246 -6.2308168 4.2567272 0 0 0 0 18.863743
-4.0278053 -5.9876499 4.2557774 0 0 0 0 18.86869
-3.3044028 -6.7321081 4.241363 0 0 0 0 18.873638
-3.5616014 -6.6237469 4.3161016 0 0 0 0 18.878586
-3.721982 -6.3546267 4.2761898 0 0 0 0 18.883532
-3.897356 -6.0874553 4.2492943 0 0 0 0 18.888479
-3.0839748 -6.6542048 4.152298 0 0 0 0 18.893425
-3.4281578 -6.7316437 4.3345928 0 0 0 0 18.898373
-3.6107473 -6.4994316 4.3085995 0 0 0 0 18.90332
-3.7991834 -6.2421837 4.2826924 0 0 0 0 18.908268
-2.8806326 -6.5942454 4.0802031 0 0 0 0 18.913214
-3.219939 -6.6907039 4.2584319 0 0 0 0 18.918161
-3.4886942 -6.6272922 4.3328075 0 0 0 0 18.923107
-3.6851938 -6.3799739 4.3018827 0 0 0 0 18.928055
-2.7169774 -6.6142278 4.0586967 0 0 0 0 18.933002
-3.0037878 -6.6117802 4.164145 0 0 0 0 18.93795
-3.3572981 -6.7421741 4.3502803 0 0 0 0 18.942896
-3.5709496 -6.5207734 4.3262997 0 0 0 0 18.947842
-2.8187037 -7.3288789 4.4636564 0 0 0 0 18.952789
-2.8135982 -6.5787678 4.1009912 0 0 0 0 18.957737
-3.1308625 -6.6582441 4.24123 0 0 0 0 18.962685
-3.453711 -6.663599 4.3537073 0 0 0 0 18.967632
-2.8979425 -7.2213821 4.4601512 0 0 0 0 18.977524
-2.9154525 -6.5802679 4.1401777 0 0 0 0 18.982471
-3.3001499 -6.7445183 4.3402538 0 0 0 0 18.987419
-2.7425001 -6.5912175 4.0999136 0 0 0 0 19.00226
-3.0595713 -6.6316004 4.2082725 0 0 0 0 19.007206
-1.996814 -6.4240036 3.8383265 0 0 0 0 19.012154
-2.8289759 -7.258842 4.4670048 0 0 0 0 19.022049
-2.8553228 -6.5825891 4.1191478 0 0 0 0 19.026995
-1.8233949 -6.3538818 3.7773144 0 0 0 0 19.031942
-2.093677 -6.4245019 3.8685091 0 0 0 0 19.036888
-2.9356518 -7.2211738 4.4613223 0 0 0 0 19.046783
-1.6223353 -6.1617031 3.6446383 0 0 0 0 19.051731
-1.9254403 -6.3863788 3.8174055 0 0 0 0 19.056677
-1.4680283 -6.113512 3.6005867 0 0 0 0 19.071518
-1.7448976 -6.2902255 3.7334628 0 0 0 0 19.076466
-2.0145044 -6.4158792 3.8324862 0 0 0 0 19.081413
-1.3198174 -6.0843244 3.5704858 0 0 0 0 19.091305
-1.5529566 -6.1190162 3.6097345 0 0 0 0 19.096252
-1.8391712 -6.3577433 3.7644341 0 0 0 0 19.1012
-2.1104615 -6.4232807 3.828645 0 0 0 0 19.106148
-1.1776577 -6.0651193 3.5473633 0 0 0 0 19.111094
-1.3986628 -6.0718093 3.5616803 0 0 0 0 19.116041
-1.6494459 -6.2255692 3.6565886 0 0 0 0 19.120987
-1.935251 -6.3861566 3.7645285 0 0 0 0 19.125935
-1.0343786 -6.0238876 3.5143073 0 0 0 0 19.130882
-1.2596763 -6.0836182 3.5494671 0 0 0 0 19.13583
-1.4707377 -6.0973439 3.5547471 0 0 0 0 19.140776
-1.7629753 -6.3380079 3.6994503 0 0 0 0 19.145723
-0.89411527 -5.985642 3.4832466 0 0 0 0 19.150669
-1.109319 -6.0253768 3.4994528 0 0 0 0 19.155617
-1.3195776 -6.0741434 3.5156236 0 0 0 0 19.160564
-1.5548726 -6.1317949 3.5438044 0 0 0 0 19.165512
-0.75579607 -5.9373727 3.4492199 0 0 0 0 19.170458
-0.96714306 -6.0021515 3.471343 0 0 0 0 19.175404
-1.1744852 -6.06494 3.4884667 0 0 0 0 19.180351
-1.3884709 -6.0605817 3.4708056 0 0 0 0 19.185299
-0.62052172 -5.8981042 3.4221704 0 0 0 0 19.190247
-0.8258605 -5.9588876 3.4332969 0 0 0 0 19.195194
-1.0262371 -6.0256987 3.4433973 0 0 0 0 19.20014
-1.2424989 -6.0723987 3.4485829 0 0 0 0 19.205086
-0.4850589 -5.8227735 3.3752308 0 0 0 0 19.210033
-0.68553287 -5.9076095 3.3932765 0 0 0 0 19.214981
-0.88097739 -5.9854493 3.4023359 0 0 0 0 19.219929
-1.0912888 -6.0391717 3.4024911 0 0 0 0 19.224874
-0.35678601 -5.784471 3.3521888 0 0 0 0 19.229822
-0.55026221 -5.8673205 3.3602302 0 0 0 0 19.234768
-0.73565429 -5.9331794 3.3553112 0 0 0 0 19.239716
-0.94101703 -5.9949269 3.3534343 0 0 0 0 19.244663
-0.23318189 -5.8753748 3.4057596 0 0 0 0 19.249611
-0.41917017 -5.8620744 3.3500831 0 0 0 0 19.254557
-0.59533656 -5.8828926 3.3132877 0 0 0 0 19.259504
-0.79272759 -5.947669 3.30439 0 0 0 0 19.26445
-0.10572845 -5.8030109 3.3658235 0 0 0 0 19.269398
-0.28920582 -5.8818684 3.3558619 0 0 0 0 19.274345
-0.45808026 -5.8446093 3.2792325 0 0 0 0 19.279293
-0.6474629 -5.9054027 3.2593348 0 0 0 0 19.284239
0.016376572 -5.7508945 3.3372872 0 0 0 0 18.947649
-0.16014288 -5.8337569 3.323303 0 0 0 0 18.952595
-0.32858589 -5.9016356 3.2983527 0 0 0 0 18.957542
-0.50540423 -5.8532691 3.2117772 0 0 0 0 18.96249
0.13969433 -5.7065797 3.3172712 0 0 0 0 18.967438
-0.032653529 -5.7553878 3.2773862 0 0 0 0 18.972383
-0.19317655 -5.8363171 3.2523837 0 0 0 0 18.977331
-0.36956251 -5.8921108 3.2154832 0 0 0 0 18.982277
0.26000679 -5.6632476 3.2982564 0 0 0 0 18.987225
0.094568104 -5.7271028 3.2593143 0 0 0 0 18.992172
-0.059850331 -5.7870178 3.2173681 0 0 0 0 18.99712
-0.23128681 -5.850841 3.179435 0 0 0 0 19.002066
0.38773304 -5.7311649 3.3448856 0 0 0 0 19.007013
0.21886669 -5.6847792 3.2352908 0 0 0 0 19.011959
0.069472104 -5.7386985 3.1843553 0 0 0 0 19.016907
-0.092979193 -5.8035598 3.1404054 0 0 0 0 19.021854
0.51180816 -5.7339478 3.3567233 0 0 0 0 19.026802
0.34313202 -5.6494751 3.2182455 0 0 0 0 19.031748
0.19689266 -5.6723399 3.1434014 0 0 0 0 19.036694
