# .PCD v0.7 - Point Cloud Data file format
VERSION 0.7
FIELDS x y z normal_x normal_y normal_z intensity curvature
SIZE 4 4 4 4 4 4 4 4
TYPE F F F F F F F F
COUNT 1 1 1 1 1 1 1 1
WIDTH 976
HEIGHT 1
VIEWPOINT 0 0 0 1 0 0 0
POINTS 976
DATA ascii
-0.11311209 -5.0890436 3.122282 0 0 0 0 36.846329
-0.24302487 -5.1442657 3.2492616 0 0 0 0 36.85128
0.25975424 -4.9504266 2.879379 0 0 0 0 36.856224
0.12783127 -4.9976473 2.9913599 0 0 0 0 36.861168
0.0019180011 -5.0508599 3.1013405 0 0 0 0 36.866119
-0.13001719 -5.0890818 3.2093239 0 0 0 0 36.871063
0.37677863 -4.9112372 2.8714371 0 0 0 0 36.876015
0.24185003 -4.9534616 2.973419 0 0 0 0 36.880959
0.11292691 -4.9986773 3.0714011 0 0 0 0 36.88591
-0.017982537 -5.0538998 3.1843808 0 0 0 0 36.890854
0.49080309 -4.8730502 2.8664937 0 0 0 0 36.895798
0.35386443 -4.9072762 2.9564776 0 0 0 0 36.900749
0.22295004 -4.9574952 3.0504584 0 0 0 0 36.905693
0.090049587 -5.0177217 3.1594369 0 0 0 0 36.910645
0.6018104 -4.823863 2.8555524 0 0 0 0 36.915588
0.46491113 -4.8840933 2.9545302 0 0 0 0 36.920532
0.33098212 -4.9233146 3.0355136 0 0 0 0 36.925484
0.19706281 -4.9695401 3.1284955 0 0 0 0 36.930428
0.71484441 -4.7936735 2.8566062 0 0 0 0 36.935379
0.57190675 -4.8269086 2.9335899 0 0 0 0 36.940323
0.43898934 -4.8731298 3.0125721 0 0 0 0 36.945274
0.30308935 -4.9313602 3.105551 0 0 0 0 36.950218
0.82385492 -4.7484851 2.8516629 0 0 0 0 36.955162
0.68195742 -4.8077226 2.936641 0 0 0 0 36.960114
0.54502803 -4.8449488 3.0036247 0 0 0 0 36.965057
0.40811467 -4.8931785 3.083606 0 0 0 0 36.970009
0.93287629 -4.7112956 2.851717 0 0 0 0 36.974953
0.78695762 -4.755537 2.9216981 0 0 0 0 36.979897
0.65106279 -4.8147645 2.9946773 0 0 0 0 36.984848
0.51214021 -4.8559966 3.0646605 0 0 0 0 36.989792
1.0418918 -4.671103 2.852771 0 0 0 0 36.994743
0.89398372 -4.7213488 2.918751 0 0 0 0 36.999687
0.75406289 -4.7625799 2.9747341 0 0 0 0 37.004631
0.61416 -4.815815 3.0447145 0 0 0 0 37.009583
1.1479062 -4.6309133 2.8548248 0 0 0 0 37.014526
0.99799502 -4.6781611 2.9118054 0 0 0 0 37.019478
0.85809535 -4.7323942 2.9687855 0 0 0 0 37.024422
0.71618789 -4.7816319 3.0287671 0 0 0 0 37.029373
1.2562431 -4.5926208 2.8600099 0 0 0 0 37.115906
1.1013331 -4.6378846 2.9079921 0 0 0 0 37.12085
0.96044791 -4.6981273 2.9619725 0 0 0 0 37.125801
0.81552386 -4.734376 3.006958 0 0 0 0 37.130745
1.363266 -4.5604196 2.86906 0 0 0 0 37.135696
1.2043508 -4.6016898 2.9080429 0 0 0 0 37.14064
1.0624621 -4.6589336 2.9540241 0 0 0 0 37.145584
0.91655391 -4.704185 2.9970076 0 0 0 0 37.150536
1.4692782 -4.5222168 2.8771107 0 0 0 0 37.155479
1.3073624 -4.5624924 2.9080939 0 0 0 0 37.160431
1.1644851 -4.6257381 2.950074 0 0 0 0 37.165375
1.0175812 -4.6729922 2.9890571 0 0 0 0 37.170319
1.5732876 -4.4830151 2.8851612 0 0 0 0 37.17527
1.4113846 -4.5302911 2.9131429 0 0 0 0 37.180214
1.2654988 -4.5875421 2.9451241 0 0 0 0 37.185165
1.1155894 -4.6307998 2.9741085 0 0 0 0 37.190109
1.4512943 -3.8401113 2.5033245 0 0 0 0 37.195053
1.5144007 -4.49509 2.9191923 0 0 0 0 37.200005
1.3624964 -4.540349 2.9351759 0 0 0 0 37.204948
1.2176249 -4.6056008 2.9711559 0 0 0 0 37.2099
1.5412983 -3.8039315 2.5133724 0 0 0 0 37.214844
1.4476352 -3.9941115 2.6203291 0 0 0 0 37.219795
1.4675359 -4.5191436 2.9452221 0 0 0 0 37.224739
1.3156409 -4.5694056 2.9632051 0 0 0 0 37.229683
1.6313049 -3.7697496 2.5234194 0 0 0 0 37.234634
1.4864132 -3.822999 2.5364022 0 0 0 0 37.239578
1.5655414 -4.4779449 2.9412715 0 0 0 0 37.24453
1.4136525 -4.5312076 2.9552541 0 0 0 0 37.249474
1.723317 -3.7395632 2.5394652 0 0 0 0 37.254417
1.5734252 -3.7918208 2.5424483 0 0 0 0 37.259369
1.4395248 -3.8390508 2.5444338 0 0 0 0 37.264313
1.5126731 -4.4990063 2.9533014 0 0 0 0 37.269264
1.8133249 -3.7073777 2.5545108 0 0 0 0 37.274208
1.661429 -3.7566385 2.5494947 0 0 0 0 37.279152
1.5255367 -3.8078728 2.5474794 0 0 0 0 37.284103
1.5172377 -4.2029319 2.7763991 0 0 0 0 37.289047
1.9073373 -3.6781838 2.5745559 0 0 0 0 37.293999
1.7534529 -3.733449 2.5655386 0 0 0 0 37.298943
1.612546 -3.775691 2.5515251 0 0 0 0 37.303894
1.4726338 -3.8149323 2.5395126 0 0 0 0 37.308838
1.9993417 -3.6449907 2.5926013 0 0 0 0 37.313782
1.8414532 -3.697263 2.5755847 0 0 0 0 37.318733
1.6995561 -3.7445071 2.5565703 0 0 0 0 37.323677
1.5616571 -3.7907462 2.5435567 0 0 0 0 37.328629
2.0893347 -3.6057985 2.6096475 0 0 0 0 37.333572
1.9314615 -3.6660719 2.5886292 0 0 0 0 37.338516
1.7875673 -3.7143197 2.5636148 0 0 0 0 37.343468
1.6476728 -3.762563 2.5456007 0 0 0 0 37.348412
2.1813374 -3.5726011 2.630692 0 0 0 0 37.353363
2.01846 -3.6298835 2.6006744 0 0 0 0 37.358307
1.8755773 -3.6841304 2.572659 0 0 0 0 37.363258
1.7306696 -3.7243814 2.5426466 0 0 0 0 37.368202
2.2753389 -3.5393982 2.6537364 0 0 0 0 37.373146
2.1104698 -3.6006849 2.6187181 0 0 0 0 37.378098
1.9625794 -3.6499407 2.5817034 0 0 0 0 37.383041
1.8196887 -3.6991897 2.5506897 0 0 0 0 37.387993
2.3673325 -3.5021966 2.6757812 0 0 0 0 37.392937
2.1964574 -3.5594935 2.6297634 0 0 0 0 37.397881
2.0525877 -3.6197436 2.5927472 0 0 0 0 37.402832
1.9087052 -3.6729951 2.5577326 0 0 0 0 37.407776
2.4573157 -3.4599957 2.6968265 0 0 0 0 37.412727
2.2874568 -3.5252919 2.6468072 0 0 0 0 37.417671
2.1435971 -3.5905433 2.60779 0 0 0 0 37.422615
1.9947065 -3.638803 2.5617764 0 0 0 0 37.427567
2.9633145 -3.9761112 3.1617782 0 0 0 0 37.43251
2.3774493 -3.4880903 2.6648514 0 0 0 0 37.437462
2.2305927 -3.5543468 2.6178341 0 0 0 0 37.442406
2.0807033 -3.6026092 2.5658209 0 0 0 0 37.447357
3.0793104 -3.9378545 3.198823 0 0 0 0 37.452301
2.4664373 -3.4488881 2.6828954 0 0 0 0 37.457245
2.3215911 -3.5201418 2.6328776 0 0 0 0 37.462196
2.1687062 -3.5704098 2.5738637 0 0 0 0 37.46714
3.1942997 -3.8965974 3.2368679 0 0 0 0 37.472092
2.9804699 -3.9739728 3.1478438 0 0 0 0 37.477036
2.4085796 -3.4809413 2.6439214 0 0 0 0 37.481979
2.2557008 -3.53421 2.5809071 0 0 0 0 37.486931
3.3102903 -3.8563349 3.275912 0 0 0 0 37.491875
3.0914636 -3.9347208 3.1778882 0 0 0 0 37.496826
2.8996027 -3.9950569 3.0838697 0 0 0 0 37.50177
2.3426907 -3.4960079 2.5879507 0 0 0 0 37.506721
3.4302754 -3.8140633 3.3189564 0 0 0 0 37.511665
3.1984389 -3.8864725 3.2029333 0 0 0 0 37.516609
3.0065923 -3.9538102 3.1059139 0 0 0 0 37.521561
2.432687 -3.4617987 2.5989933 0 0 0 0 37.526505
3.5452485 -3.7657969 3.3580012 0 0 0 0 37.531456
3.31844 -3.8521991 3.2419758 0 0 0 0 37.5364
3.122596 -3.9205446 3.1349564 0 0 0 0 37.541344
2.5246787 -3.4255836 2.612036 0 0 0 0 37.546295
3.6712372 -3.7265089 3.4090445 0 0 0 0 37.551239
3.4344225 -3.8089294 3.2760196 0 0 0 0 37.55619
3.2325821 -3.8782866 3.1589999 0 0 0 0 37.561134
3.0417295 -3.9416258 3.0519824 0 0 0 0 37.566078
3.7922077 -3.6782265 3.4560888 0 0 0 0 37.57103
3.5554118 -3.7696483 3.3170624 0 0 0 0 37.575974
3.3455646 -3.8350205 3.1860435 0 0 0 0 37.580925
3.1567285 -3.9063573 3.0760248 0 0 0 0 37.585869
3.9168065 -3.6275141 3.504781 0 0 0 0 38.075317
3.6830566 -3.7290072 3.3627653 0 0 0 0 38.080269
3.4682288 -3.7964587 3.2217569 0 0 0 0 38.085213
3.273406 -3.8658693 3.0997486 0 0 0 0 38.090164
4.0467639 -3.5801675 3.5598176 0 0 0 0 38.095108
3.799006 -3.6776919 3.398803 0 0 0 0 38.100052
3.5821857 -3.7481487 3.2507944 0 0 0 0 38.105003
3.3853726 -3.8215647 3.1217856 0 0 0 0 38.109947
4.1787186 -3.5318136 3.6178539 0 0 0 0 38.114899
3.9189541 -3.6263649 3.4398406 0 0 0 0 38.119843
3.7071648 -3.7098124 3.2898297 0 0 0 0 38.124794
3.5073543 -3.7842357 3.1518209 0 0 0 0 38.129738
4.3156738 -3.4844453 3.6798897 0 0 0 0 38.134682
4.0489202 -3.5830133 3.4888759 0 0 0 0 38.139633
3.8301287 -3.6654773 3.3278656 0 0 0 0 38.144577
3.6233141 -3.7379167 3.1778576 0 0 0 0 38.149529
4.4516172 -3.432076 3.7409256 0 0 0 0 38.154472
4.1828775 -3.5366499 3.5419114 0 0 0 0 38.159416
3.9520798 -3.6161408 3.3639021 0 0 0 0 38.164368
3.7522941 -3.7005658 3.2128921 0 0 0 0 38.169312
4.6085825 -3.389657 3.8209591 0 0 0 0 38.174263
4.3148251 -3.4862874 3.5939469 0 0 0 0 38.179207
4.085042 -3.5717771 3.408937 0 0 0 0 38.184158
3.8782594 -3.6572187 3.246927 0 0 0 0 38.189102
4.7445045 -3.3292806 3.8839958 0 0 0 0 38.194046
4.4577785 -3.4388971 3.6539812 0 0 0 0 38.198997
4.215991 -3.5224144 3.4529722 0 0 0 0 38.203941
3.9981947 -3.6018813 3.2749641 0 0 0 0 38.208893
4.9014463 -3.277854 3.9660296 0 0 0 0 38.213837
4.6007237 -3.3885033 3.7160156 0 0 0 0 38.218781
4.343925 -3.4670553 3.4960082 0 0 0 0 38.223732
4.1311526 -3.5565121 3.3159981 0 0 0 0 38.228676
5.0573754 -3.2214255 4.045064 0 0 0 0 38.233627
4.7436533 -3.3321056 3.7770505 0 0 0 0 38.238571
4.4918838 -3.4226482 3.5540411 0 0 0 0 38.243515
4.2691073 -3.510128 3.3590322 0 0 0 0 38.248466
5.2142916 -3.159991 4.1270986 0 0 0 0 38.25341
4.9066062 -3.2856596 3.8550828 0 0 0 0 38.258362
4.636827 -3.3722436 3.6100748 0 0 0 0 38.263306
4.4040465 -3.4577475 3.4000666 0 0 0 0 38.268257
5.3892236 -3.1055117 4.2231312 0 0 0 0 38.273201
5.0585289 -3.2272336 3.9231169 0 0 0 0 38.278145
4.780755 -3.3158379 3.6651089 0 0 0 0 38.283096
4.5449843 -3.4053493 3.4451005 0 0 0 0 38.28804
5.5591297 -3.0410397 4.3171644 0 0 0 0 38.292992
5.2104383 -3.1638043 3.9931512 0 0 0 0 38.297935
4.9416943 -3.264389 3.7331412 0 0 0 0 38.302879
4.6959291 -3.3559248 3.4991331 0 0 0 0 38.307831
5.7340279 -2.9735513 4.4141984 0 0 0 0 38.312775
5.3913713 -3.1103044 4.0851827 0 0 0 0 38.317726
5.0996203 -3.2079434 3.800174 0 0 0 0 38.32267
4.8438501 -3.2975032 3.5501668 0 0 0 0 38.327621
5.9179244 -2.9060383 4.5202308 0 0 0 0 38.332565
5.5592756 -3.0458298 4.1682158 0 0 0 0 38.337509
5.2565246 -3.143496 3.8652077 0 0 0 0 38.342461
5.0097876 -3.2460358 3.6131983 0 0 0 0 38.347404
6.1168175 -2.8374853 4.6372628 0 0 0 0 38.352356
5.7341666 -2.9763348 4.2562485 0 0 0 0 38.3573
5.429441 -3.084007 3.9432395 0 0 0 0 38.362244
5.1717033 -3.1865735 3.6742306 0 0 0 0 38.367195
6.1715355 -2.7002642 4.6473107 0 0 0 0 38.372139
5.9260688 -2.9117951 4.3562794 0 0 0 0 38.37709
5.6003332 -3.0155184 4.0192723 0 0 0 0 38.382034
5.3446212 -3.1280813 3.7432616 0 0 0 0 38.386978
6.1141305 -2.5163047 4.5743713 0 0 0 0 38.39193
6.1349702 -2.8472109 4.4713092 0 0 0 0 38.396873
5.7882366 -2.9519851 4.1083031 0 0 0 0 38.401825
5.5195251 -3.0645797 3.813293 0 0 0 0 38.406769
6.0777583 -2.3472981 4.5224285 0 0 0 0 38.41172
6.2097015 -2.7169387 4.4873552 0 0 0 0 38.416664
5.9911366 -2.8874114 4.2073326 0 0 0 0 38.421608
5.690402 -2.9910831 3.881326 0 0 0 0 38.426559
6.0243769 -2.1763337 4.459487 0 0 0 0 38.431503
6.1602936 -2.5339611 4.4184155 0 0 0 0 38.436455
6.1980228 -2.8178225 4.308362 0 0 0 0 38.441399
5.8832936 -2.9235294 3.9643562 0 0 0 0 38.446342
5.9820137 -2.0143447 4.4075427 0 0 0 0 38.451294
6.1179037 -2.3599687 4.3574734 0 0 0 0 38.456238
6.2537189 -2.6755922 4.3074107 0 0 0 0 38.461189
6.096189 -2.8579223 4.0603843 0 0 0 0 38.466133
5.9426613 -1.85835 4.3605971 0 0 0 0 38.471077
6.0655084 -2.186002 4.291532 0 0 0 0 38.476028
6.2022963 -2.4896202 4.2354717 0 0 0 0 38.480972
6.2970443 -2.7773387 4.1484156 0 0 0 0 38.485924
5.8893046 -1.7023908 4.3046522 0 0 0 0 38.490868
6.0161295 -2.0200303 4.2315893 0 0 0 0 38.495819
6.1538868 -2.3106427 4.1685309 0 0 0 0 38.500763
6.2776408 -2.599288 4.0934734 0 0 0 0 38.505707
5.851965 -1.5543947 4.2647057 0 0 0 0 38.510658
5.9757643 -1.8610381 4.1796446 0 0 0 0 38.515602
6.099483 -2.1356819 4.1005898 0 0 0 0 38.520554
6.2332191 -2.4163003 4.0255332 0 0 0 0 38.525497
5.8076291 -1.4094168 4.2207589 0 0 0 0 38.530441
5.9334054 -1.7060528 4.1306992 0 0 0 0 38.535393
6.0621009 -1.9706815 4.047646 0 0 0 0 38.540337
6.1777925 -2.2333412 3.9545939 0 0 0 0 38.545288
5.7648001 -1.2695309 4.1785173 0 0 0 0 38.286697
5.8945041 -1.5551763 4.0854626 0 0 0 0 38.291641
6.0161319 -1.80884 3.9914136 0 0 0 0 38.296593
6.127749 -2.0575261 3.8903663 0 0 0 0 38.301537
5.725502 -1.132537 4.1425686 0 0 0 0 38.30648
5.8521824 -1.4071862 4.0395155 0 0 0 0 38.311432
5.9657807 -1.647866 3.9344692 0 0 0 0 38.316376
6.0963926 -1.8935058 3.8404222 0 0 0 0 38.321327
5.6882057 -0.99754006 4.1106186 0 0 0 0 38.326271
5.8048635 -1.2622095 3.9935677 0 0 0 0 38.331215
5.9344492 -1.4968498 3.8935227 0 0 0 0 38.336166
6.0470219 -1.725529 3.7824788 0 0 0 0 38.34111
5.6439123 -0.86556065 4.0746684 0 0 0 0 38.346062
5.7695508 -1.1212065 3.9576192 0 0 0 0 38.351006
5.8851094 -1.3438771 3.8435764 0 0 0 0 38.355957
6.0006638 -1.5645468 3.7285342 0 0 0 0 38.360901
5.6116261 -0.73755461 4.0487175 0 0 0 0 38.365845
5.7302446 -0.98421419 3.92067 0 0 0 0 38.370796
5.8427773 -1.1958897 3.8006294 0 0 0 0 38.37574
5.9573092 -1.4065593 3.6795893 0 0 0 0 38.380692
5.5663409 -0.61158043 4.0157666 0 0 0 0 38.385635
5.6899395 -0.84922564 3.8847206 0 0 0 0 38.390579
5.8094568 -1.0538824 3.7646811 0 0 0 0 38.395531
5.9129605 -1.252576 3.6326432 0 0 0 0 38.400475
5.5640688 -0.49150595 4.0148129 0 0 0 0 38.405426
5.6586385 -0.71721727 3.8577702 0 0 0 0 38.41037
5.7671351 -0.91289765 3.7247329 0 0 0 0 38.415321
5.8686175 -1.1025945 3.588697 0 0 0 0 38.420265
5.8298464 -0.38979524 4.2098479 0 0 0 0 38.425209
5.6083388 -0.58725548 3.8198202 0 0 0 0 38.430161
5.718812 -0.77292925 3.6847847 0 0 0 0 38.435104
5.8302832 -0.95759982 3.5497491 0 0 0 0 38.440056
6.1205993 -0.27901796 4.4238825 0 0 0 0 38.445
5.6510601 -0.46607208 3.8468652 0 0 0 0 38.449944
5.6754975 -0.63795024 3.6488352 0 0 0 0 38.454895
5.77494 -0.81064814 3.5038025 0 0 0 0 38.459839
6.4563236 -0.15712544 4.6729169 0 0 0 0 38.46479
5.9768281 -0.36120433 4.0668974 0 0 0 0 38.469734
5.6341853 -0.50496805 3.6168854 0 0 0 0 38.474678
5.7316113 -0.67066914 3.467854 0 0 0 0 38.47963
6.8570113 -0.021067796 4.9719505 0 0 0 0 38.484573
6.2705574 -0.2424065 4.2689319 0 0 0 0 38.489525
5.8869343 -0.39427024 3.7749205 0 0 0 0 38.494469
5.6912808 -0.5316844 3.4359055 0 0 0 0 38.49942
7.2846589 0.13006526 5.2939839 0 0 0 0 38.504364
6.6132522 -0.11048158 4.5049663 0 0 0 0 38.509308
6.2276649 -0.27635038 3.9909525 0 0 0 0 38.514259
5.8519979 -0.41020587 3.5259457 0 0 0 0 38.519203
7.697257 0.29917213 5.6090202 0 0 0 0 38.524155
7.0479131 0.034677602 4.8059974 0 0 0 0 38.529099
6.5363512 -0.14250121 4.1899877 0 0 0 0 38.534042
6.1777205 -0.29031488 3.7169776 0 0 0 0 38.538994
8.2497854 0.49563247 6.0300536 0 0 0 0 38.543938
7.5225177 0.20094605 5.1380296 0 0 0 0 38.548889
6.9430037 0.0045988569 4.4520197 0 0 0 0 38.553833
6.5374002 -0.15433107 3.9300103 0 0 0 0 38.558784
8.8802376 0.72129887 6.5120883 0 0 0 0 38.563728
7.9940624 0.3892186 5.4720645 0 0 0 0 38.568672
7.409605 0.17085849 4.7550516 0 0 0 0 38.573624
6.9370389 -0.0032384007 4.1700425 0 0 0 0 38.578568
9.5406055 0.97805476 7.0231242 0 0 0 0 38.583519
8.5765352 0.60477954 5.8850975 0 0 0 0 38.588463
7.9321418 0.36126965 5.098083 0 0 0 0 38.593407
7.4256239 0.16808829 4.4650731 0 0 0 0 38.598358
9.5350904 1.1791677 7.0481782 0 0 0 0 38.603302
9.4278803 0.87102842 6.4881253 0 0 0 0 38.608253
8.5235977 0.58186728 5.4901152 0 0 0 0 38.613197
7.9951372 0.36663181 4.8121023 0 0 0 0 38.618141
9.6025438 1.3914629 7.1302314 0 0 0 0 38.623093
9.6922731 1.1098204 6.6941733 0 0 0 0 38.628036
9.2829456 0.8439045 5.9941449 0 0 0 0 38.632988
8.5945683 0.59526551 5.1821346 0 0 0 0 38.637932
9.5440302 1.5874422 7.1212864 0 0 0 0 38.642883
9.7317028 1.3290495 6.7472286 0 0 0 0 38.647827
9.8232508 1.1174036 6.362185 0 0 0 0 38.652771
9.3378878 0.8652817 5.6431642 0 0 0 0 38.657722
9.6911497 1.5390755 6.7492862 0 0 0 0 38.66761
9.8116646 1.3405054 6.3792434 0 0 0 0 38.672562
9.9881287 1.1620773 6.0542011 0 0 0 0 38.677505
9.6695795 1.7531483 6.767343 0 0 0 0 38.687401
9.762084 1.5585091 6.3713021 0 0 0 0 38.692345
9.8935318 1.3859675 6.0172639 0 0 0 0 38.697296
9.7744684 1.7886702 6.4113603 0 0 0 0 38.712135
9.8449192 1.6139737 6.0113249 0 0 0 0 38.717079
9.7955923 2.8993428 7.0744624 0 0 0 0 38.528221
9.9083099 2.9968791 6.7094927 0 0 0 0 38.552956
10.066577 2.8874018 6.3324666 0 0 0 0 38.557907
8.0522776 5.495337 7.3342643 0 0 0 0 38.800308
8.306098 5.5332518 6.5522618 0 0 0 0 38.810204
8.3869972 5.5565796 6.1742644 0 0 0 0 38.815147
7.8928652 5.6270151 7.2943163 0 0 0 0 38.820091
8.1186037 5.7087364 6.9633203 0 0 0 0 38.825043
8.1935091 5.7290502 6.5723228 0 0 0 0 38.829987
8.2843475 5.7734046 6.2063289 0 0 0 0 38.834938
7.8003192 5.8068624 7.3213739 0 0 0 0 38.839882
7.93818 5.8423548 6.9203749 0 0 0 0 38.844826
8.0100441 5.8766589 6.5383801 0 0 0 0 38.849777
8.1806898 5.9912238 6.2413936 0 0 0 0 38.854721
7.7536712 6.0228281 7.3934355 0 0 0 0 38.859673
7.8725181 6.0622702 6.9824381 0 0 0 0 38.864616
7.9493327 6.1135879 6.6064463 0 0 0 0 38.86956
8.029109 6.1789112 6.2464566 0 0 0 0 38.874512
7.6830583 6.2237287 7.4464955 0 0 0 0 38.879456
7.7858887 6.2681279 7.0275002 0 0 0 0 38.884407
7.8566732 6.3294291 6.6535106 0 0 0 0 38.889351
7.9433866 6.41677 6.3055248 0 0 0 0 38.894302
7.5924678 6.4145732 7.4865556 0 0 0 0 38.899246
7.6942573 6.4729695 7.0735626 0 0 0 0 38.90419
7.7729702 6.5592904 6.7165775 0 0 0 0 38.909142
7.8436742 6.6485882 6.3605933 0 0 0 0 38.914085
7.5008755 6.6044126 7.5286155 0 0 0 0 38.919037
7.605598 6.6858153 7.1296268 0 0 0 0 38.923981
7.6712914 6.7781 6.7686439 0 0 0 0 38.928925
7.6860871 6.8332467 6.3726568 0 0 0 0 38.933876
7.4042764 6.7952352 7.5706763 0 0 0 0 38.93882
7.5029593 6.8896208 7.1746907 0 0 0 0 38.943771
7.559628 6.9898796 6.8157096 0 0 0 0 38.948715
7.7030425 7.1803727 6.5367384 0 0 0 0 38.953659
7.3026805 6.9830403 7.6117377 0 0 0 0 38.958611
7.4202514 7.1164756 7.2467575 0 0 0 0 38.963554
7.520751 7.2758527 6.9347839 0 0 0 0 38.968506
7.5873017 7.4161367 6.5988097 0 0 0 0 38.97345
7.2408972 7.2130532 7.6978202 0 0 0 0 38.998322
7.3205037 7.3313866 7.3048401 0 0 0 0 39.003265
7.4508524 7.5418444 7.0338731 0 0 0 0 39.008209
7.1542215 7.4248915 7.7648849 0 0 0 0 39.018105
7.2078414 7.5371528 7.3569059 0 0 0 0 39.023056
7.0545578 7.6306915 7.8249502 0 0 0 0 39.037895
7.1111116 7.7649584 7.430975 0 0 0 0 39.042839
7.687428 8.6627398 7.2441025 0 0 0 0 39.052734
6.9758091 7.8645444 7.9140191 0 0 0 0 39.057686
7.0312939 8.0218067 7.5340486 0 0 0 0 39.06263
6.8541813 8.0542774 7.9590836 0 0 0 0 39.077469
6.9115844 8.2385416 7.5981183 0 0 0 0 39.08242
6.7066255 8.2169342 7.9781461 0 0 0 0 39.09726
6.7998176 8.4732943 7.6801906 0 0 0 0 39.102203
6.8370857 8.7034855 7.3882351 0 0 0 0 39.107155
6.4823337 8.286377 7.9111986 0 0 0 0 39.11705
6.6989875 8.7280731 7.7802658 0 0 0 0 39.121994
6.7311811 8.9822464 7.5023155 0 0 0 0 39.126938
6.2809777 8.3778772 7.8702545 0 0 0 0 39.136833
6.5961246 8.9918413 7.8883443 0 0 0 0 39.141785
6.5734506 9.1988592 7.56639 0 0 0 0 39.146729
6.6045108 9.496026 7.3094478 0 0 0 0 39.151672
6.0856013 8.4753876 7.8373108 0 0 0 0 39.156624
6.4364576 9.1864471 7.9384146 0 0 0 0 39.161568
6.4485564 9.4695578 7.6764717 0 0 0 0 39.166519
6.450623 9.762639 7.4115314 0 0 0 0 39.171463
5.8623481 8.5298166 7.7693634 0 0 0 0 39.176414
6.1971226 9.2658272 7.8914723 0 0 0 0 39.181358
6.3156419 9.7452278 7.7925553 0 0 0 0 39.186302
6.3335266 10.09835 7.568625 0 0 0 0 39.191254
5.7287102 8.7154865 7.8244314 0 0 0 0 39.196198
5.9538088 9.3371897 7.8425303 0 0 0 0 39.201149
6.1946383 10.048927 7.9316435 0 0 0 0 39.206093
6.1496997 10.339867 7.6567078 0 0 0 0 39.211037
5.6368465 8.9762688 7.9475102 0 0 0 0 39.215988
5.6965914 9.3755064 7.771584 0 0 0 0 39.220932
5.9481931 10.161268 7.9227099 0 0 0 0 39.225883
5.9966712 10.647464 7.7948008 0 0 0 0 39.230827
5.4404593 9.0737562 7.9275694 0 0 0 0 39.235771
5.4413762 9.4128218 7.7056384 0 0 0 0 39.240723
5.6460633 10.166447 7.835763 0 0 0 0 39.245667
5.832633 10.956023 7.9378958 0 0 0 0 39.250618
5.2192025 9.1261683 7.8706236 0 0 0 0 39.255562
5.2031069 9.4681797 7.6596951 0 0 0 0 39.260513
5.356904 10.181655 7.7608171 0 0 0 0 39.265457
5.4786654 10.904041 7.8229446 0 0 0 0 39.270401
4.9492254 9.0844393 7.7386665 0 0 0 0 39.275352
4.9578929 9.5045118 7.6017499 0 0 0 0 39.280296
5.0558414 10.164823 7.669868 0 0 0 0 39.285248
5.1545758 10.893135 7.7429986 0 0 0 0 39.290192
4.649456 8.9736195 7.5557013 0 0 0 0 39.295135
4.7097178 9.5278292 7.5388036 0 0 0 0 39.300087
4.7876253 10.199076 7.6219258 0 0 0 0 39.305031
4.9149742 11.05246 7.7910767 0 0 0 0 39.309982
4.3934965 8.926918 7.4297438 0 0 0 0 39.314926
4.4605541 9.5471363 7.4788575 0 0 0 0 39.31987
4.4826751 10.145218 7.5149732 0 0 0 0 39.324821
4.6862392 11.254806 7.8751621 0 0 0 0 39.329765
4.1773105 8.9563208 7.3757973 0 0 0 0 39.334717
4.2174025 9.5624561 7.4189115 0 0 0 0 39.339661
4.3693967 10.529892 7.7360797 0 0 0 0 39.344612
4.3582659 11.204867 7.7862134 0 0 0 0 39.349556
3.9710863 8.9977455 7.3338518 0 0 0 0 39.3545
3.9911416 9.6138163 7.3919706 0 0 0 0 39.359451
4.0922766 10.531099 7.6771355 0 0 0 0 39.364395
4.0303435 11.138921 7.6932626 0 0 0 0 39.369347
3.7638891 9.0301647 7.2869062 0 0 0 0 39.37429
3.7420807 9.5991077 7.3180213 0 0 0 0 39.379234
3.8082459 10.503282 7.6031876 0 0 0 0 39.384186
3.7203677 11.09102 7.6173143 0 0 0 0 39.38913
3.5527275 9.0505657 7.2339597 0 0 0 0 39.394081
3.4861217 9.5513744 7.2220674 0 0 0 0 39.399025
3.529259 10.461473 7.5232377 0 0 0 0 39.403976
3.4074891 11.012103 7.5263619 0 0 0 0 39.40892
3.3455629 9.0719738 7.1860137 0 0 0 0 39.413864
3.258955 9.5717154 7.1831241 0 0 0 0 39.418816
3.2532611 10.423664 7.4512897 0 0 0 0 39.423759
3.1026065 10.935203 7.4414105 0 0 0 0 39.428711
3.1334412 9.0793619 7.1310663 0 0 0 0 39.433655
3.0120075 9.5209961 7.0961704 0 0 0 0 39.438599
2.9822955 10.375865 7.3783398 0 0 0 0 39.44355
2.801739 10.854307 7.3604589 0 0 0 0 39.448494
2.9243164 9.0877533 7.0801201 0 0 0 0 39.453445
2.7957544 9.569355 7.0862327 0 0 0 0 39.458389
2.7133565 10.320065 7.3043895 0 0 0 0 39.463333
2.5098987 10.765432 7.2785058 0 0 0 0 39.468285
2.7177207 9.1118107 7.0441065 0 0 0 0 40.219818
2.5976017 9.6833668 7.1282372 0 0 0 0 40.22477
2.4464328 10.268803 7.2373767 0 0 0 0 40.229713
2.2179496 10.658978 7.1894989 0 0 0 0 40.234657
2.5106275 9.1090965 6.9911747 0 0 0 0 40.239609
2.3852797 9.7436218 7.1333179 0 0 0 0 40.244553
2.1924694 10.226911 7.1824484 0 0 0 0 40.249504
1.9401276 10.576995 7.1225696 0 0 0 0 40.254448
2.3045564 9.1003799 6.9382424 0 0 0 0 40.259392
2.1660964 9.7648487 7.1133938 0 0 0 0 40.264343
1.93564 10.148004 7.1035156 0 0 0 0 40.269287
1.6693832 10.474031 7.0436363 0 0 0 0 40.274239
2.0965464 9.0746536 6.8743086 0 0 0 0 40.279182
1.9420061 9.7600546 7.0784669 0 0 0 0 40.284126
1.687763 10.083121 7.0395842 0 0 0 0 40.289078
1.4035993 10.383079 6.9787049 0 0 0 0 40.294022
1.8934944 9.0609388 6.8223767 0 0 0 0 40.298973
1.7130566 9.7162399 7.0185356 0 0 0 0 40.303917
1.4409391 10.004237 6.9716516 0 0 0 0 40.308868
1.1012579 9.8930235 6.649714 0 0 0 0 40.313812
1.6884904 9.0342112 6.7654438 0 0 0 0 40.318756
1.4705122 9.5603819 6.880589 0 0 0 0 40.323708
1.1544539 9.5552387 6.6496649 0 0 0 0 40.328651
0.85845226 9.8111401 6.6007819 0 0 0 0 40.333603
1.4845345 8.994483 6.7025089 0 0 0 0 40.338547
1.2154863 9.2624855 6.648622 0 0 0 0 40.343491
0.92957389 9.494421 6.6007328 0 0 0 0 40.348442
0.61680156 9.6872578 6.5258427 0 0 0 0 40.353386
1.2865363 8.9667711 6.6505761 0 0 0 0 40.358337
1.0035859 9.2077169 6.5916877 0 0 0 0 40.363281
0.70383441 9.3955984 6.5297947 0 0 0 0 40.368225
0.38412485 9.5714035 6.4579043 0 0 0 0 40.373177
1.0904961 8.9510584 6.6116452 0 0 0 0 40.37812
0.79373884 9.1389513 6.5297518 0 0 0 0 40.383072
0.48507577 9.3027945 6.4658575 0 0 0 0 40.388016
0.15551825 9.4375582 6.384963 0 0 0 0 40.392967
0.89357305 8.9033413 6.5507102 0 0 0 0 40.397911
0.58788294 9.0731945 6.4728165 0 0 0 0 40.402855
0.27035657 9.2000008 6.3979182 0 0 0 0 40.407806
-0.064103641 9.3087406 6.315021 0 0 0 0 40.41275
0.69961905 8.8646278 6.5007768 0 0 0 0 40.417702
0.38402534 9.0084391 6.4188814 0 0 0 0 40.422646
0.061596543 9.1092224 6.3419805 0 0 0 0 40.427589
-0.27878016 9.1959343 6.2610822 0 0 0 0 40.432541
0.50767404 8.8239174 6.4528432 0 0 0 0 40.437485
0.18418477 8.9396944 6.3659458 0 0 0 0 40.442436
-0.14417154 9.0214491 6.2920442 0 0 0 0 40.44738
-0.48738331 9.064147 6.1971393 0 0 0 0 40.452332
0.31674519 8.7792063 6.4049096 0 0 0 0 40.457275
-0.014616386 8.8609486 6.3100085 0 0 0 0 40.462219
-0.34585556 8.9116879 6.230103 0 0 0 0 40.467171
-0.69194537 8.9223709 6.1301947 0 0 0 0 40.472115
0.12785479 8.7244978 6.351975 0 0 0 0 40.477066
-0.20642261 8.7842255 6.2580714 0 0 0 0 40.48201
-0.54254383 8.8039408 6.1721625 0 0 0 0 40.486954
-0.89886737 8.8785686 6.131268 0 0 0 0 40.491905
-0.058007777 8.662797 6.2970386 0 0 0 0 40.496849
-0.39618561 8.6965036 6.2011328 0 0 0 0 40.501801
-0.73319924 8.6882114 6.1112199 0 0 0 0 40.506744
-1.1202551 8.9606905 6.2253666 0 0 0 0 40.511688
-0.24186829 8.601099 6.2451024 0 0 0 0 40.51664
-0.58391976 8.6017866 6.1421933 0 0 0 0 40.521584
-0.95298344 8.8763304 6.2663364 0 0 0 0 40.526535
-1.3107531 8.8039532 6.1554193 0 0 0 0 40.531479
-0.42270088 8.5324078 6.190166 0 0 0 0 40.53643
-0.77191246 8.577055 6.1352663 0 0 0 0 40.541374
-1.1406021 8.7516041 6.2033935 0 0 0 0 40.546318
-1.498329 8.669219 6.1034751 0 0 0 0 40.55127
-0.6024971 8.4547167 6.1332278 0 0 0 0 40.556213
-0.97951722 8.7162228 6.2483721 0 0 0 0 40.561165
-1.3262351 8.6318779 6.1504512 0 0 0 0 40.566109
-1.6819165 8.538496 6.0555315 0 0 0 0 40.571053
-0.79394686 8.5519543 6.2053227 0 0 0 0 40.576004
-1.1611973 8.6085148 6.1894312 0 0 0 0 40.580948
-1.5038276 8.5021801 6.0905066 0 0 0 0 40.585899
-1.6824366 7.5935783 5.4324074 0 0 0 0 40.590843
-0.99029666 8.6221704 6.2604156 0 0 0 0 40.595787
-1.3409003 8.5078068 6.1384916 0 0 0 0 40.600739
-1.6855215 8.4004583 6.0545678 0 0 0 0 40.605682
-1.8674792 7.5878272 5.4754863 0 0 0 0 40.610634
-1.1680404 8.5314732 6.2014771 0 0 0 0 40.615578
-1.515586 8.4031153 6.0845513 0 0 0 0 40.620529
-1.6771169 7.4795766 5.4274459 0 0 0 0 40.625473
-2.1853139 8.0564899 5.868679 0 0 0 0 40.630417
-1.3417774 8.4397869 6.1455383 0 0 0 0 40.635368
-1.5333884 7.5381279 5.4844451 0 0 0 0 40.640312
-1.8744483 7.5497656 5.5145416 0 0 0 0 40.645264
-2.3448324 7.9118438 5.8197303 0 0 0 0 40.650208
-1.5155457 8.3570948 6.0986018 0 0 0 0 40.655151
-1.6840407 7.428525 5.4304991 0 0 0 0 40.660103
-2.175153 7.9814949 5.8737249 0 0 0 0 40.665047
-2.4993351 7.7642126 5.7707806 0 0 0 0 40.669998
-1.5314372 7.5191131 5.5014997 0 0 0 0 40.674942
-2.0195694 8.0750923 5.9337263 0 0 0 0 40.679893
-2.3327191 7.8498526 5.8257785 0 0 0 0 40.684837
-2.6518722 7.6265845 5.7308326 0 0 0 0 40.689781
-1.679112 7.4127002 5.4400887 0 0 0 0 40.423363
-2.1750715 7.9447274 5.872303 0 0 0 0 40.428307
-2.4862738 7.7255435 5.7823462 0 0 0 0 40.433258
-2.6176209 7.0011067 5.3232627 0 0 0 0 40.438202
-2.009536 8.0543394 5.9313087 0 0 0 0 40.443146
-2.3337362 7.834105 5.8273559 0 0 0 0 40.448097
-2.412497 6.9518881 5.252233 0 0 0 0 40.453041
-2.7895393 6.9644127 5.360333 0 0 0 0 40.457993
-2.1722553 7.9577022 5.885365 0 0 0 0 40.462936
-2.4833317 7.7055154 5.7714043 0 0 0 0 40.46788
-2.6632562 7.1428657 5.4493604 0 0 0 0 40.472832
-3.0754185 7.1892405 5.6054749 0 0 0 0 40.477776
-2.3279238 7.8480892 5.831418 0 0 0 0 40.482727
-2.6390111 7.6008945 5.7374592 0 0 0 0 40.487671
-2.7816944 6.9753919 5.3773966 0 0 0 0 40.492622
-3.1938012 7.007761 5.5385098 0 0 0 0 40.497566
-2.4876668 7.7594538 5.7954764 0 0 0 0 40.50251
-2.582618 6.9371605 5.2793698 0 0 0 0 40.507462
-3.0595434 7.1902485 5.6045361 0 0 0 0 40.512405
-3.3223269 6.8662329 5.5045538 0 0 0 0 40.517357
-2.6403327 7.6508431 5.7475309 0 0 0 0 40.522301
-2.7687571 6.9594002 5.3424544 0 0 0 0 40.527245
-3.2031839 7.0786605 5.5825891 0 0 0 0 40.532196
-3.1275244 6.0980444 4.9634151 0 0 0 0 40.53714
-2.560694 6.9242101 5.235425 0 0 0 0 40.542091
-3.0708544 7.2391496 5.6086116 0 0 0 0 40.547035
-3.3286912 6.9321432 5.5336318 0 0 0 0 40.551979
-3.2652557 6.0154705 4.9744716 0 0 0 0 40.556931
-2.7316937 6.9085112 5.2615004 0 0 0 0 40.561874
-3.2013757 7.0956149 5.5536561 0 0 0 0 40.566826
-3.1298273 6.1509776 4.9764895 0 0 0 0 40.57177
-3.6697352 6.4027829 5.3806744 0 0 0 0 40.576721
-3.0842927 7.3200417 5.6156926 0 0 0 0 40.581665
-3.3319497 6.9670749 5.510704 0 0 0 0 40.586609
-3.2555115 6.0554514 4.9665418 0 0 0 0 40.59156
-3.7802227 6.2553134 5.3457155 0 0 0 0 40.596504
-3.2188671 7.1904879 5.5617409 0 0 0 0 40.601456
-3.1481986 6.2198491 4.9765711 0 0 0 0 40.6064
-3.6701069 6.4707141 5.3817525 0 0 0 0 40.611343
-3.8806727 6.0988812 5.3057532 0 0 0 0 40.616295
-3.3595014 7.0779042 5.5227952 0 0 0 0 40.621239
-3.2597864 6.098381 4.9366155 0 0 0 0 40.62619
-3.7906618 6.3412008 5.3537998 0 0 0 0 40.631134
-4.0012612 5.9803619 5.2978024 0 0 0 0 40.636086
-3.4961252 6.9633327 5.4838481 0 0 0 0 40.641029
-3.4297652 6.0816631 4.9856939 0 0 0 0 40.645973
-3.9122434 6.2196794 5.333849 0 0 0 0 40.650925
-4.0936961 5.8219562 5.2578387 0 0 0 0 40.655869
-3.2933331 6.2111883 4.9417086 0 0 0 0 40.66082
-3.8271711 6.4429855 5.350893 0 0 0 0 40.665764
-4.0147238 6.0722342 5.2918892 0 0 0 0 40.670708
-4.1841531 5.6705551 5.2228761 0 0 0 0 40.675659
-3.4351299 6.145587 4.9407721 0 0 0 0 40.680603
-3.9457309 6.315475 5.3169413 0 0 0 0 40.685555
-4.1212416 5.9357686 5.2629337 0 0 0 0 40.690498
-4.2716031 5.5181642 5.1879134 0 0 0 0 40.695442
-3.8768358 6.582716 5.3529968 0 0 0 0 40.700394
-4.0542407 6.176003 5.2769852 0 0 0 0 40.705338
-4.2147064 5.7863541 5.2219725 0 0 0 0 40.710289
-4.3560519 5.3667817 5.15695 0 0 0 0 40.715233
-4.0034227 6.4621701 5.3190489 0 0 0 0 40.720184
-4.1708007 6.0504937 5.2500343 0 0 0 0 40.725128
-4.3051715 5.6379485 5.1840115 0 0 0 0 40.730072
-4.4415317 5.2243924 5.131989 0 0 0 0 40.735023
-4.1189489 6.3266668 5.2750955 0 0 0 0 40.739967
-4.2823453 5.9220018 5.2210822 0 0 0 0 40.744919
-4.4026737 5.5005107 5.1580544 0 0 0 0 40.749863
-4.509943 5.0650721 5.092021 0 0 0 0 40.754807
-4.243536 6.2081213 5.2471485 0 0 0 0 40.759758
-4.3818326 5.7795568 5.1831245 0 0 0 0 40.764702
-4.4931655 5.3610988 5.1280951 0 0 0 0 40.769653
-4.4167085 4.7364326 4.8789825 0 0 0 0 40.774597
-4.3620968 6.0835977 5.2161989 0 0 0 0 40.779541
-4.4853549 5.6470919 5.15417 0 0 0 0 40.784492
-4.5585461 5.1937909 5.0761261 0 0 0 0 40.789436
-4.4811649 4.5911255 4.8480163 0 0 0 0 40.794388
-4.4836693 5.963058 5.1922517 0 0 0 0 40.799332
-4.5768275 5.5026746 5.1162119 0 0 0 0 40.804283
-4.477345 4.875103 4.8700919 0 0 0 0 40.809227
-4.5576701 4.459765 4.8350558 0 0 0 0 40.814171
-4.5851498 5.8195996 5.1482959 0 0 0 0 40.819122
-4.5367255 5.2098141 4.9411931 0 0 0 0 40.824066
-4.5558391 4.7397351 4.8451314 0 0 0 0 40.829018
-4.6181307 4.3174701 4.8080897 0 0 0 0 40.833961
-4.6856298 5.6771426 5.1093407 0 0 0 0 40.838905
-4.5740056 5.0176229 4.8562121 0 0 0 0 40.843857
-4.6323338 4.6053734 4.8221712 0 0 0 0 40.848801
-4.6685686 4.1702151 4.7761207 0 0 0 0 40.853752
-4.6123471 5.3384242 4.8913054 0 0 0 0 40.858696
-4.6665339 4.8911934 4.8372579 0 0 0 0 40.863647
-4.7048211 4.4700255 4.7982097 0 0 0 0 40.868591
-4.7320514 4.0359025 4.7611575 0 0 0 0 40.873535
-4.6998224 5.1970177 4.851347 0 0 0 0 40.878487
-4.75104 4.7597952 4.8133006 0 0 0 0 40.88343
-4.7722926 4.331697 4.7742476 0 0 0 0 40.888382
-4.7805014 3.8936527 4.734189 0 0 0 0 40.893326
-4.7968082 5.0682297 4.8258891 0 0 0 0 40.654068
-4.8280621 4.6240954 4.7848334 0 0 0 0 40.659019
-4.8323603 4.1920676 4.7457728 0 0 0 0 40.663963
-4.8346486 3.7590463 4.716712 0 0 0 0 40.668907
-4.8903308 4.9358063 4.7989316 0 0 0 0 40.673859
-4.8995428 4.4827595 4.7558694 0 0 0 0 40.678802
-4.8898387 4.0517874 4.7188058 0 0 0 0 40.683754
-4.8771176 3.6178253 4.6907411 0 0 0 0 40.688698
-4.9748235 4.7964172 4.7669721 0 0 0 0 40.693642
-4.9680247 4.3424339 4.7259054 0 0 0 0 40.698593
-4.9583545 3.9224584 4.7058434 0 0 0 0 40.703537
-4.9236045 3.4825859 4.6727724 0 0 0 0 40.708488
-5.0522971 4.6530547 4.7330098 0 0 0 0 40.713432
-5.0365062 4.2031059 4.6999416 0 0 0 0 40.718376
-5.0028076 3.7772279 4.6738729 0 0 0 0 40.723328
-4.9580622 3.3403947 4.6467996 0 0 0 0 40.728271
-5.1347933 4.5166678 4.7070503 0 0 0 0 40.733223
-5.0999804 4.0627961 4.672977 0 0 0 0 40.738167
-5.0552831 3.6389623 4.6509061 0 0 0 0 40.743118
-5.0216012 3.2210805 4.6508389 0 0 0 0 40.748062
-5.2132697 4.376296 4.6810904 0 0 0 0 40.753006
-5.1604509 3.9224968 4.6470118 0 0 0 0 40.757957
-5.1107736 3.505682 4.6349406 0 0 0 0 40.762901
-5.041038 3.0749495 4.6168618 0 0 0 0 40.767853
-5.2767124 4.2279844 4.6451244 0 0 0 0 40.772797
-5.2259359 3.7871745 4.6290493 0 0 0 0 40.77774
-5.1452193 3.3614879 4.6049681 0 0 0 0 40.782692
-5.0675006 2.9367878 4.5928884 0 0 0 0 40.787636
-5.3431587 4.0816584 4.6141605 0 0 0 0 40.792587
-5.2783914 3.6449049 4.6020823 0 0 0 0 40.797531
-5.196702 3.2282209 4.5910025 0 0 0 0 40.802475
-5.1019864 2.8055909 4.5789185 0 0 0 0 40.807426
-5.4056053 3.9363458 4.585196 0 0 0 0 40.81237
-5.3288388 3.5016418 4.5771151 0 0 0 0 40.817322
-5.2331595 3.0890157 4.5670319 0 0 0 0 40.822266
-5.1274529 2.6704307 4.5609455 0 0 0 0 40.827217
-5.4640403 3.7890484 4.5552301 0 0 0 0 40.832161
-5.3772902 3.3603852 4.5531473 0 0 0 0 40.837105
-5.271625 2.9528005 4.5480628 0 0 0 0 40.842056
-5.1429105 2.5333121 4.5349693 0 0 0 0 40.847
-5.5324965 3.6487069 4.5362687 0 0 0 0 40.851952
-5.425746 3.2211268 4.5321808 0 0 0 0 40.856895
-5.3010798 2.8146219 4.5250912 0 0 0 0 40.861839
-5.180407 2.4080989 4.532002 0 0 0 0 40.866791
-5.5839195 3.5004351 4.5073018 0 0 0 0 40.871735
-5.4721932 3.0808749 4.5142136 0 0 0 0 40.876686
-5.3395486 2.6814034 4.5131226 0 0 0 0 40.88163
-5.2008839 2.277957 4.5160289 0 0 0 0 40.886581
-5.6373463 3.3541529 4.483336 0 0 0 0 40.891525
-5.5106301 2.9386561 4.4912443 0 0 0 0 40.896469
-5.364996 2.5432394 4.4911504 0 0 0 0 40.901421
-5.2173529 2.1468308 4.5010552 0 0 0 0 40.906364
-5.6937795 3.210856 4.4643722 0 0 0 0 40.911316
-5.5580812 2.8013971 4.4772787 0 0 0 0 40.91626
-5.3914552 2.40907 4.4741788 0 0 0 0 40.921204
-5.237834 2.0196869 4.4900832 0 0 0 0 40.926155
-5.7391901 3.0626044 4.4404044 0 0 0 0 40.931099
-5.5814962 2.6552393 4.4483047 0 0 0 0 40.93605
-5.4209142 2.2758865 4.4612083 0 0 0 0 40.940994
-5.2513127 1.8925722 4.4771094 0 0 0 0 40.945938
-5.7765861 2.9113855 4.4124341 0 0 0 0 40.95089
-5.6269431 2.5189855 4.4393392 0 0 0 0 40.955833
-5.4373593 2.1397579 4.4412346 0 0 0 0 40.960785
-5.2667866 1.7654481 4.4671359 0 0 0 0 40.965729
-5.8240037 2.7671218 4.3954678 0 0 0 0 40.97068
-5.6513653 2.376821 4.417366 0 0 0 0 40.975624
-5.4608116 2.0065985 4.4282627 0 0 0 0 40.980568
-5.28127 1.6413274 4.4591632 0 0 0 0 40.985519
-5.8563914 2.6159215 4.3694968 0 0 0 0 40.990463
-5.6627655 2.2297118 4.3873897 0 0 0 0 40.995415
-5.4812684 1.8754505 4.4162908 0 0 0 0 41.000359
-5.2747254 1.5102973 4.4361835 0 0 0 0 41.005302
-5.8867831 2.4667284 4.3465257 0 0 0 0 41.010254
-5.690187 2.0895321 4.3724189 0 0 0 0 41.015198
-5.4977179 1.7433193 4.4033179 0 0 0 0 41.020149
-5.28721 1.3881844 4.4302101 0 0 0 0 41.025093
-5.990272 2.345217 4.3785801 0 0 0 0 41.030045
-5.7116098 1.9503776 4.3554463 0 0 0 0 41.034988
-5.5071611 1.6102177 4.3873429 0 0 0 0 41.039932
-5.2956915 1.2660879 4.4242363 0 0 0 0 41.044884
-6.0506945 2.2068899 4.3816199 0 0 0 0 41.049828
-5.7400346 1.8131913 4.347477 0 0 0 0 41.054779
-5.5206113 1.4800978 4.3773694 0 0 0 0 41.059723
-5.2881608 1.1410612 4.4062576 0 0 0 0 41.064667
-5.9779468 2.0231414 4.2926135 0 0 0 0 41.069618
-5.7654562 1.676017 4.3395066 0 0 0 0 41.074562
-5.5310545 1.3489904 4.3673954 0 0 0 0 41.079514
-5.2856379 1.0190122 4.3952804 0 0 0 0 41.084457
-6.0133362 1.8779215 4.2836452 0 0 0 0 41.089401
-5.7758646 1.5359077 4.3215313 0 0 0 0 41.094353
-5.5274925 1.2169439 4.3484168 0 0 0 0 41.099297
-5.2891135 0.8979367 4.3903055 0 0 0 0 41.104248
-6.0357108 1.7297572 4.267673 0 0 0 0 41.109192
-5.7892718 1.3967841 4.3105569 0 0 0 0 41.114143
-5.5369411 1.08884 4.3404431 0 0 0 0 41.119087
-5.2855921 0.7778914 4.3833289 0 0 0 0 41.124031
-6.0510888 1.5814594 4.2501678 0 0 0 0 40.893364
-5.7927384 1.2585012 4.2920542 0 0 0 0 40.898308
-5.7035732 0.98882401 4.4589968 0 0 0 0 40.903252
-5.2822256 0.65956402 4.3768363 0 0 0 0 40.908203
-6.0744843 1.4352924 4.2411957 0 0 0 0 40.913147
-5.7981596 1.1194125 4.2790775 0 0 0 0 40.918098
-5.7400355 0.86260271 4.4770312 0 0 0 0 40.923042
-6.0878696 1.2871671 4.2272201 0 0 0 0 40.932938
-5.8095884 0.983298 4.2721028 0 0 0 0 40.937881
-5.7404728 0.72953463 4.4700532 0 0 0 0 40.942833
-0.60671592 0.05055986 0.51549488 0 0 0 0 40.947777
-6.0842419 1.1361139 4.2042394 0 0 0 0 40.952728
-5.9960799 0.87143081 4.3961825 0 0 0 0 40.957672
-0.56364626 0.034744319 0.48051423 0 0 0 0 40.967567
-6.088624 0.98902577 4.1902618 0 0 0 0 40.972511
-6.0234923 0.73424363 4.4062133 0 0 0 0 40.977463
-0.57969964 0.048679397 0.46354666 0 0 0 0 40.982407
-0.55158132 0.021795772 0.47054276 0 0 0 0 40.98735
-6.1420169 0.84772593 4.2122989 0 0 0 0 40.992302
-6.02389 0.59317207 4.3982358 0 0 0 0 40.997246
-0.56363136 0.034747902 0.45157394 0 0 0 0 41.002197
-0.55351651 0.0097865202 0.47357553 0 0 0 0 41.007141
-6.3204384 0.71988428 4.3213758 0 0 0 0 41.012093
-0.55756468 0.021773504 0.44660419 0 0 0 0 41.02198
-0.53446096 -0.0011312629 0.45860231 0 0 0 0 41.026932
-0.56359941 0.030751325 0.42363301 0 0 0 0 41.036827
-0.56449872 0.0097424919 0.45263845 0 0 0 0 41.041771
-0.53439611 -0.013131557 0.45963445 0 0 0 0 41.046715
-0.57363337 0.039711595 0.40366298 0 0 0 0 41.051666
-0.53644097 -0.0021356978 0.43066236 0 0 0 0 41.061562
-0.53633034 -0.02514066 0.4626672 0 0 0 0 41.066505
-0.56156325 0.025763234 0.39569131 0 0 0 0 41.071449
-0.53346878 0.0048812521 0.40268818 0 0 0 0 41.076401
-0.53437614 -0.014127351 0.43069392 0 0 0 0 41.081345
-0.5474934 0.011824024 0.38571903 0 0 0 0 41.09124
-0.52540588 -0.0070837997 0.39671791 0 0 0 0 41.096191
-0.53919822 -0.049154576 0.4677324 0 0 0 0 41.106079
-0.5494284 -0.0001850086 0.38675177 0 0 0 0 41.111031
-0.53624052 -0.039136656 0.43375868 0 0 0 0 41.120926
-0.53326899 -0.0321193 0.40378445 0 0 0 0 41.135765
-0.53706563 -0.073146671 0.46979618 0 0 0 0 41.14566
-0.54428571 -0.027163845 0.38481414 0 0 0 0 41.150604
-0.54210192 -0.06416408 0.4418247 0 0 0 0 41.1605
-0.55398524 -0.087222785 0.48683321 0 0 0 0 41.165443
-0.53912652 -0.058146544 0.41085029 0 0 0 0 41.175339
-0.57489443 -0.10331724 0.50787127 0 0 0 0 41.185234
-0.54614437 -0.053173501 0.38787881 0 0 0 0 41.190178
-0.54695761 -0.090187445 0.44989032 0 0 0 0 41.200073
-0.59279978 -0.12039872 0.52590835 0 0 0 0 41.205025
-0.55806208 -0.068227276 0.39691427 0 0 0 0 41.209969
-0.55497128 -0.086218767 0.42591903 0 0 0 0 41.214912
-0.60970461 -0.1374763 0.54394513 0 0 0 0 41.224808
-0.62672269 -0.13254729 0.51797694 0 0 0 0 41.239655
-5.1254768 -1.2878138 4.4862189 0 0 0 0 41.244598
-0.57589251 -0.099309191 0.4129833 0 0 0 0 41.249542
-0.64372182 -0.13161935 0.4970082 0 0 0 0 41.254494
-0.64661312 -0.15263908 0.53801441 0 0 0 0 41.259438
-5.0849676 -1.3956952 4.4812331 0 0 0 0 41.264389
-0.66760737 -0.15272923 0.5180468 0 0 0 0 41.274277
-5.3948879 -1.4130864 4.4073615 0 0 0 0 41.279228
-5.0554423 -1.5056258 4.4892502 0 0 0 0 41.284172
-6.0281687 -1.3588706 4.2305942 0 0 0 0 41.289124
-5.6907039 -1.4544214 4.3304825 0 0 0 0 41.294067
-5.3473406 -1.5289394 4.4013724 0 0 0 0 41.299011
-5.01793 -1.6125196 4.4912653 0 0 0 0 41.303963
-5.9884958 -1.5027674 4.2306046 0 0 0 0 41.308907
-5.6460962 -1.5832913 4.3274932 0 0 0 0 41.313858
-5.3097734 -1.6478366 4.404386 0 0 0 0 41.318802
-4.9684353 -1.7153583 4.4852767 0 0 0 0 41.323753
-5.9608064 -1.6487179 4.2426186 0 0 0 0 41.328697
-5.6034751 -1.7141696 4.329504 0 0 0 0 41.333641
-5.2632184 -1.7636923 4.4023972 0 0 0 0 41.338593
-4.9279213 -1.8212366 4.4882908 0 0 0 0 41.343536
-5.9031463 -1.7885323 4.2366233 0 0 0 0 41.348488
-5.5548692 -1.8410199 4.3285131 0 0 0 0 41.353432
-5.2236438 -1.8825791 4.40941 0 0 0 0 41.358376
-4.8913984 -1.9281328 4.4973059 0 0 0 0 41.363327
-5.8567548 -1.9319251 4.2423177 0 0 0 0 42.104485
-5.5094976 -1.973245 4.3371835 0 0 0 0 42.109436
-5.1733222 -1.9996141 4.4110556 0 0 0 0 42.11438
-4.8431058 -2.0330126 4.499929 0 0 0 0 42.119324
-5.8129997 -2.07478 4.2503247 0 0 0 0 42.124275
-5.4598227 -2.100065 4.3401899 0 0 0 0 42.129219
-5.1247053 -2.114435 4.4150639 0 0 0 0 42.134171
-4.7925587 -2.1338186 4.4989376 0 0 0 0 42.139114
-5.752274 -2.2115483 4.2503262 0 0 0 0 42.144058
-5.4041548 -2.2248538 4.3411946 0 0 0 0 42.14901
-5.0780845 -2.2292645 4.4210725 0 0 0 0 42.153954
-4.7440028 -2.2356339 4.5029464 0 0 0 0 42.158905
-5.6935444 -2.3483255 4.2523279 0 0 0 0 42.163849
-5.3524766 -2.3506618 4.3482003 0 0 0 0 42.1688
-5.0384369 -2.348129 4.4360833 0 0 0 0 42.173744
-4.6994371 -2.3384678 4.5099568 0 0 0 0 42.178688
-5.6358042 -2.4861066 4.2593298 0 0 0 0 42.18364
-5.2948065 -2.4744382 4.3522034 0 0 0 0 42.188583
-4.9848199 -2.4609213 4.4420891 0 0 0 0 42.193535
-4.6548629 -2.4423015 4.5209675 0 0 0 0 42.198479
-5.5710812 -2.6198511 4.26333 0 0 0 0 42.203423
-5.2321434 -2.5961881 4.3552051 0 0 0 0 42.208374
-4.9152508 -2.5646307 4.4340897 0 0 0 0 42.213318
-4.6013136 -2.5410879 4.5249748 0 0 0 0 42.218269
-5.4993711 -2.7505584 4.2643266 0 0 0 0 42.223213
-5.1724753 -2.7179518 4.3622074 0 0 0 0 42.228157
-4.8576384 -2.6754003 4.440094 0 0 0 0 42.233109
-4.5537438 -2.642904 4.5359836 0 0 0 0 42.238052
-5.4386225 -2.8873208 4.2773271 0 0 0 0 42.243004
-5.1078153 -2.8376887 4.3682079 0 0 0 0 42.247948
-4.7980323 -2.7841585 4.4470978 0 0 0 0 42.252899
-4.4942055 -2.7386572 4.5369883 0 0 0 0 42.257843
-5.362915 -3.0160048 4.2803221 0 0 0 0 42.262787
-5.0341735 -2.9533784 4.3702049 0 0 0 0 42.267738
-4.7364244 -2.8929048 4.4531002 0 0 0 0 42.272682
-4.4336696 -2.8334043 4.5399928 0 0 0 0 42.277634
-5.2842088 -3.1436718 4.2843165 0 0 0 0 42.282578
-4.8010893 -2.9692404 4.2311492 0 0 0 0 42.287521
-4.5044384 -2.8907652 4.299046 0 0 0 0 42.292473
-4.2047715 -2.8152735 4.3689418 0 0 0 0 42.297417
-5.0291271 -3.1584241 4.1462517 0 0 0 0 42.302368
-4.7254782 -3.0779142 4.2341456 0 0 0 0 42.307312
-4.4438505 -2.9945118 4.3080497 0 0 0 0 42.312263
-4.1522336 -2.9090569 4.3799486 0 0 0 0 42.317207
-4.9604063 -3.2871373 4.1622486 0 0 0 0 42.322151
-4.6598349 -3.1916382 4.2461452 0 0 0 0 42.327103
-4.3902249 -3.1042938 4.327054 0 0 0 0 42.332047
-4.1056538 -3.0098705 4.3999572 0 0 0 0 42.336998
-4.8777413 -3.4047761 4.168241 0 0 0 0 42.341942
-4.5991545 -3.3113866 4.2671461 0 0 0 0 42.346886
-4.3186688 -3.2009807 4.3310533 0 0 0 0 42.351837
-4.0371623 -3.0945683 4.3989582 0 0 0 0 42.356781
-4.8020334 -3.5294499 4.1852355 0 0 0 0 42.361732
-4.522543 -3.4180505 4.2741423 0 0 0 0 42.366676
-4.2520881 -3.301692 4.3410535 0 0 0 0 42.37162
-3.986599 -3.1913586 4.4169655 0 0 0 0 42.376572
-4.7183609 -3.6470802 4.1952271 0 0 0 0 42.381516
-4.4379506 -3.5206711 4.2781348 0 0 0 0 42.386467
-4.1874971 -3.4034126 4.3550544 0 0 0 0 42.391411
-3.9220781 -3.2800746 4.4249673 0 0 0 0 42.396362
-4.6287122 -3.7596774 4.203217 0 0 0 0 42.401306
-4.369287 -3.6353734 4.2981324 0 0 0 0 42.40625
-4.110949 -3.4970684 4.3600507 0 0 0 0 42.411201
-3.8545773 -3.364773 4.4289684 0 0 0 0 42.416145
-4.5569587 -3.8903673 4.2322111 0 0 0 0 42.421097
-4.2856874 -3.7379954 4.3061252 0 0 0 0 42.426041
-4.0393744 -3.5947492 4.3720484 0 0 0 0 42.430984
-3.7930336 -3.456502 4.4439712 0 0 0 0 42.435936
-4.4583406 -3.9959133 4.2381973 0 0 0 0 42.44088
-4.2020783 -3.8416159 4.3181171 0 0 0 0 42.445831
-3.9697802 -3.6954389 4.3880467 0 0 0 0 42.450775
-3.7245214 -3.5421927 4.4519711 0 0 0 0 42.455719
-4.2632141 -4.0129457 4.1541529 0 0 0 0 42.46067
-4.1194544 -3.9472399 4.3341093 0 0 0 0 42.465614
-3.8942099 -3.7910955 4.4020429 0 0 0 0 42.470566
-3.6540179 -3.6258709 4.4589701 0 0 0 0 42.47551
-3.9468105 -3.9003272 3.9460719 0 0 0 0 42.480461
-3.8618166 -3.8769283 4.1650486 0 0 0 0 42.485405
-3.7738929 -3.841511 4.366025 0 0 0 0 42.490349
-3.5864882 -3.7135637 4.4729705 0 0 0 0 42.4953
-3.6673033 -3.8058965 3.7690036 0 0 0 0 42.500244
-3.5883591 -3.7745242 3.9699833 0 0 0 0 42.505196
-3.5382793 -3.7673049 4.1949725 0 0 0 0 42.510139
-3.5249217 -3.807287 4.4949718 0 0 0 0 42.515083
-3.4157383 -3.7216065 3.610945 0 0 0 0 42.520035
-3.4422083 -3.7947958 3.9119573 0 0 0 0 42.524979
-3.5034847 -3.9011726 4.2579803 0 0 0 0 42.52993
-3.4514096 -3.890945 4.505969 0 0 0 0 42.534874
-3.3739245 -3.8594358 3.6729488 0 0 0 0 42.539825
-3.4133337 -3.9426947 3.9879656 0 0 0 0 42.544769
-3.4726291 -4.0450616 4.3329883 0 0 0 0 42.549713
-3.3749113 -3.9715853 4.515965 0 0 0 0 42.554665
-3.3390222 -4.0123024 3.7489536 0 0 0 0 42.559608
-3.3804328 -4.0945721 4.0669713 0 0 0 0 42.56456
-3.4576273 -4.2140365 4.4330006 0 0 0 0 42.569504
-3.3003938 -4.055234 4.5289612 0 0 0 0 42.574448
-3.3051832 -4.1706514 3.8303514 0 0 0 0 42.286156
-3.3605332 -4.2679882 4.1663713 0 0 0 0 42.2911
-3.3930969 -4.3252058 4.4733877 0 0 0 0 42.296043
-3.2259951 -4.1373782 4.5433536 0 0 0 0 42.300995
-3.2702119 -4.3405252 3.9203539 0 0 0 0 42.305939
-3.3226168 -4.4268465 4.2523746 0 0 0 0 42.31089
-3.3045683 -4.412797 4.4893789 0 0 0 0 42.315834
-3.1455104 -4.2170072 4.5553493 0 0 0 0 42.320786
-3.2431369 -4.52844 4.0283575 0 0 0 0 42.325729
-3.2905872 -4.6057363 4.3553772 0 0 0 0 42.330673
-3.2200031 -4.5064077 4.5133715 0 0 0 0 42.335625
-3.0689955 -4.3016553 4.5743456 0 0 0 0 42.340569
-3.2040784 -4.7122927 4.1323566 0 0 0 0 42.34552
-3.2545471 -4.7856045 4.4593782 0 0 0 0 42.350464
-3.1274846 -4.5909743 4.5303607 0 0 0 0 42.355408
-2.9865162 -4.3792701 4.5873404 0 0 0 0 42.360359
-3.1599991 -4.8991199 4.2383528 0 0 0 0 42.365303
-3.1668756 -4.8971996 4.5013661 0 0 0 0 42.370255
-3.0310018 -4.6685176 4.5423498 0 0 0 0 42.375198
-2.8990622 -4.4518566 4.596333 0 0 0 0 42.380142
-3.1317117 -5.1230307 4.3763509 0 0 0 0 42.385094
-3.0553823 -4.975666 4.5153484 0 0 0 0 42.390038
-2.9364879 -4.7510695 4.5613384 0 0 0 0 42.394989
-2.8155727 -4.5304627 4.6123266 0 0 0 0 42.399933
-3.0656757 -5.2997413 4.4753389 0 0 0 0 42.404884
-2.9488475 -5.0611563 4.5373311 0 0 0 0 42.409828
-2.8370049 -4.8275928 4.5763249 0 0 0 0 42.414772
-2.7281024 -4.6050453 4.6263185 0 0 0 0 42.419724
-2.9510539 -5.4001913 4.5093164 0 0 0 0 42.424667
-2.8393095 -5.1466284 4.5613127 0 0 0 0 42.429619
-2.7394907 -4.9091249 4.5983119 0 0 0 0 42.434563
-2.6406238 -4.6806264 4.6433105 0 0 0 0 42.439507
-2.8235538 -5.4775696 4.5292907 0 0 0 0 42.444458
-2.7238348 -5.2200661 4.5762925 0 0 0 0 42.449402
-2.6389964 -4.9866381 4.6172976 0 0 0 0 42.454353
-2.5501487 -4.7551894 4.6593003 0 0 0 0 42.459297
-2.694062 -5.5529337 4.5492644 0 0 0 0 42.464241
-2.6122961 -5.304523 4.6042728 0 0 0 0 42.469193
-2.5365052 -5.063139 4.6362824 0 0 0 0 42.474136
-2.4567153 -4.8217344 4.67029 0 0 0 0 42.479088
-2.568506 -5.639317 4.5812378 0 0 0 0 42.484032
-2.4958091 -5.3789501 4.6262512 0 0 0 0 42.488983
-2.4290607 -5.1306105 4.6512656 0 0 0 0 42.493927
-2.36919 -4.9043097 4.6972795 0 0 0 0 42.498871
-2.4370182 -5.7126656 4.6062098 0 0 0 0 42.503822
-2.3773365 -5.4503641 4.6472287 0 0 0 0 42.508766
-2.3265407 -5.2111073 4.6792488 0 0 0 0 42.513718
-2.2717516 -4.9708295 4.7112665 0 0 0 0 42.518661
-2.3094668 -5.7970324 4.6411815 0 0 0 0 42.523605
-2.2608104 -5.530786 4.678206 0 0 0 0 42.528557
-2.217097 -5.2775631 4.6952305 0 0 0 0 42.533501
-2.1772773 -5.0433626 4.7312541 0 0 0 0 42.538452
-2.1542797 -5.8152442 4.6261492 0 0 0 0 42.543396
-2.1383488 -5.5991735 4.700181 0 0 0 0 42.548347
-2.1105931 -5.3540335 4.7242117 0 0 0 0 42.553291
-2.0788231 -5.1118727 4.7492399 0 0 0 0 42.558235
-1.9765087 -5.7583256 4.5561166 0 0 0 0 42.563187
-2.01685 -5.6735635 4.7311559 0 0 0 0 42.56813
-1.9951775 -5.4144526 4.7391906 0 0 0 0 42.573082
-1.9813315 -5.1863861 4.7762251 0 0 0 0 42.578026
-1.7978551 -5.6803956 4.4740858 0 0 0 0 42.58297
-1.882562 -5.7098789 4.7321296 0 0 0 0 42.587921
-1.8866636 -5.4919071 4.7711701 0 0 0 0 42.592865
-1.8789005 -5.2498698 4.7922087 0 0 0 0 42.597816
-1.6310904 -5.6225262 4.4100566 0 0 0 0 42.60276
-1.714885 -5.6370025 4.6471019 0 0 0 0 42.607704
-1.7741802 -5.5633378 4.800148 0 0 0 0 42.612656
-1.7764385 -5.3183517 4.8151917 0 0 0 0 42.617599
-1.4703197 -5.5656848 4.3510294 0 0 0 0 42.622551
-1.5580957 -5.5841818 4.5820761 0 0 0 0 42.627495
-1.6538125 -5.6137209 4.8141255 0 0 0 0 42.632446
-1.6729683 -5.387826 4.8401737 0 0 0 0 42.63739
-1.3125782 -5.5038552 4.2900038 0 0 0 0 42.642334
-1.4063178 -5.5293837 4.5180526 0 0 0 0 42.647285
-1.5059879 -5.567944 4.7471018 0 0 0 0 42.652229
-1.5655466 -5.4482756 4.8591542 0 0 0 0 42.657181
-1.1627628 -5.4550657 4.243979 0 0 0 0 42.662125
