# .PCD v0.7 - Point Cloud Data file format
VERSION 0.7
FIELDS x y z normal_x normal_y normal_z intensity curvature
SIZE 4 4 4 4 4 4 4 4
TYPE F F F F F F F F
COUNT 1 1 1 1 1 1 1 1
WIDTH 973
HEIGHT 1
VIEWPOINT 0 0 0 1 0 0 0
POINTS 973
DATA ascii
4.4645905 5.50738 6.3232498 0 0 0 0 86.370026
4.6751103 5.934113 6.3353224 0 0 0 0 86.374969
4.9287267 6.4588017 6.4476151 0 0 0 0 86.379913
5.1441731 6.9664011 6.4976449 0 0 0 0 86.384865
4.3233681 5.5595984 6.280086 0 0 0 0 86.389809
4.5859461 6.0828233 6.3931994 0 0 0 0 86.39476
4.7656679 6.5411887 6.4359088 0 0 0 0 86.399704
4.9316568 7.0142679 6.454895 0 0 0 0 86.404648
4.1928539 5.6202884 6.2497187 0 0 0 0 86.409599
4.440465 6.1583042 6.377141 0 0 0 0 86.414543
4.5881624 6.6022892 6.4074759 0 0 0 0 86.419495
4.7262511 7.06178 6.4180074 0 0 0 0 86.424438
4.0636334 5.6839237 6.2263308 0 0 0 0 86.42939
4.2758808 6.203722 6.3344417 0 0 0 0 86.434334
4.4035025 6.6457362 6.3671751 0 0 0 0 86.439278
4.5208035 7.1073003 6.3841233 0 0 0 0 86.444229
3.9409647 5.7542391 6.2128205 0 0 0 0 86.449173
4.0627928 6.1715088 6.2196498 0 0 0 0 86.454124
4.2298675 6.7026482 6.342669 0 0 0 0 86.459068
4.3148856 7.1448407 6.3472462 0 0 0 0 86.464012
3.8094547 5.812995 6.1874785 0 0 0 0 86.468964
3.9032574 6.2146802 6.184855 0 0 0 0 86.473907
4.0483141 6.7449512 6.3103132 0 0 0 0 86.478859
4.1040115 7.1666203 6.3034601 0 0 0 0 86.483803
3.6790957 5.8726993 6.1671181 0 0 0 0 86.488747
3.7535865 6.269371 6.1628752 0 0 0 0 86.493698
3.8069453 6.6751509 6.1800647 0 0 0 0 86.498642
3.9039996 7.1998696 6.27247 0 0 0 0 86.503593
3.5450888 5.9225812 6.1398239 0 0 0 0 86.508537
3.5960076 6.3104525 6.1310458 0 0 0 0 86.513489
3.6241617 6.6975012 6.1377244 0 0 0 0 86.518433
3.6852193 7.1910248 6.2128253 0 0 0 0 86.523376
3.4109805 5.9704704 6.1125331 0 0 0 0 86.528328
3.4449494 6.3572164 6.1100941 0 0 0 0 86.533272
3.4468794 6.7255869 6.1052828 0 0 0 0 86.538223
3.4397466 7.1134496 6.0976644 0 0 0 0 86.543167
3.2838538 6.0310287 6.1011162 0 0 0 0 86.548111
3.2891521 6.3932118 6.0802307 0 0 0 0 86.553062
3.2758825 6.7563615 6.079721 0 0 0 0 86.558006
3.2494655 7.1382127 6.0744848 0 0 0 0 86.562958
3.1497254 6.0769281 6.0778289 0 0 0 0 86.567902
3.1330264 6.4232221 6.0493722 0 0 0 0 86.572845
3.0979743 6.7734776 6.0442896 0 0 0 0 86.577797
3.0514624 7.1363387 6.0344434 0 0 0 0 86.582741
3.014425 6.1198893 6.0535655 0 0 0 0 86.587692
2.9815795 6.4620128 6.0294304 0 0 0 0 86.592636
2.9255164 6.7953291 6.0187569 0 0 0 0 86.597588
2.8509891 7.1265879 5.9914484 0 0 0 0 86.602531
2.8792062 6.1628523 6.0333028 0 0 0 0 86.607475
2.8277671 6.4949226 6.0065336 0 0 0 0 86.612427
2.7535644 6.8091483 5.9892106 0 0 0 0 86.617371
2.6614501 7.129303 5.9622483 0 0 0 0 86.622322
2.7391238 6.1930513 6.00313 0 0 0 0 86.627266
2.670933 6.5119691 5.9736876 0 0 0 0 86.63221
2.5791943 6.8160887 5.9567108 0 0 0 0 86.637161
2.47472 7.1278744 5.9339919 0 0 0 0 86.642105
2.5977829 6.2219577 5.9717989 0 0 0 0 86.406143
2.5156448 6.539578 5.9526291 0 0 0 0 86.411087
2.4101751 6.8313656 5.9349084 0 0 0 0 86.416039
2.2828162 7.1132588 5.8996148 0 0 0 0 86.420982
2.4621992 6.257915 5.9515333 0 0 0 0 86.425934
2.3656456 6.5672684 5.9336467 0 0 0 0 86.430878
2.2382677 6.8281384 5.9013424 0 0 0 0 86.435822
2.1009538 7.1075473 5.8752489 0 0 0 0 86.440773
2.3266051 6.2928777 5.9332695 0 0 0 0 86.445717
2.2094386 6.5762544 5.9027767 0 0 0 0 86.450668
2.0720341 6.833642 5.8786731 0 0 0 0 86.455612
1.9148989 7.0830293 5.8399558 0 0 0 0 86.460556
2.1856701 6.3080869 5.8990998 0 0 0 0 86.465508
2.0552166 6.5841432 5.8738689 0 0 0 0 86.470451
1.9031177 6.8282728 5.8500519 0 0 0 0 86.475403
1.7329674 7.0593085 5.8085837 0 0 0 0 86.480347
2.051533 6.3479953 5.8908162 0 0 0 0 86.485291
1.9023385 6.5959768 5.8519411 0 0 0 0 86.490242
1.7369902 6.8187613 5.8213749 0 0 0 0 86.495186
1.5555171 7.0413756 5.7861309 0 0 0 0 86.500137
1.9107702 6.3642101 5.862648 0 0 0 0 86.505081
1.7472758 6.5898995 5.8170452 0 0 0 0 86.510033
1.5718689 6.8082042 5.7956805 0 0 0 0 86.514977
1.3777747 7.0034323 5.7506714 0 0 0 0 86.51992
1.7721157 6.3813248 5.8374419 0 0 0 0 86.524872
1.5974928 6.6015873 5.8000607 0 0 0 0 86.529816
1.4078943 6.7845726 5.7609558 0 0 0 0 86.534767
1.2025677 6.9723778 5.7241693 0 0 0 0 86.539711
1.6351635 6.4073734 5.8242111 0 0 0 0 86.544655
1.4456874 6.5973592 5.7731066 0 0 0 0 86.549606
1.2444072 6.7669339 5.7352295 0 0 0 0 86.55455
1.0311469 6.937129 5.6975918 0 0 0 0 86.559502
1.4964151 6.4215002 5.8020091 0 0 0 0 86.564445
1.2944907 6.5870962 5.7421384 0 0 0 0 86.569397
1.086023 6.7500405 5.7124038 0 0 0 0 86.574341
0.85989791 6.8738327 5.6519928 0 0 0 0 86.579285
1.3547685 6.4217596 5.7708569 0 0 0 0 86.584236
1.1459939 6.5857162 5.7231264 0 0 0 0 86.58918
0.92493868 6.7072501 5.6716151 0 0 0 0 86.594131
0.69815683 6.8911877 5.6732688 0 0 0 0 86.599075
1.2140881 6.4209728 5.7406869 0 0 0 0 86.604019
0.99370736 6.5574932 5.6841717 0 0 0 0 86.608971
0.77474552 6.7350245 5.6926675 0 0 0 0 86.613914
0.54767388 7.0582194 5.8204398 0 0 0 0 86.618866
1.0724173 6.4192433 5.7135386 0 0 0 0 86.62381
0.85022962 6.5839148 5.6940861 0 0 0 0 86.628754
0.63505018 6.9155197 5.8436313 0 0 0 0 86.633705
0.37995702 6.9997721 5.7887821 0 0 0 0 86.638649
0.93622398 6.4382725 5.7063003 0 0 0 0 86.6436
0.72419035 6.7907467 5.8587966 0 0 0 0 86.648544
0.47714213 6.8725867 5.8117881 0 0 0 0 86.653496
0.21587777 6.9501581 5.7660623 0 0 0 0 86.65844
0.82340026 6.6644516 5.8807597 0 0 0 0 86.663383
0.57226121 6.7655301 5.829845 0 0 0 0 86.668335
0.31888199 6.8236685 5.7779493 0 0 0 0 86.673279
0.05390846 6.8864188 5.735292 0 0 0 0 86.67823
0.67978585 6.661839 5.8586569 0 0 0 0 86.683174
0.42185417 6.7322283 5.7978597 0 0 0 0 86.688118
0.16467035 6.7895737 5.7580447 0 0 0 0 86.693069
-0.10602684 6.8225818 5.7064834 0 0 0 0 86.698013
0.53667599 6.6511931 5.8325405 0 0 0 0 86.702965
0.27476487 6.7177935 5.782825 0 0 0 0 86.707909
0.010786778 6.7444501 5.7331276 0 0 0 0 86.712852
-0.26166132 6.74751 5.6715832 0 0 0 0 86.717804
0.39410743 6.6475377 5.8154216 0 0 0 0 86.722748
0.12628853 6.6824012 5.7528043 0 0 0 0 86.727699
-0.14018674 6.6971793 5.7091532 0 0 0 0 86.732643
-0.41593596 6.6914077 5.6556735 0 0 0 0 86.737595
0.25132564 6.6258688 5.7842951 0 0 0 0 86.742538
-0.021039227 6.6479588 5.7277646 0 0 0 0 86.747482
-0.29127961 6.661942 5.6981931 0 0 0 0 86.752434
-0.56712383 6.6211286 5.630693 0 0 0 0 86.757378
0.1069847 6.6092963 5.7622066 0 0 0 0 86.762329
-0.16770244 6.6225033 5.7127209 0 0 0 0 86.767273
-0.43695411 6.588366 5.6570969 0 0 0 0 86.772217
-0.71440417 6.5486498 5.6066351 0 0 0 0 86.777168
-0.035001248 6.5976157 5.7450771 0 0 0 0 86.782112
-0.31229511 6.5678988 5.6766157 0 0 0 0 86.787064
-0.58196551 6.523777 5.6259971 0 0 0 0 86.792007
-0.85899121 6.4710293 5.5805221 0 0 0 0 86.796959
-0.17613061 6.553844 5.703908 0 0 0 0 86.801903
-0.4547109 6.5302153 5.6554823 0 0 0 0 86.806847
-0.72583032 6.475162 5.610889 0 0 0 0 86.811798
-1.0005661 6.3932586 5.5553508 0 0 0 0 86.816742
-0.31733903 6.537128 5.6887646 0 0 0 0 86.821693
-0.59555411 6.485445 5.6313143 0 0 0 0 86.826637
-0.86360151 6.39819 5.5736389 0 0 0 0 86.831581
-1.1383779 6.3112917 5.5291028 0 0 0 0 86.836533
-0.45708641 6.5123281 5.6675868 0 0 0 0 86.841476
-0.73548466 6.4386301 5.6081285 0 0 0 0 86.846428
-1.0013996 6.3342476 5.5514026 0 0 0 0 86.851372
-1.2761649 6.2433538 5.517868 0 0 0 0 86.856316
-0.59643513 6.4774981 5.6423969 0 0 0 0 86.861267
-0.8729369 6.3836789 5.5798898 0 0 0 0 86.866211
-1.1357219 6.2621174 5.5240917 0 0 0 0 86.871162
-1.4084272 6.1530981 5.4905071 0 0 0 0 86.876106
-0.73308206 6.4375854 5.6143804 0 0 0 0 86.995895
-1.0097414 6.3368049 5.5628886 0 0 0 0 87.000839
-1.2716254 6.2102265 5.5160842 0 0 0 0 87.005783
-1.5372132 6.0698247 5.4703469 0 0 0 0 87.010735
-0.87139201 6.4017267 5.5941796 0 0 0 0 87.015678
-1.145108 6.2817726 5.5396175 0 0 0 0 87.02063
-1.4013224 6.1318703 5.4866853 0 0 0 0 87.025574
-1.6663949 5.9944592 5.4589458 0 0 0 0 87.030518
-1.0072449 6.3577323 5.5679245 0 0 0 0 87.035469
-1.2740802 6.2023721 5.4992013 0 0 0 0 87.040413
-1.5321654 6.0646 5.4713216 0 0 0 0 87.045364
-1.786713 5.8875837 5.4223423 0 0 0 0 87.050308
-1.1428751 6.3157372 5.5476699 0 0 0 0 87.05526
-1.4117975 6.1695118 5.5010009 0 0 0 0 87.060204
-1.6569924 5.982996 5.4438267 0 0 0 0 87.065147
-1.9077331 5.7987814 5.4037704 0 0 0 0 87.070099
-1.2787758 6.2697539 5.5244193 0 0 0 0 87.075043
-1.5367935 6.0889134 5.4625077 0 0 0 0 87.079994
-1.7814217 5.9063864 5.4233298 0 0 0 0 87.084938
-2.0275736 5.7119265 5.3891778 0 0 0 0 87.089882
-1.412601 6.2236691 5.5051298 0 0 0 0 87.094833
-1.6704648 6.0408287 5.4562178 0 0 0 0 87.099777
-1.9056287 5.8317742 5.4088335 0 0 0 0 87.104729
-2.1522844 5.640357 5.3916984 0 0 0 0 87.109673
-1.5450008 6.1685004 5.4808064 0 0 0 0 87.114624
-1.7991821 5.9764647 5.4398184 0 0 0 0 87.119568
-2.0227706 5.7437758 5.3821845 0 0 0 0 87.124512
-2.2560301 5.5256248 5.3537621 0 0 0 0 87.129463
-1.6789258 6.1194282 5.4645209 0 0 0 0 87.134407
-1.91998 5.896666 5.4092479 0 0 0 0 87.139359
-2.1455119 5.6751084 5.3756671 0 0 0 0 87.144302
-2.3688636 5.4374175 5.3430333 0 0 0 0 87.149246
-1.8075247 6.0600662 5.4411221 0 0 0 0 87.154198
-2.0405042 5.8198638 5.384676 0 0 0 0 87.159142
-2.261095 5.5940509 5.3589969 0 0 0 0 87.164093
-2.4754145 5.3388686 5.3231707 0 0 0 0 87.169037
-1.9353365 5.9966621 5.417707 0 0 0 0 87.173981
-2.1600127 5.7430139 5.3610868 0 0 0 0 87.178932
-2.3739676 5.5078487 5.34127 0 0 0 0 87.183876
-2.5771337 5.2370672 5.3032093 0 0 0 0 87.188828
-2.0630062 5.9352593 5.3962917 0 0 0 0 87.193771
-2.2860246 5.6865439 5.3596473 0 0 0 0 87.198723
-2.4779043 5.406158 5.3103514 0 0 0 0 87.203667
-2.6784952 5.1402597 5.2882466 0 0 0 0 87.208611
-2.1879439 5.8687119 5.3748202 0 0 0 0 87.213562
-2.3999543 5.6024008 5.3339429 0 0 0 0 87.218506
-2.5893312 5.3258996 5.2996035 0 0 0 0 87.223457
-2.7487526 4.9887357 5.2196107 0 0 0 0 87.228401
-2.3094296 5.7939744 5.3472743 0 0 0 0 87.233345
-2.518167 5.5275025 5.3203349 0 0 0 0 87.238297
-2.6953416 5.2363482 5.28374 0 0 0 0 87.24324
-2.7657869 4.7572913 5.067832 0 0 0 0 87.248192
-2.4331491 5.7293777 5.3317838 0 0 0 0 87.253136
-2.6290796 5.4422102 5.298573 0 0 0 0 87.25808
-2.7976835 5.1415997 5.264801 0 0 0 0 87.263031
-2.8570156 4.6619668 5.0556688 0 0 0 0 87.267975
-2.5544267 5.655643 5.3122396 0 0 0 0 87.272926
-2.7389567 5.3568692 5.2787914 0 0 0 0 87.27787
-2.7911694 4.8638415 5.0605054 0 0 0 0 87.282822
-2.9488754 4.5706873 5.0515242 0 0 0 0 87.287766
-2.6745644 5.5838575 5.2946754 0 0 0 0 87.292709
-2.8478506 5.2704792 5.2609916 0 0 0 0 87.297661
-2.8870258 4.7757716 5.0484424 0 0 0 0 87.302605
-3.0333722 4.4710102 5.0372243 0 0 0 0 87.307556
-2.7948933 5.5080805 5.2781143 0 0 0 0 87.3125
-2.8426547 4.9887824 5.0517197 0 0 0 0 87.317444
-2.9855504 4.6918535 5.042438 0 0 0 0 87.322395
-3.1166887 4.3732786 5.0269032 0 0 0 0 87.327339
-2.9113567 5.4301028 5.2604752 0 0 0 0 87.332291
-2.9471838 4.9071794 5.0398378 0 0 0 0 87.337234
-3.0775566 4.6005855 5.0312977 0 0 0 0 87.342186
-3.188951 4.2619486 5.0043483 0 0 0 0 87.34713
-2.9192972 5.1611156 5.0624795 0 0 0 0 87.352074
-3.0559947 4.8348217 5.0400524 0 0 0 0 87.357025
-3.1630855 4.5019684 5.0130205 0 0 0 0 87.361969
-3.2636847 4.157763 4.989851 0 0 0 0 87.36692
-3.0180998 5.0631866 5.0294685 0 0 0 0 87.371864
-3.1475282 4.7385201 5.0158982 0 0 0 0 87.376808
-3.2492859 4.4073977 5.000762 0 0 0 0 87.38176
-3.343719 4.0628753 4.9864697 0 0 0 0 87.386703
-3.1275401 4.9838519 5.0166907 0 0 0 0 87.391655
-3.2398901 4.64327 4.9977636 0 0 0 0 87.396599
-3.3344712 4.312778 4.9894848 0 0 0 0 87.401543
-3.4061351 3.9490335 4.9627166 0 0 0 0 87.406494
-3.2342384 4.9003701 5.0018563 0 0 0 0 87.411438
-3.336719 4.5552702 4.9877272 0 0 0 0 87.416389
-3.4104345 4.2066584 4.9690123 0 0 0 0 87.421333
-3.4940965 3.8675928 4.9785109 0 0 0 0 87.426285
-3.3371761 4.8126898 4.9859433 0 0 0 0 87.431229
-3.4279563 4.4609709 4.9735742 0 0 0 0 87.436172
-3.4805977 4.0982327 4.9444203 0 0 0 0 87.441124
-3.6819434 3.89059 5.1324296 0 0 0 0 87.446068
-3.4399517 4.7270088 4.973031 0 0 0 0 87.451019
-3.5116463 4.3602676 4.9532633 0 0 0 0 87.455963
-3.5819962 4.0255146 4.9664965 0 0 0 0 87.460907
-3.7487824 3.7830036 5.1217761 0 0 0 0 87.465858
-3.5326991 4.6229854 4.9451389 0 0 0 0 87.215935
-3.5913544 4.2535505 4.9291039 0 0 0 0 87.220879
-3.7802083 4.0552282 5.11485 0 0 0 0 87.22583
-3.8142197 3.6734977 5.1113114 0 0 0 0 87.230774
-3.6280754 4.5268855 4.9280629 0 0 0 0 87.235725
-3.7431674 4.230536 5.0032339 0 0 0 0 87.240669
-3.856756 3.9521449 5.1063924 0 0 0 0 87.245613
-3.8816879 3.5699425 5.1076708 0 0 0 0 87.250565
-3.7233424 4.4317856 4.9139872 0 0 0 0 87.255508
-3.9118485 4.2214351 5.0987215 0 0 0 0 87.26046
-3.9249012 3.8406103 5.0897584 0 0 0 0 87.265404
-3.9330966 3.453527 5.089695 0 0 0 0 87.270348
-3.9506743 4.4858603 5.0657139 0 0 0 0 87.275299
-3.9899628 4.1114244 5.0802908 0 0 0 0 87.280243
-3.9947371 3.7331741 5.0781636 0 0 0 0 87.285194
-3.9881208 3.3423121 5.0777979 0 0 0 0 87.290138
-4.0582671 4.3974304 5.0688992 0 0 0 0 87.29509
-4.0689149 4.0034647 5.0648804 0 0 0 0 87.300034
-4.0597105 3.6234827 5.0654693 0 0 0 0 87.304977
-4.0438175 3.235142 5.0719185 0 0 0 0 87.309929
-4.1491122 4.292098 5.052732 0 0 0 0 87.314873
-4.1440339 3.892303 5.0493908 0 0 0 0 87.319824
-4.1274776 3.5159447 5.0578351 0 0 0 0 87.324768
-4.0957222 3.1247704 5.063961 0 0 0 0 87.329712
-4.2352509 4.1815152 5.0354671 0 0 0 0 87.334663
-4.2255259 3.7894926 5.0440392 0 0 0 0 87.339607
-4.1903491 3.4071505 5.0481009 0 0 0 0 87.344559
-4.1436977 3.0141935 5.0529232 0 0 0 0 87.349503
-4.321281 4.0719323 5.0212021 0 0 0 0 87.354454
-4.2956934 3.6770759 5.0294514 0 0 0 0 87.359398
-4.2465267 3.2940004 5.0342288 0 0 0 0 87.364342
-4.195312 2.9068172 5.0519638 0 0 0 0 87.369293
-4.4054437 3.9602513 5.0058994 0 0 0 0 87.374237
-4.3658047 3.5646598 5.0178633 0 0 0 0 87.379189
-4.3111048 3.188307 5.0315342 0 0 0 0 87.384132
-4.2411661 2.7971354 5.0448856 0 0 0 0 87.389076
-4.4857535 3.8453674 4.9915175 0 0 0 0 87.394028
-4.4395108 3.4574444 5.0133543 0 0 0 0 87.398972
-4.3642144 3.0750017 5.0216012 0 0 0 0 87.403923
-4.2773914 2.6829419 5.0306087 0 0 0 0 87.408867
-4.5744324 3.738941 4.9873137 0 0 0 0 87.413811
-4.5019865 3.3396246 4.9976087 0 0 0 0 87.418762
-4.4163504 2.9616468 5.0106492 0 0 0 0 87.423706
-4.3239331 2.5763066 5.0315495 0 0 0 0 87.428658
-4.6488652 3.621752 4.9728136 0 0 0 0 87.433601
-4.5670381 3.2269518 4.9899216 0 0 0 0 87.438553
-4.4749947 2.8536468 5.0108361 0 0 0 0 87.443497
-4.3608146 2.4661586 5.0242906 0 0 0 0 87.448441
-4.7185612 3.5003109 4.9562149 0 0 0 0 87.453392
-4.6282978 3.1110775 4.9801559 0 0 0 0 87.458336
-4.5211806 2.7389824 5.0007644 0 0 0 0 87.463287
-4.3948293 2.3538578 5.0159721 0 0 0 0 87.468231
-4.7938285 3.3841746 4.9477353 0 0 0 0 87.473175
-4.6847157 2.9929476 4.9682903 0 0 0 0 87.478127
-4.5500917 2.616396 4.9743338 0 0 0 0 87.48307
-4.4095607 2.23453 4.989254 0 0 0 0 87.488022
-4.8567948 3.2583787 4.9289985 0 0 0 0 87.492966
-4.739121 2.8747144 4.9573851 0 0 0 0 87.49791
-4.6084614 2.5103934 4.9835196 0 0 0 0 87.502861
-4.3323407 2.0732803 4.8646207 0 0 0 0 87.507805
-4.9328747 3.1432948 4.9275389 0 0 0 0 87.512756
-4.7982755 2.758738 4.9535804 0 0 0 0 87.5177
-4.6496282 2.3954706 4.975347 0 0 0 0 87.522652
-4.3227191 1.9486579 4.8183994 0 0 0 0 87.527596
-5.0032706 3.0229068 4.9239612 0 0 0 0 87.532539
-4.8477302 2.6392472 4.9435749 0 0 0 0 87.537491
-4.6849546 2.2782383 4.965055 0 0 0 0 87.542435
-4.3502221 1.8440295 4.8159552 0 0 0 0 87.547386
-5.0564251 2.8935976 4.905025 0 0 0 0 87.55233
-4.894299 2.5176039 4.9335098 0 0 0 0 87.557274
-4.7249455 2.1652608 4.9608622 0 0 0 0 87.562225
-4.3815684 1.7406075 4.8185906 0 0 0 0 87.567169
-5.1160874 2.7696443 4.8972278 0 0 0 0 87.572121
-4.9454918 2.4002137 4.9315443 0 0 0 0 87.577065
-4.7283878 2.036329 4.9239082 0 0 0 0 87.582016
-4.4080396 1.6359274 4.8181262 0 0 0 0 87.58696
-5.1806245 2.6459515 4.8955321 0 0 0 0 87.591904
-4.9899592 2.2794657 4.9244394 0 0 0 0 87.596855
-4.6403017 1.8735036 4.797051 0 0 0 0 87.601799
-4.4295635 1.530987 4.8155613 0 0 0 0 87.60675
-5.224946 2.5131793 4.8774161 0 0 0 0 87.611694
-5.0324469 2.1576138 4.9192944 0 0 0 0 87.616638
-4.6471457 1.7527639 4.7691731 0 0 0 0 87.62159
-4.4471393 1.4258385 4.8109145 0 0 0 0 87.626534
-5.2749014 2.3837137 4.8694191 0 0 0 0 87.631485
-5.0662537 2.0322995 4.9069686 0 0 0 0 87.636429
-4.6770062 1.6412581 4.7677755 0 0 0 0 87.641373
-4.4655828 1.3217391 4.810288 0 0 0 0 87.646324
-5.328649 2.2564542 4.8665032 0 0 0 0 87.651268
-5.1047163 1.9102393 4.9037423 0 0 0 0 87.656219
-4.7087021 1.531854 4.7694178 0 0 0 0 87.661163
-4.4830117 1.2175872 4.8106408 0 0 0 0 87.666115
-5.3765564 2.1268852 4.8614664 0 0 0 0 87.671059
-5.0446653 1.753912 4.8104677 0 0 0 0 87.676003
-4.7287421 1.4188293 4.7628183 0 0 0 0 87.680954
-4.4955869 1.112177 4.8068929 0 0 0 0 87.685898
-5.4115896 1.9940927 4.8520355 0 0 0 0 88.208099
-4.9822121 1.6047041 4.7229319 0 0 0 0 88.213051
-4.7477441 1.3088697 4.7609353 0 0 0 0 88.217995
-4.5014281 1.0083988 4.8026919 0 0 0 0 88.222939
-5.4546661 1.8622875 4.8479066 0 0 0 0 88.22789
-5.0135622 1.485286 4.7215667 0 0 0 0 88.232834
-4.7637815 1.1966418 4.7552571 0 0 0 0 88.237785
-4.5196357 0.90730226 4.8090663 0 0 0 0 88.242729
-5.4909062 1.7281159 4.8416357 0 0 0 0 88.247673
-5.0448556 1.3658673 4.7232018 0 0 0 0 88.252625
-4.7855763 1.085726 4.7587004 0 0 0 0 88.257568
-5.4097414 1.5606135 4.7379031 0 0 0 0 88.267464
-5.0722542 1.2452397 4.722755 0 0 0 0 88.272408
-0.51487327 0.055453107 0.65820771 0 0 0 0 88.282303
-5.3447075 1.4029877 4.6525121 0 0 0 0 88.287254
-5.091753 1.1241903 4.7181454 0 0 0 0 88.292198
-0.53440756 0.072506361 0.63764286 0 0 0 0 88.29715
-5.3775806 1.2736455 4.6521754 0 0 0 0 88.307037
-0.50879848 0.055106834 0.61213201 0 0 0 0 88.316933
-0.48979729 0.028065581 0.63173497 0 0 0 0 88.321884
-5.4084206 1.1441967 4.6537971 0 0 0 0 88.326828
-0.53339309 0.068427838 0.59867084 0 0 0 0 88.331772
-0.52702558 0.045068216 0.62753874 0 0 0 0 88.336723
-5.463697 1.0170636 4.6789308 0 0 0 0 88.346619
-0.50486404 0.049869806 0.57209837 0 0 0 0 88.351562
-0.49547783 0.02834999 0.59690422 0 0 0 0 88.356514
-0.47732815 0.0033570419 0.61852622 0 0 0 0 88.361458
-0.51139164 0.038201254 0.57626027 0 0 0 0 88.371353
-0.46675783 0.013785557 0.56932968 0 0 0 0 88.376297
-0.45533404 -0.0078425324 0.59609365 0 0 0 0 88.381248
-0.54303145 0.048897468 0.56794447 0 0 0 0 88.386192
-0.49348009 0.023216965 0.55991101 0 0 0 0 88.391136
-0.45367017 0.0010619496 0.55608177 0 0 0 0 88.396088
-0.44317111 -0.019515211 0.58386564 0 0 0 0 88.401031
-0.52024341 0.032650448 0.54849309 0 0 0 0 88.405983
-0.47160518 0.0090200268 0.5394792 0 0 0 0 88.410927
-0.45715079 -0.0097686341 0.56018096 0 0 0 0 88.415871
-0.44073245 -0.029663289 0.58184159 0 0 0 0 88.420822
-0.49254721 0.016138654 0.52493882 0 0 0 0 88.425766
-0.46927306 -0.0031246883 0.53745621 0 0 0 0 88.430717
-0.45085487 -0.021125702 0.5540756 0 0 0 0 88.435661
-0.43932524 -0.040757373 0.58083844 0 0 0 0 88.440613
-0.49028924 0.0029963898 0.52191669 0 0 0 0 88.445557
-0.46984184 -0.014112223 0.53749442 0 0 0 0 88.4505
-0.43979982 -0.050748222 0.58287549 0 0 0 0 88.460396
-0.47611025 -0.0087837307 0.51064706 0 0 0 0 88.465347
-0.44503421 -0.042473748 0.55000728 0 0 0 0 88.475235
-0.44226277 -0.061632887 0.58795375 0 0 0 0 88.480186
-0.48071784 -0.02155677 0.51376832 0 0 0 0 88.48513
-0.4622263 -0.038560782 0.53138667 0 0 0 0 88.490082
-0.44474676 -0.072516799 0.59203225 0 0 0 0 88.499969
-0.45009705 -0.065238632 0.55616522 0 0 0 0 88.514816
-0.47090855 -0.086129151 0.62060434 0 0 0 0 88.51976
-0.47511256 -0.046898246 0.50970209 0 0 0 0 88.524712
-0.4624013 -0.061588686 0.53244245 0 0 0 0 88.529655
-0.48428679 -0.099428475 0.63690966 0 0 0 0 88.539551
-0.46883109 -0.059255525 0.50559658 0 0 0 0 88.544495
-0.45908406 -0.088791952 0.56840539 0 0 0 0 88.55439
-0.50260699 -0.11346199 0.65831822 0 0 0 0 88.559334
-0.45071003 -0.084254093 0.52525079 0 0 0 0 88.569229
-0.45964682 -0.10078019 0.57144326 0 0 0 0 88.574181
-0.51601851 -0.12775946 0.67562419 0 0 0 0 88.579124
-0.46610826 -0.083440796 0.50459117 0 0 0 0 88.584076
-0.53838938 -0.1445768 0.70211637 0 0 0 0 88.598915
-0.46870118 -0.096321136 0.50867081 0 0 0 0 88.603859
-0.45481104 -0.10807103 0.53238851 0 0 0 0 88.60881
-0.48155898 -0.12764017 0.59695232 0 0 0 0 88.613754
-4.5572019 -1.0339317 5.0108194 0 0 0 0 88.618698
-0.49115431 -0.12714083 0.56717056 0 0 0 0 88.628593
-0.52783012 -0.15017712 0.64494109 0 0 0 0 88.633545
-4.526504 -1.1326432 5.0061793 0 0 0 0 88.638489
-0.47193304 -0.12218725 0.5147891 0 0 0 0 88.643433
-0.53846556 -0.14962208 0.61318076 0 0 0 0 88.648384
-4.8869615 -1.1703634 4.9646721 0 0 0 0 88.653328
-4.503643 -1.2319328 5.0117035 0 0 0 0 88.658279
-5.3776584 -1.1211189 4.6498532 0 0 0 0 88.663223
-5.2158327 -1.227802 4.9034953 0 0 0 0 88.668175
-4.840879 -1.2769098 4.9497075 0 0 0 0 88.673119
-4.4697886 -1.328812 5.0099988 0 0 0 0 88.678062
-5.5291991 -1.2935663 4.8048644 0 0 0 0 88.368889
-5.1807671 -1.3521442 4.9006701 0 0 0 0 88.37384
-4.8259525 -1.3920519 4.9663486 0 0 0 0 88.378784
-4.4462013 -1.4282928 5.0175109 0 0 0 0 88.383736
-5.5371671 -1.439239 4.8430114 0 0 0 0 88.38868
-5.152082 -1.4747572 4.9080667 0 0 0 0 88.393631
-4.7797294 -1.4975908 4.9543877 0 0 0 0 88.398575
-4.4301815 -1.5302103 5.0371795 0 0 0 0 88.403519
-5.5002227 -1.5743058 4.8462305 0 0 0 0 88.40847
-5.1164012 -1.5967445 4.9133177 0 0 0 0 88.413414
-4.7523446 -1.6081245 4.9648156 0 0 0 0 88.418365
-4.3952684 -1.6271373 5.037457 0 0 0 0 88.423309
-5.4592042 -1.7075894 4.8483653 0 0 0 0 88.428253
-5.0817027 -1.7186806 4.919589 0 0 0 0 88.433205
-4.7130094 -1.7162976 4.9659967 0 0 0 0 88.438148
-4.3622208 -1.722963 5.0417733 0 0 0 0 88.4431
-5.4251647 -1.8445027 4.8616443 0 0 0 0 88.448044
-5.0399218 -1.8379937 4.9227138 0 0 0 0 88.452988
-4.6825428 -1.8259965 4.9783611 0 0 0 0 88.457939
-4.3331642 -1.8215777 5.0541716 0 0 0 0 88.462883
-5.3820772 -1.9778986 4.8677354 0 0 0 0 88.467834
-5.0031319 -1.9600427 4.9339414 0 0 0 0 88.472778
-4.6370745 -1.9304962 4.9764156 0 0 0 0 88.47773
-4.2970538 -1.916568 5.0594244 0 0 0 0 88.482674
-5.3359575 -2.1114576 4.8757639 0 0 0 0 88.487617
-4.9583235 -2.0795202 4.939003 0 0 0 0 88.492569
-4.6136231 -2.0448248 5.0009232 0 0 0 0 88.497513
-3.8499978 -1.8224401 4.5901971 0 0 0 0 88.502464
-5.2867079 -2.242182 4.8827281 0 0 0 0 88.507408
-4.9144144 -2.1989493 4.9490833 0 0 0 0 88.512352
-4.1363716 -1.9523072 4.5430717 0 0 0 0 88.517303
-3.8244348 -1.9128665 4.6066694 0 0 0 0 88.522247
-5.2343946 -2.3720708 4.8906293 0 0 0 0 88.527199
-4.8724775 -2.3192747 4.9632034 0 0 0 0 88.532143
-4.0932517 -2.0466778 4.5471773 0 0 0 0 88.537086
-3.7777779 -1.9934168 4.6007061 0 0 0 0 88.542038
-5.1790495 -2.5021231 4.9004664 0 0 0 0 88.546982
-4.3631248 -2.2094562 4.5116959 0 0 0 0 88.551933
-4.460814 -2.3532064 5.0017443 0 0 0 0 88.556877
-4.132369 -2.2906199 5.0770135 0 0 0 0 88.561829
-5.1398325 -2.6403201 4.9266353 0 0 0 0 88.566772
-4.3134642 -2.3131866 4.5176606 0 0 0 0 88.571716
-4.430274 -2.4669178 5.0291038 0 0 0 0 88.576668
-4.1001935 -2.3894072 5.0963454 0 0 0 0 88.581612
-4.5811291 -2.5031176 4.466116 0 0 0 0 88.586563
-4.6941118 -2.6570542 4.9694791 0 0 0 0 88.591507
-4.3865809 -2.573329 5.0441928 0 0 0 0 88.596451
-4.0478597 -2.4782684 5.0962615 0 0 0 0 88.601402
-4.5087638 -2.6080673 4.4596076 0 0 0 0 88.606346
-4.6571317 -2.7831228 5.0016994 0 0 0 0 88.611298
-4.3318281 -2.6753314 5.0500526 0 0 0 0 88.616241
-4.000504 -2.5688651 5.1022797 0 0 0 0 88.621193
-4.5508447 -2.7819433 4.5704508 0 0 0 0 88.626137
-4.5938067 -2.8935919 5.0083776 0 0 0 0 88.631081
-4.2729669 -2.7745528 5.0538273 0 0 0 0 88.636032
-3.9561825 -2.662303 5.1143594 0 0 0 0 88.640976
-4.8520803 -3.1270757 4.9436131 0 0 0 0 88.645927
-4.5213785 -2.9995475 5.0078673 0 0 0 0 88.650871
-4.2201271 -2.8774559 5.0667262 0 0 0 0 88.655815
-3.9938178 -2.8123884 5.2331243 0 0 0 0 88.660767
-4.7924585 -3.2573655 4.968359 0 0 0 0 88.66571
-4.4651022 -3.1156464 5.027688 0 0 0 0 88.670662
-4.1622329 -2.9786298 5.0775189 0 0 0 0 88.675606
-4.0266471 -2.9657354 5.3507872 0 0 0 0 88.68055
-4.730845 -3.3877649 4.9930625 0 0 0 0 88.685501
-4.3986492 -3.2262878 5.0412993 0 0 0 0 88.690445
-3.9112155 -2.9370513 4.8553467 0 0 0 0 88.695396
-3.8799438 -2.9886146 5.2397604 0 0 0 0 88.70034
-4.6466813 -3.5013592 4.9993038 0 0 0 0 88.705292
-3.5904281 -2.7762508 4.2126966 0 0 0 0 88.710236
-3.777622 -2.9732378 4.7745886 0 0 0 0 88.715179
-3.5988762 -2.9006231 4.9459748 0 0 0 0 88.720131
-3.3376052 -2.6628268 3.6994507 0 0 0 0 88.725075
-3.550292 -2.8804832 4.2448554 0 0 0 0 88.730026
-3.7630992 -3.1011128 4.8402719 0 0 0 0 88.73497
-3.5278671 -2.9714837 4.9315042 0 0 0 0 88.739914
-3.2737963 -2.7453141 3.7061245 0 0 0 0 88.744865
-3.4181385 -2.9095898 4.1731286 0 0 0 0 88.749809
-3.68641 -3.1802857 4.8316798 0 0 0 0 88.754761
-3.8675787 -3.3935709 5.484458 0 0 0 0 88.759705
-3.2099819 -2.828804 3.7157972 0 0 0 0 88.764656
-3.3892393 -3.0252323 4.2245159 0 0 0 0 88.7696
-3.8458228 -3.4669561 5.1319237 0 0 0 0 88.774544
-3.6775882 -3.3707478 5.3145432 0 0 0 0 88.779495
-3.1450977 -2.9113524 3.7264473 0 0 0 0 88.784439
-4.0383782 -3.7630126 5.1157694 0 0 0 0 88.789391
-3.7775621 -3.5626919 5.1464996 0 0 0 0 88.794334
-3.5199068 -3.3692093 5.1872926 0 0 0 0 88.799278
-3.0801542 -2.9939053 3.7400961 0 0 0 0 88.80423
-3.9523537 -3.8607056 5.1229739 0 0 0 0 88.809174
-3.7031591 -3.6527557 5.1529493 0 0 0 0 88.814125
-3.4612327 -3.4574265 5.2030711 0 0 0 0 88.819069
-3.0120993 -3.0736246 3.7516804 0 0 0 0 88.824013
-3.8682582 -3.9592972 5.1362181 0 0 0 0 88.828964
-3.6390457 -3.7552791 5.1786075 0 0 0 0 88.833908
-3.3953846 -3.5390263 5.2097011 0 0 0 0 88.83886
-3.7222667 -3.9678464 4.7265697 0 0 0 0 89.000061
-3.7864485 -4.0613179 5.1559544 0 0 0 0 89.005005
-3.5585184 -3.8392479 5.1843657 0 0 0 0 89.009956
-3.3297319 -3.6222303 5.2187562 0 0 0 0 89.0149
-3.559557 -3.9856174 4.6511993 0 0 0 0 89.019844
-3.7022905 -4.1599312 5.1731901 0 0 0 0 89.024796
-3.4820495 -3.9304423 5.1977649 0 0 0 0 89.029739
-3.2680216 -3.7106271 5.2374644 0 0 0 0 89.034691
-3.4515531 -4.0604968 4.645946 0 0 0 0 89.039635
-3.5208347 -4.1506939 5.0624371 0 0 0 0 89.044579
-3.4064984 -4.0215878 5.2151823 0 0 0 0 89.04953
-3.2021892 -3.7952452 5.2520881 0 0 0 0 89.054474
-3.3642068 -4.158287 4.6701136 0 0 0 0 89.059425
-3.1800196 -3.9368646 4.7154369 0 0 0 0 89.064369
-3.3186162 -4.1013918 5.2183456 0 0 0 0 89.069321
-3.1301923 -3.874193 5.259583 0 0 0 0 89.074265
-3.6262534 -4.7016635 5.1833887 0 0 0 0 89.079208
-3.0940361 -4.0185699 4.7286391 0 0 0 0 89.08416
-2.9211662 -3.7885461 4.7371955 0 0 0 0 89.089104
-2.7597241 -3.5759213 4.7709832 0 0 0 0 89.094055
-3.5147364 -4.7927537 5.197053 0 0 0 0 89.098999
-3.3336453 -4.536119 5.2424631 0 0 0 0 89.103943
-2.8490865 -3.8705056 4.7566867 0 0 0 0 89.108894
-2.6881518 -3.6418412 4.772491 0 0 0 0 89.113838
-3.4011509 -4.8829584 5.2116723 0 0 0 0 89.11879
-3.2380941 -4.629354 5.2644582 0 0 0 0 89.123734
-3.075515 -4.3687344 5.2762494 0 0 0 0 89.128685
-2.6372859 -3.7346683 4.8114209 0 0 0 0 89.133629
-3.2927079 -4.9798942 5.2373958 0 0 0 0 89.138573
-3.1350865 -4.7099829 5.2753024 0 0 0 0 89.143524
-2.9844074 -4.4477205 5.288342 0 0 0 0 89.148468
-2.8380291 -4.1952367 5.3124676 0 0 0 0 89.153419
-3.1768985 -5.068222 5.2579684 0 0 0 0 89.158363
-3.0299888 -4.7897267 5.2881017 0 0 0 0 89.163307
-2.898505 -4.5334358 5.3085399 0 0 0 0 89.168259
-2.761898 -4.2754197 5.3298721 0 0 0 0 89.173203
-3.0589213 -5.1526666 5.2764955 0 0 0 0 89.178154
-2.9291437 -4.878252 5.311985 0 0 0 0 89.183098
-2.8126421 -4.6221533 5.3347368 0 0 0 0 89.188042
-2.6806211 -4.3498793 5.33917 0 0 0 0 89.192993
-2.9430013 -5.2400069 5.3000631 0 0 0 0 89.197937
-2.8239801 -4.9590063 5.3307805 0 0 0 0 89.202888
-2.7141731 -4.6925378 5.3416758 0 0 0 0 89.207832
-2.6002948 -4.4252896 5.3534865 0 0 0 0 89.212784
-2.8025641 -5.286633 5.2891359 0 0 0 0 89.217728
-2.7124686 -5.0310974 5.3434458 0 0 0 0 89.222672
-2.622031 -4.7745948 5.3637419 0 0 0 0 89.227623
-2.5190513 -4.5037556 5.3717813 0 0 0 0 89.232567
-2.5932572 -5.1928458 5.142828 0 0 0 0 89.237518
-2.6073925 -5.1168585 5.3712387 0 0 0 0 89.242462
-2.5246265 -4.8499322 5.3806996 0 0 0 0 89.247406
-2.4346828 -4.5783901 5.3860116 0 0 0 0 89.252357
-2.4705052 -5.2625484 5.1602569 0 0 0 0 89.257301
-2.4357576 -5.0690889 5.266696 0 0 0 0 89.262253
-2.4229572 -4.9184966 5.3925695 0 0 0 0 89.267197
-2.3502991 -4.6550293 5.40624 0 0 0 0 89.272141
-2.3518639 -5.338037 5.1877689 0 0 0 0 89.277092
-2.285141 -5.0532193 5.1975775 0 0 0 0 89.282036
-2.3266709 -4.9997854 5.4195452 0 0 0 0 89.286987
-2.2637892 -4.7277822 5.4224238 0 0 0 0 89.291931
-2.2279382 -5.4068084 5.2111716 0 0 0 0 89.296883
-2.1785641 -5.1300621 5.2263389 0 0 0 0 89.301826
-2.1549094 -4.915 5.2730107 0 0 0 0 89.30677
-2.1731887 -4.7977581 5.4355221 0 0 0 0 89.311722
-2.0995064 -5.4628139 5.2254844 0 0 0 0 89.316666
-2.0676014 -5.1971354 5.2480125 0 0 0 0 89.321617
-2.0334914 -4.9345956 5.2404852 0 0 0 0 89.326561
-2.0846815 -4.8736277 5.459661 0 0 0 0 89.331505
-1.9765358 -5.534543 5.2589035 0 0 0 0 89.336456
-1.9533629 -5.2583838 5.2676187 0 0 0 0 89.3414
-1.9346266 -5.0040212 5.2644095 0 0 0 0 89.346352
-1.9291899 -4.7919784 5.3094616 0 0 0 0 89.351295
-1.8447667 -5.5847301 5.2741466 0 0 0 0 89.356247
-1.8381404 -5.3206897 5.2892022 0 0 0 0 89.361191
-1.8326155 -5.0696168 5.2852678 0 0 0 0 89.366135
-1.8220336 -4.8188171 5.2842278 0 0 0 0 89.371086
-1.7151532 -5.640811 5.297431 0 0 0 0 89.37603
-1.7185316 -5.3732266 5.3036971 0 0 0 0 89.380981
-1.7263719 -5.1294394 5.3020391 0 0 0 0 89.385925
-1.7300541 -4.8828731 5.3002958 0 0 0 0 89.390869
-1.5822754 -5.6920667 5.3206477 0 0 0 0 89.395821
-1.5999051 -5.4277158 5.3242106 0 0 0 0 89.400764
-1.6222632 -5.1951551 5.3278513 0 0 0 0 89.405716
-1.6361046 -4.9490409 5.3203201 0 0 0 0 89.41066
-1.4503342 -5.7432747 5.3468833 0 0 0 0 89.415604
-1.481359 -5.4852071 5.3487229 0 0 0 0 89.420555
-1.5126998 -5.2471571 5.3395538 0 0 0 0 89.425499
-1.5410503 -5.0132694 5.3403215 0 0 0 0 89.43045
-1.316069 -5.7866054 5.368072 0 0 0 0 89.435394
-1.359349 -5.531878 5.367167 0 0 0 0 89.440346
-1.4020681 -5.3002195 5.3572326 0 0 0 0 89.44529
-1.4439806 -5.077611 5.3612785 0 0 0 0 89.450233
-1.1808102 -5.8319955 5.3942375 0 0 0 0 89.455185
-1.2352685 -5.5776644 5.3865662 0 0 0 0 89.460129
-1.2915288 -5.3572845 5.3809104 0 0 0 0 89.46508
-1.3424575 -5.1301847 5.3731465 0 0 0 0 89.470024
-1.0421447 -5.8606071 5.4078746 0 0 0 0 89.21714
-1.11254 -5.6264553 5.4115195 0 0 0 0 89.222092
-1.1780776 -5.4065943 5.397049 0 0 0 0 89.227036
-1.2393407 -5.1829572 5.3854923 0 0 0 0 89.231987
-0.90442932 -5.8980947 5.4350033 0 0 0 0 89.236931
-0.98608649 -5.6643386 5.4278822 0 0 0 0 89.241875
-1.0618374 -5.4459286 5.4076238 0 0 0 0 89.246826
-1.1380779 -5.2455077 5.4103694 0 0 0 0 89.25177
-0.76640797 -5.9275956 5.4561276 0 0 0 0 89.256721
-0.85848582 -5.7002845 5.4462204 0 0 0 0 89.261665
-0.94836956 -5.5091414 5.4432445 0 0 0 0 89.266609
-1.0313073 -5.2933459 5.4211359 0 0 0 0 89.271561
-0.62725109 -5.9561596 5.4812274 0 0 0 0 89.276505
-0.73194194 -5.7391806 5.4695783 0 0 0 0 89.281456
-0.8299523 -5.5455976 5.454772 0 0 0 0 89.2864
-0.92357653 -5.3442407 5.4378796 0 0 0 0 89.291344
-0.48779979 -5.977736 5.5023236 0 0 0 0 89.296295
-0.60316497 -5.7741957 5.4938903 0 0 0 0 89.301239
-0.71153957 -5.5840592 5.4712982 0 0 0 0 89.30619
-0.81700277 -5.401083 5.4626441 0 0 0 0 89.311134
-0.34841877 -6.0033174 5.530417 0 0 0 0 89.316086
-0.4730711 -5.8002782 5.5101767 0 0 0 0 89.32103
-0.59225368 -5.6275768 5.494802 0 0 0 0 89.325974
-0.70711637 -5.4490995 5.479341 0 0 0 0 89.330925
-0.20655943 -6.017024 5.5504637 0 0 0 0 89.335869
-0.34431154 -5.838304 5.5414848 0 0 0 0 89.34082
-0.47073126 -5.6652126 5.5142608 0 0 0 0 89.345764
-0.59505123 -5.4942331 5.4969931 0 0 0 0 89.350708
-0.066646114 -6.0316296 5.5755491 0 0 0 0 89.355659
-0.21175578 -5.8555169 5.5567217 0 0 0 0 89.360603
-0.34893897 -5.6978612 5.5337148 0 0 0 0 89.365555
-0.48210102 -5.5434232 5.5196233 0 0 0 0 89.370499
0.074681483 -6.0363054 5.5946083 0 0 0 0 89.375443
-0.080322795 -5.8776779 5.5789785 0 0 0 0 89.380394
-0.22453901 -5.7416677 5.563107 0 0 0 0 89.385338
-0.36569583 -5.580792 5.5331855 0 0 0 0 89.390289
0.21598475 -6.0429864 5.6176653 0 0 0 0 89.395233
0.052071385 -5.9028983 5.6072121 0 0 0 0 89.400185
-0.1013341 -5.76439 5.5765328 0 0 0 0 89.405128
-0.24937046 -5.6211629 5.5507464 0 0 0 0 89.410072
0.35859093 -6.043735 5.6396966 0 0 0 0 89.415024
0.18537995 -5.9031458 5.6144376 0 0 0 0 89.419968
0.025814578 -5.7913342 5.5978737 0 0 0 0 89.424919
-0.13237159 -5.6725855 5.5812864 0 0 0 0 89.429863
0.49936363 -6.0413852 5.661767 0 0 0 0 89.434807
0.31887689 -5.9284339 5.647645 0 0 0 0 89.439758
0.15281737 -5.8232794 5.6252127 0 0 0 0 89.444702
-0.012495487 -5.7001429 5.5917759 0 0 0 0 89.449654
0.6471054 -6.0994811 5.74266 0 0 0 0 89.454597
0.45356375 -5.9217563 5.6548419 0 0 0 0 89.459549
0.28026053 -5.8432407 5.6425471 0 0 0 0 89.464493
0.10878653 -5.7467995 5.6232257 0 0 0 0 89.469437
0.81022149 -6.2665296 5.9311757 0 0 0 0 89.474388
0.58843875 -5.9401188 5.6880217 0 0 0 0 89.479332
0.41005018 -5.8553243 5.6558352 0 0 0 0 89.484283
0.23170651 -5.7755308 5.6386485 0 0 0 0 89.489227
0.95834559 -6.2605872 5.9600883 0 0 0 0 89.494171
0.72380924 -5.9454994 5.7111955 0 0 0 0 89.499123
0.53877133 -5.871357 5.6761417 0 0 0 0 89.504066
0.35681859 -5.8003807 5.6530247 0 0 0 0 89.509018
1.1021835 -6.2363963 5.976099 0 0 0 0 89.513962
0.88434732 -6.1254325 5.9057546 0 0 0 0 89.518906
0.67061687 -5.8855619 5.6973829 0 0 0 0 89.523857
0.48370227 -5.8333387 5.6773591 0 0 0 0 89.528801
1.2488352 -6.2203703 6.004045 0 0 0 0 89.533752
1.0323535 -6.1755538 5.9786382 0 0 0 0 89.538696
0.80249208 -5.900773 5.722621 0 0 0 0 89.543648
0.61020404 -5.8502631 5.6897082 0 0 0 0 89.548592
1.3910593 -6.1890922 6.0200906 0 0 0 0 89.553535
1.1734993 -6.1652431 5.9976935 0 0 0 0 89.558487
0.96657461 -6.1179504 5.9440823 0 0 0 0 89.563431
0.73944259 -5.8763494 5.7129936 0 0 0 0 89.568382
1.1903598 -4.7537026 4.6740346 0 0 0 0 89.573326
1.3136444 -6.1568837 6.0217681 0 0 0 0 89.57827
1.1081899 -6.1447115 5.9861069 0 0 0 0 89.583221
0.88022363 -5.9761448 5.8089986 0 0 0 0 89.588165
1.1333708 -4.7586451 4.6942625 0 0 0 0 89.598061
1.2466542 -6.1472807 6.0062079 0 0 0 0 89.603012
1.0395958 -6.150034 5.9805741 0 0 0 0 89.607956
1.3862556 -6.1489134 6.0302844 0 0 0 0 89.622795
1.1791695 -6.1716905 6.0076394 0 0 0 0 89.627747
1.8899111 -5.8429747 5.8958421 0 0 0 0 89.63269
1.1824868 -4.7283688 4.6692858 0 0 0 0 89.642586
1.3181537 -6.1823077 6.0257201 0 0 0 0 89.64753
2.0311422 -5.8206697 5.9348979 0 0 0 0 89.652481
1.8428328 -5.9746203 6.0017867 0 0 0 0 89.657425
2.1668823 -5.7850556 5.9640746 0 0 0 0 89.672264
1.9444493 -5.8400497 5.9147282 0 0 0 0 89.677216
2.2970209 -5.7383862 5.9846139 0 0 0 0 90.115311
2.0848286 -5.8339019 5.9580612 0 0 0 0 90.120255
1.8915316 -5.9344583 5.9381046 0 0 0 0 90.125206
2.430186 -5.6946836 6.011826 0 0 0 0 90.135094
2.2182915 -5.80023 5.9782596 0 0 0 0 90.140045
2.019887 -5.8925023 5.9324131 0 0 0 0 90.144989
1.8935879 -6.2269859 6.1349163 0 0 0 0 90.14994
2.5578434 -5.6376677 6.0281606 0 0 0 0 90.154884
2.3518322 -5.7655659 5.9994555 0 0 0 0 90.159836
2.1639407 -5.8924565 5.9723659 0 0 0 0 90.16478
1.9659659 -5.9977641 5.9335046 0 0 0 0 90.169724
2.684603 -5.5796041 6.0465136 0 0 0 0 90.174675
2.4863906 -5.7329631 6.0266275 0 0 0 0 90.179619
2.2997942 -5.8699403 5.9925027 0 0 0 0 90.18457
2.1060174 -5.9894977 5.9525423 0 0 0 0 90.189514
2.805788 -5.5102258 6.0559897 0 0 0 0 90.194458
2.616385 -5.6881003 6.042901 0 0 0 0 90.199409
2.4397147 -5.8486524 6.0185509 0 0 0 0 90.204353
2.2535925 -5.9966664 5.9884109 0 0 0 0 90.209305
2.984725 -5.5501375 6.1901836 0 0 0 0 90.214249
2.7456367 -5.6381941 6.0581918 0 0 0 0 90.219193
2.5787821 -5.8243179 6.0436182 0 0 0 0 90.224144
2.4006686 -5.9927983 6.0192947 0 0 0 0 90.229088
3.1706221 -5.5944409 6.3332253 0 0 0 0 90.234039
2.8758519 -5.5913482 6.0794597 0 0 0 0 90.238983
2.7161326 -5.7928863 6.0637231 0 0 0 0 90.243935
2.5460396 -5.9808335 6.0432172 0 0 0 0 90.248878
3.2903552 -5.5159836 6.3447332 0 0 0 0 90.253822
3.0893698 -5.6992483 6.2728772 0 0 0 0 90.258774
2.8479853 -5.7491417 6.0759506 0 0 0 0 90.263718
2.692529 -5.9679327 6.0701141 0 0 0 0 90.268669
3.4130149 -5.4416957 6.3631754 0 0 0 0 90.273613
3.2523179 -5.7002602 6.3554215 0 0 0 0 90.278557
2.9865544 -5.7157817 6.1010289 0 0 0 0 90.283508
2.8365149 -5.9428844 6.0890698 0 0 0 0 90.288452
3.5308983 -5.3621416 6.3787217 0 0 0 0 90.293404
3.3832996 -5.6384516 6.3736768 0 0 0 0 90.298347
3.2416577 -5.8920608 6.3545184 0 0 0 0 90.303299
2.9788055 -5.9107394 6.104064 0 0 0 0 90.308243
3.6545773 -5.2919192 6.4081378 0 0 0 0 90.313187
3.5180707 -5.5848641 6.4028454 0 0 0 0 90.318138
3.3820014 -5.8427892 6.3745637 0 0 0 0 90.323082
3.1438336 -5.9198947 6.1645508 0 0 0 0 90.328033
3.7755527 -5.2155442 6.4356151 0 0 0 0 90.332977
3.6415837 -5.5106373 6.4142632 0 0 0 0 90.337921
3.527132 -5.8017945 6.4055009 0 0 0 0 90.342873
3.4019637 -6.0863509 6.3939719 0 0 0 0 90.347816
3.8829558 -5.1234097 6.4433875 0 0 0 0 90.352768
3.7737303 -5.4499044 6.4424896 0 0 0 0 90.357712
3.6686738 -5.7505951 6.4295187 0 0 0 0 90.362656
3.5547066 -6.0497899 6.4177403 0 0 0 0 90.367607
3.9972172 -5.0406637 6.4680085 0 0 0 0 90.372551
3.8973217 -5.3766904 6.4599032 0 0 0 0 90.377502
3.8084543 -5.6942964 6.4515758 0 0 0 0 90.382446
3.7086029 -6.0112948 6.4434834 0 0 0 0 90.387398
4.1057415 -4.9495969 6.4837542 0 0 0 0 90.392342
4.0210142 -5.302484 6.4793143 0 0 0 0 90.397285
3.9425397 -5.6296792 6.4667563 0 0 0 0 90.402237
3.8608608 -5.9647045 6.4652643 0 0 0 0 90.407181
4.2054791 -4.8510423 6.4906907 0 0 0 0 90.412132
4.1429133 -5.2241769 6.4977641 0 0 0 0 90.417076
4.0826106 -5.5693998 6.4918065 0 0 0 0 90.42202
4.0103593 -5.9129601 6.4851055 0 0 0 0 90.426971
4.3121305 -4.7608771 6.5144749 0 0 0 0 90.431915
4.2619653 -5.1427126 6.5152755 0 0 0 0 90.436867
4.2151127 -5.497694 6.5080228 0 0 0 0 90.441811
4.1676946 -5.8686609 6.5157743 0 0 0 0 90.446762
4.4158707 -4.667552 6.5343218 0 0 0 0 90.451706
4.3772941 -5.0550389 6.5298686 0 0 0 0 90.45665
4.3563709 -5.4364858 6.5390453 0 0 0 0 90.461601
4.3234687 -5.8152685 6.543479 0 0 0 0 90.466545
4.508985 -4.5626311 6.5424004 0 0 0 0 90.471497
4.4984441 -4.9746981 6.5543327 0 0 0 0 90.47644
4.4892201 -5.3597999 6.5582547 0 0 0 0 90.481384
4.4716744 -5.7504501 6.5623507 0 0 0 0 90.486336
4.6079631 -4.465044 6.5623493 0 0 0 0 90.49128
4.6119585 -4.8849277 6.5719638 0 0 0 0 90.496231
4.6191664 -5.2809553 6.5765257 0 0 0 0 90.501175
4.62293 -5.6868057 6.5861549 0 0 0 0 90.506119
4.701036 -4.3641295 6.5784254 0 0 0 0 90.51107
4.724534 -4.7941084 6.5896149 0 0 0 0 90.516014
4.7550774 -5.2064481 6.6036658 0 0 0 0 90.520966
4.7743964 -5.6201725 6.6119552 0 0 0 0 90.525909
4.7902641 -4.2600021 6.5935841 0 0 0 0 90.530861
4.8333535 -4.6980777 6.6053472 0 0 0 0 90.535805
4.883399 -5.120513 6.6209731 0 0 0 0 90.540749
4.9299664 -5.5537701 6.6426663 0 0 0 0 90.5457
4.8766036 -4.1527143 6.6058059 0 0 0 0 90.550644
4.943172 -4.6041074 6.6260571 0 0 0 0 90.555595
5.0090075 -5.0294242 6.63834 0 0 0 0 90.560539
5.0818477 -5.4801602 6.6694584 0 0 0 0 90.565483
4.9639854 -4.0474868 6.6250043 0 0 0 0 90.570435
5.0432744 -4.5005932 6.6359777 0 0 0 0 90.575378
5.1385064 -4.9435601 6.66362 0 0 0 0 90.58033
5.22717 -5.3961797 6.6903958 0 0 0 0 90.585274
5.0377855 -3.9291177 6.6275978 0 0 0 0 90.33831
5.1545944 -4.4032912 6.6627693 0 0 0 0 90.343254
5.261786 -4.8458948 6.6821647 0 0 0 0 90.348206
5.3701267 -5.3065872 6.7085242 0 0 0 0 90.353149
5.1063824 -3.8118308 6.6282067 0 0 0 0 90.358101
5.2558484 -4.2998214 6.6806731 0 0 0 0 90.363045
5.379828 -4.7453604 6.6967058 0 0 0 0 90.367989
5.5255713 -5.2261405 6.7442546 0 0 0 0 90.37294
5.04144 -3.5991108 6.4617014 0 0 0 0 90.377884
5.3483496 -4.1878643 6.688767 0 0 0 0 90.382835
5.5069156 -4.6493301 6.724051 0 0 0 0 90.387779
5.6684604 -5.1319914 6.7662578 0 0 0 0 90.392723
5.0692253 -3.4605615 6.4191885 0 0 0 0 90.397675
5.4477901 -4.0822973 6.7097092 0 0 0 0 90.402618
5.6300812 -4.5510855 6.7494802 0 0 0 0 90.40757
5.8046789 -5.0294695 6.7824063 0 0 0 0 90.412514
5.1436462 -3.3546078 6.4396682 0 0 0 0 90.417458
5.5364385 -3.9681301 6.7188845 0 0 0 0 90.422409
5.7367797 -4.4359188 6.7572675 0 0 0 0 90.427353
5.9518504 -4.9335608 6.8123174 0 0 0 0 90.432304
5.2081723 -3.2431059 6.4513607 0 0 0 0 90.437248
5.6222291 -3.8518043 6.7291217 0 0 0 0 90.4422
5.8504295 -4.3261428 6.7759037 0 0 0 0 90.447144
6.0933928 -4.8293357 6.8383517 0 0 0 0 90.452087
5.2687902 -3.1283872 6.4591374 0 0 0 0 90.457039
5.7130208 -3.738759 6.7472501 0 0 0 0 90.461983
5.9770594 -4.2240915 6.8122587 0 0 0 0 90.466934
6.2242637 -4.7155156 6.855618 0 0 0 0 90.471878
5.334363 -3.0189476 6.4778061 0 0 0 0 90.476822
5.7919893 -3.618057 6.7546334 0 0 0 0 90.481773
6.0673056 -4.0950103 6.8104019 0 0 0 0 90.486717
6.3582959 -4.6008716 6.8778157 0 0 0 0 90.491669
5.3900199 -2.9039578 6.4866881 0 0 0 0 90.496613
5.8730664 -3.497472 6.7669716 0 0 0 0 90.501564
6.1773715 -3.9790368 6.8321157 0 0 0 0 90.506508
6.4786534 -4.4754643 6.8883104 0 0 0 0 90.511452
5.444747 -2.7889168 6.49859 0 0 0 0 90.516403
5.9511747 -3.376725 6.7803726 0 0 0 0 90.521347
6.2886033 -3.8621285 6.8588042 0 0 0 0 90.526299
6.6139669 -4.3578939 6.9154801 0 0 0 0 90.531242
5.4864788 -2.6681566 6.4967713 0 0 0 0 90.536186
5.8370986 -3.1522887 6.5799203 0 0 0 0 90.541138
6.3821926 -3.732235 6.8698754 0 0 0 0 90.546082
6.7455683 -4.2351141 6.9427323 0 0 0 0 90.551033
5.5412455 -2.554121 6.512671 0 0 0 0 90.555977
5.8772864 -3.0154362 6.5581379 0 0 0 0 90.560921
6.4827676 -3.6067333 6.8907952 0 0 0 0 90.565872
6.6307573 -3.9625843 6.7243209 0 0 0 0 90.570816
5.5769534 -2.4330306 6.5089803 0 0 0 0 90.575768
5.9414158 -2.891917 6.5658388 0 0 0 0 90.580711
6.3148165 -3.3382778 6.6335154 0 0 0 0 90.585663
6.7177844 -3.8173227 6.7165356 0 0 0 0 90.590607
5.6238112 -2.3165574 6.5230503 0 0 0 0 90.595551
6.0116439 -2.7707369 6.5834084 0 0 0 0 90.600502
6.3944492 -3.2056143 6.6398854 0 0 0 0 90.605446
6.8466353 -3.6933937 6.7518463 0 0 0 0 90.610397
5.6565981 -2.1953058 6.5224218 0 0 0 0 90.615341
6.0699048 -2.6448936 6.5912347 0 0 0 0 90.620285
6.4921284 -3.0819557 6.6698656 0 0 0 0 90.625237
6.9508939 -3.5530915 6.7656898 0 0 0 0 90.63018
5.6954274 -2.0773904 6.5316634 0 0 0 0 90.635132
6.130219 -2.5201654 6.6040173 0 0 0 0 90.640076
6.5799689 -2.9517496 6.6910591 0 0 0 0 90.64502
7.0423422 -3.4060762 6.7718105 0 0 0 0 90.649971
5.7312455 -1.9593096 6.539969 0 0 0 0 90.654915
6.1885967 -2.39433 6.6168408 0 0 0 0 90.659866
6.6479282 -2.8124378 6.6956816 0 0 0 0 90.66481
7.1418085 -3.2625096 6.786757 0 0 0 0 90.669762
5.7651052 -1.84012 6.5473166 0 0 0 0 90.674706
6.23104 -2.2616086 6.6160083 0 0 0 0 90.679649
6.7179418 -2.6742418 6.7052588 0 0 0 0 90.684601
7.2414994 -3.1169534 6.8067002 0 0 0 0 90.689545
5.7868867 -1.7182618 6.5449238 0 0 0 0 90.694496
6.2825418 -2.1323915 6.6259809 0 0 0 0 90.69944
6.7941651 -2.5363884 6.7247043 0 0 0 0 90.704384
7.328392 -2.9636834 6.8169203 0 0 0 0 90.709335
5.8217936 -1.6011319 6.5592484 0 0 0 0 90.714279
6.3270745 -2.0017881 6.6341028 0 0 0 0 90.719231
6.8534341 -2.3915925 6.7295141 0 0 0 0 90.724174
7.415432 -2.8094211 6.8311386 0 0 0 0 90.729126
5.8385377 -1.4799966 6.556963 0 0 0 0 90.73407
6.3686633 -1.8690205 6.6392889 0 0 0 0 90.739014
6.9137931 -2.2468576 6.7383018 0 0 0 0 90.743965
7.492568 -2.6506076 6.8385701 0 0 0 0 90.748909
5.8532681 -1.3587501 6.55372 0 0 0 0 90.75386
6.4092898 -1.7372005 6.6484952 0 0 0 0 90.758804
6.9642344 -2.0985703 6.7423034 0 0 0 0 90.763748
7.560883 -2.4873016 6.8431931 0 0 0 0 90.7687
5.8791962 -1.2401229 6.565238 0 0 0 0 90.773643
6.4389138 -1.601769 6.6489387 0 0 0 0 90.778595
7.0116649 -1.9501179 6.745369 0 0 0 0 90.783539
7.6492667 -2.3311143 6.8673825 0 0 0 0 90.788483
5.8868494 -1.1194857 6.5601463 0 0 0 0 90.793434
6.4675446 -1.4662828 6.6494031 0 0 0 0 90.798378
7.0642867 -1.8019515 6.7573237 0 0 0 0 90.803329
7.7108507 -2.1634314 6.8731523 0 0 0 0 90.808273
5.9071116 -1.0015502 6.5696807 0 0 0 0 90.976265
6.493485 -1.3327473 6.651783 0 0 0 0 90.981216
7.1193209 -1.6541163 6.7730474 0 0 0 0 90.98616
7.7787132 -1.9994036 6.8865638 0 0 0 0 90.991112
5.9117861 -0.8817476 6.5666542 0 0 0 0 90.996056
6.5253019 -1.1984409 6.662179 0 0 0 0 91.000999
7.1519551 -1.5008435 6.7724314 0 0 0 0 91.005951
7.8365979 -1.8285196 6.8964128 0 0 0 0 91.010895
5.9266286 -0.76350951 6.5744085 0 0 0 0 91.015846
6.5409837 -1.0612367 6.6599221 0 0 0 0 91.02079
7.1948037 -1.3491377 6.7845964 0 0 0 0 91.025734
7.8793893 -1.6547959 6.8955865 0 0 0 0 91.030685
5.9242377 -0.64331388 6.567534 0 0 0 0 91.035629
6.5637412 -0.92642725 6.6665125 0 0 0 0 91.040581
7.2195539 -1.1934234 6.7831521 0 0 0 0 91.045525
7.9273734 -1.4813595 6.9036493 0 0 0 0 91.050476
5.9330568 -0.52474022 6.5734186 0 0 0 0 91.05542
6.5765033 -0.78905904 6.6673198 0 0 0 0 91.060364
7.2402959 -1.037486 6.7807941 0 0 0 0 91.065315
7.9744644 -1.306872 6.913733 0 0 0 0 91.070259
5.9255505 -0.40626171 6.5656528 0 0 0 0 91.075211
6.5861773 -0.65252095 6.6661925 0 0 0 0 91.080154
7.2783904 -0.88351178 6.7980642 0 0 0 0 91.085098
8.0156078 -1.1310521 6.922945 0 0 0 0 91.09005
5.920032 -0.28889444 6.5598445 0 0 0 0 91.094994
6.5990582 -0.5151574 6.671998 0 0 0 0 91.099945
7.2901731 -0.72607356 6.793901 0 0 0 0 91.104889
8.1806288 -0.9681226 7.0414901 0 0 0 0 91.109833
5.9207673 -0.17187107 6.5659032 0 0 0 0 91.114784
6.599637 -0.37911329 6.6680665 0 0 0 0 91.119728
7.3000302 -0.56852621 6.7927794 0 0 0 0 91.12468
8.208004 -0.78653061 7.0470023 0 0 0 0 91.129623
5.9091911 -0.055165883 6.5592256 0 0 0 0 91.134575
6.6024041 -0.24218702 6.6700902 0 0 0 0 91.139519
7.3119197 -0.41209239 6.7956147 0 0 0 0 91.144463
8.1735239 -0.59949571 7.0038471 0 0 0 0 91.149414
5.8997583 0.062423453 6.5565038 0 0 0 0 91.154358
6.604156 -0.10520419 6.6711359 0 0 0 0 91.159309
7.3158002 -0.25421032 6.7946239 0 0 0 0 91.164253
8.2102432 -0.41841963 7.0251603 0 0 0 0 91.169197
5.9026208 0.178331 6.570518 0 0 0 0 91.174149
6.5927076 0.031513214 6.6644659 0 0 0 0 91.179092
7.3156366 -0.097103067 6.7937202 0 0 0 0 91.184044
8.2644634 -0.23631319 7.0650983 0 0 0 0 91.188988
5.8849349 0.2933768 6.5629725 0 0 0 0 91.193932
6.5812511 0.16723114 6.6597958 0 0 0 0 91.198883
7.3309331 0.06114924 6.8094859 0 0 0 0 91.203827
8.265852 -0.051267032 7.0631742 0 0 0 0 91.208778
5.8589821 0.40687999 6.5476036 0 0 0 0 91.213722
6.5677476 0.30206299 6.65517 0 0 0 0 91.218674
7.3421869 0.21862638 6.8253384 0 0 0 0 91.223618
8.2489719 0.13279666 7.0526443 0 0 0 0 91.228561
5.8485742 0.52152574 6.5529037 0 0 0 0 91.233513
6.5574298 0.43772143 6.656477 0 0 0 0 91.238457
7.3670168 0.37935632 6.857903 0 0 0 0 91.243408
8.22089 0.31648436 7.0343556 0 0 0 0 91.248352
5.8237796 0.63496953 6.5445123 0 0 0 0 91.253296
6.5440106 0.57155138 6.6578507 0 0 0 0 91.258247
7.4001894 0.54162604 6.9012899 0 0 0 0 91.263191
8.154007 0.49833027 6.9869022 0 0 0 0 91.268143
5.8082123 0.74790174 6.5469227 0 0 0 0 91.273087
6.5204625 0.70594734 6.6524434 0 0 0 0 91.278038
7.3728542 0.69925284 6.8919754 0 0 0 0 91.282982
8.0972481 0.67661285 6.9532299 0 0 0 0 91.287926
5.7845335 0.86128747 6.543509 0 0 0 0 91.292877
6.4886479 0.83880168 6.6392131 0 0 0 0 91.297821
7.3332949 0.85656154 6.8739243 0 0 0 0 91.302773
8.1104021 0.86202019 6.9830608 0 0 0 0 91.307716
5.7483172 0.97036433 6.5273619 0 0 0 0 91.31266
6.4610267 0.97142613 6.6348948 0 0 0 0 91.317612
7.2988157 1.011588 6.8647637 0 0 0 0 91.322556
7.4673638 0.96082133 6.4539595 0 0 0 0 91.327507
5.7256417 1.0816953 6.5289273 0 0 0 0 91.332451
6.4344177 1.1029952 6.6335545 0 0 0 0 91.337395
7.2623677 1.1667271 6.8566475 0 0 0 0 91.342346
8.1691628 1.2420477 7.0820312 0 0 0 0 91.34729
5.6946979 1.1914852 6.5226698 0 0 0 0 91.352242
6.3995852 1.2330214 6.6263909 0 0 0 0 91.357185
7.2518692 1.3264332 6.8779774 0 0 0 0 91.362137
