# .PCD v0.7 - Point Cloud Data file format
VERSION 0.7
FIELDS x y z normal_x normal_y normal_z intensity curvature
SIZE 4 4 4 4 4 4 4 4
TYPE F F F F F F F F
COUNT 1 1 1 1 1 1 1 1
WIDTH 443
HEIGHT 1
VIEWPOINT 0 0 0 1 0 0 0
POINTS 443
DATA ascii
5.0465398 -2.89816 5.258563 0 0 0 0 32.461166
5.3687706 -2.7714269 6.7466769 0 0 0 0 32.466114
5.7587142 -3.1825652 6.8231568 0 0 0 0 32.471062
6.1786647 -3.6267204 6.9175968 0 0 0 0 32.476006
4.8426781 -2.1600871 6.4454956 0 0 0 0 32.480953
5.4338017 -2.6594028 6.7617621 0 0 0 0 32.485901
5.8537588 -3.0685546 6.8522224 0 0 0 0 32.490849
6.2897096 -3.5027101 6.9426594 0 0 0 0 32.495796
4.8827033 -2.058058 6.4575906 0 0 0 0 32.500744
5.4888253 -2.542371 6.7678585 0 0 0 0 32.505688
5.9317908 -2.9465306 6.8653069 0 0 0 0 32.510635
6.3967524 -3.3756969 6.9657269 0 0 0 0 32.515583
4.9137192 -1.9510205 6.4586945 0 0 0 0 32.520531
5.5488563 -2.4273448 6.7839494 0 0 0 0 32.525478
6.0098248 -2.8225074 6.8813915 0 0 0 0 32.530426
6.4967909 -3.2436781 6.9838028 0 0 0 0 32.53537
4.9627552 -1.8520008 6.4867792 0 0 0 0 32.540318
5.6008811 -2.3093126 6.7930474 0 0 0 0 32.545265
6.0858593 -2.6964829 6.898479 0 0 0 0 32.550213
6.6088414 -3.1156697 7.0188665 0 0 0 0 32.555161
4.9937739 -1.7459649 6.4928818 0 0 0 0 32.560108
5.6599112 -2.1932857 6.8111382 0 0 0 0 32.565052
6.1719012 -2.5734663 6.9275565 0 0 0 0 32.57
6.6978755 -2.9736431 7.0309567 0 0 0 0 32.574947
5.0187879 -1.6399252 6.4949884 0 0 0 0 32.579895
5.7119384 -2.0742548 6.8252358 0 0 0 0 32.584843
6.2329264 -2.4384313 6.93366 0 0 0 0 32.589787
6.6337991 -2.7665019 6.8882012 0 0 0 0 32.594734
5.0488086 -1.5348909 6.5060902 0 0 0 0 32.599682
5.7699718 -1.9572294 6.8493271 0 0 0 0 32.60463
6.2559218 -2.2913673 6.9007988 0 0 0 0 32.609577
6.6097565 -2.582396 6.7943997 0 0 0 0 32.614525
5.0758262 -1.4298545 6.515193 0 0 0 0 32.619469
5.7949767 -1.8291777 6.8364496 0 0 0 0 32.624416
6.1308026 -2.0941918 6.7090788 0 0 0 0 32.629364
6.7168112 -2.4503887 6.8384676 0 0 0 0 32.634312
5.0988412 -1.3238155 6.5212994 0 0 0 0 32.639259
5.6428318 -1.6489865 6.6187363 0 0 0 0 32.644207
6.1868291 -1.9621581 6.7201815 0 0 0 0 32.649151
6.7968469 -2.3073616 6.8575621 0 0 0 0 32.654099
5.1198545 -1.2167752 6.5264068 0 0 0 0 32.659046
5.6678414 -1.52694 6.613853 0 0 0 0 32.663994
6.2508636 -1.8311316 6.7432761 0 0 0 0 32.668941
6.8648763 -2.1583273 6.8686676 0 0 0 0 32.673889
5.1368656 -1.1107332 6.5305161 0 0 0 0 32.678833
5.6928525 -1.4048948 6.611968 0 0 0 0 32.683781
6.2998881 -1.6960951 6.7543845 0 0 0 0 32.688728
6.9399128 -2.0082986 6.8897686 0 0 0 0 32.693676
5.1548796 -1.0046932 6.5386238 0 0 0 0 32.698624
5.7358804 -1.2858644 6.6340675 0 0 0 0 32.703568
6.3459101 -1.5600564 6.7634945 0 0 0 0 32.708515
6.989933 -1.8522539 6.8898902 0 0 0 0 32.713463
5.1708894 -0.89865053 6.5427322 0 0 0 0 32.71841
5.7709012 -1.1658275 6.6471729 0 0 0 0 32.723358
6.3889332 -1.4220176 6.7746072 0 0 0 0 32.728306
7.0609703 -1.7002245 6.9149933 0 0 0 0 32.73325
5.1798959 -0.79160482 6.5438457 0 0 0 0 32.738197
5.7889094 -1.0417799 6.6452918 0 0 0 0 32.743145
6.4279537 -1.2829765 6.7837219 0 0 0 0 32.748093
7.1079912 -1.5411797 6.919117 0 0 0 0 32.75304
5.1899028 -0.68556017 6.5469565 0 0 0 0 32.757988
5.8169274 -0.91974032 6.6574016 0 0 0 0 32.762932
6.463973 -1.1429343 6.7928391 0 0 0 0 32.767879
7.1570163 -1.382138 6.9302382 0 0 0 0 32.772827
5.1989102 -0.57851559 6.5510678 0 0 0 0 32.777775
5.839942 -0.79669803 6.6665144 0 0 0 0 32.782722
6.4909873 -1.0008872 6.7959628 0 0 0 0 32.78767
7.2280574 -1.2261109 6.9653406 0 0 0 0 32.792614
5.2099195 -0.47347349 6.5601754 0 0 0 0 32.797562
5.8549509 -0.67265081 6.668633 0 0 0 0 32.802509
6.5290122 -0.85984892 6.8150764 0 0 0 0 32.807457
7.2500687 -1.0600545 6.9584832 0 0 0 0 32.812405
5.2099204 -0.36742419 6.5582914 0 0 0 0 32.817352
5.8719635 -0.54860675 6.6777487 0 0 0 0 32.822296
6.546021 -0.71679693 6.8132057 0 0 0 0 32.827244
7.2770829 -0.89600199 6.9586196 0 0 0 0 32.832191
5.2149258 -0.26237887 6.5634017 0 0 0 0 32.837139
5.8839717 -0.42455935 6.6818676 0 0 0 0 32.842087
6.5700369 -0.5717513 6.8233294 0 0 0 0 32.847031
7.3101034 -0.7299546 6.968751 0 0 0 0 32.851978
5.211925 -0.15632893 6.5615172 0 0 0 0 32.856926
5.8819704 -0.29950401 6.6739955 0 0 0 0 32.861874
6.5950556 -0.42770749 6.8384509 0 0 0 0 32.866821
7.3441257 -0.56490904 6.98388 0 0 0 0 32.871769
5.2119269 -0.050281651 6.5646296 0 0 0 0 32.876713
5.8959823 -0.17446005 6.68611 0 0 0 0 32.88166
6.5950561 -0.28264868 6.8295889 0 0 0 0 32.886608
7.3471293 -0.39684686 6.974031 0 0 0 0 32.891556
5.2109284 0.053765472 6.5687404 0 0 0 0 32.896503
5.8979859 -0.049409486 6.6882329 0 0 0 0 32.901451
6.6070671 -0.13759866 6.8367176 0 0 0 0 32.906395
7.3891611 -0.22980863 7.0051527 0 0 0 0 32.911343
5.2109313 0.15781125 6.5758495 0 0 0 0 32.91629
5.8989892 0.07364092 6.6913538 0 0 0 0 32.921238
6.6170778 0.0074511394 6.8458462 0 0 0 0 32.926186
7.3851628 -0.060745202 6.9963059 0 0 0 0 32.931133
5.1982899 0.26212347 6.5689344 0 0 0 0 32.633541
5.8963652 0.19790092 6.6913652 0 0 0 0 32.638489
6.6114664 0.15266326 6.8407946 0 0 0 0 32.643436
7.3895741 0.10740776 6.9981761 0 0 0 0 32.648384
5.1832852 0.36517936 6.5610604 0 0 0 0 32.653328
5.8913741 0.32295257 6.6944995 0 0 0 0 32.658276
6.6094804 0.29771721 6.8449402 0 0 0 0 32.663223
7.3895917 0.27546552 7.0013361 0 0 0 0 32.668171
5.1832981 0.47122139 6.5751753 0 0 0 0 32.673119
5.8793774 0.4470087 6.6916366 0 0 0 0 32.678066
6.6074958 0.44477034 6.8510852 0 0 0 0 32.68301
7.4416518 0.44848627 7.0584555 0 0 0 0 32.687958
5.1602883 0.57328129 6.5623055 0 0 0 0 32.692905
5.8633785 0.5710665 6.6867757 0 0 0 0 32.697853
6.5995078 0.59082592 6.8552322 0 0 0 0 32.702801
7.4917116 0.62350762 7.1175766 0 0 0 0 32.707745
5.1532941 0.67732811 6.5694232 0 0 0 0 32.712692
5.8553882 0.69611698 6.6939077 0 0 0 0 32.71764
6.5775094 0.73488957 6.8483882 0 0 0 0 32.722588
7.4497037 0.79258871 7.0927644 0 0 0 0 32.727535
5.1362915 0.77938092 6.5685453 0 0 0 0 32.732483
5.8303819 0.81717932 6.6830497 0 0 0 0 32.737427
6.5515094 0.87895435 6.8405457 0 0 0 0 32.742374
7.3996916 0.95967233 7.0649552 0 0 0 0 32.747322
5.1122832 0.88143861 6.5596724 0 0 0 0 32.75227
5.8123851 0.94123411 6.6851854 0 0 0 0 32.757217
6.5335169 1.0230123 6.8436942 0 0 0 0 32.762165
7.4667697 1.1426787 7.1530623 0 0 0 0 32.767109
5.1012874 0.98548537 6.568789 0 0 0 0 32.772057
5.7913861 1.0642903 6.6853218 0 0 0 0 32.777004
6.4905066 1.1640847 6.8258595 0 0 0 0 32.781952
7.3677244 1.3007897 7.0862818 0 0 0 0 32.7869
5.0762777 1.085542 6.561913 0 0 0 0 32.791847
5.7653832 1.1853487 6.6824598 0 0 0 0 32.796791
6.4745197 1.3091376 6.839004 0 0 0 0 32.801739
7.3667555 1.475836 7.118433 0 0 0 0 32.806686
5.0482669 1.1855996 6.554038 0 0 0 0 32.811634
5.7343769 1.3064092 6.6766 0 0 0 0 32.816582
6.4535289 1.4541928 6.8491502 0 0 0 0 32.821526
7.3107467 1.639915 7.1016183 0 0 0 0 32.826473
5.0202575 1.285656 6.5481615 0 0 0 0 32.831421
5.7013702 1.4254696 6.6717386 0 0 0 0 32.836369
6.4435501 1.6022385 6.8762884 0 0 0 0 32.841316
7.2507348 1.8019949 7.0828028 0 0 0 0 32.846264
4.9972525 1.3877077 6.550281 0 0 0 0 32.851208
5.660358 1.5435342 6.6598806 0 0 0 0 32.856155
6.4275661 1.7492876 6.8994288 0 0 0 0 32.861103
7.1697097 1.9570847 7.0489969 0 0 0 0 32.866051
4.9812555 1.4907533 6.5633936 0 0 0 0 32.870998
5.6273527 1.6625922 6.6590161 0 0 0 0 32.875946
6.3915687 1.8923476 6.9055796 0 0 0 0 32.88089
7.0676703 2.1051846 6.9982009 0 0 0 0 32.885838
4.9462395 1.5878121 6.5535169 0 0 0 0 32.890785
5.5883431 1.7806526 6.6541538 0 0 0 0 32.895733
6.3485656 2.0334105 6.906733 0 0 0 0 32.900681
6.9986567 2.2602627 6.9823809 0 0 0 0 32.905628
4.9082227 1.6848714 6.5426402 0 0 0 0 32.910572
5.5433297 1.8957156 6.6452928 0 0 0 0 32.91552
6.2945557 2.1704786 6.9008904 0 0 0 0 32.920467
6.965673 2.4273171 7.0075383 0 0 0 0 32.925415
4.8702059 1.7809302 6.5327625 0 0 0 0 32.930363
5.5033231 2.0137732 6.6464272 0 0 0 0 32.935307
6.2365422 2.3055477 6.8920469 0 0 0 0 32.940254
6.9537082 2.6053572 7.0596833 0 0 0 0 32.945202
4.8351922 1.8789854 6.5288811 0 0 0 0 32.95015
5.4503045 2.1258385 6.6335669 0 0 0 0 32.955097
6.1755295 2.4396162 6.8852038 0 0 0 0 32.960045
6.2862344 2.5207751 6.4431744 0 0 0 0 32.964989
4.8021817 1.9780382 6.5299978 0 0 0 0 32.969936
5.3972874 2.2379019 6.6237049 0 0 0 0 32.974884
6.1055098 2.5696888 6.8703632 0 0 0 0 32.979832
6.8397126 2.927485 7.0840154 0 0 0 0 32.984779
4.7531567 2.0691009 6.5121207 0 0 0 0 32.989727
5.3412671 2.3479669 6.6108418 0 0 0 0 32.994671
6.0414958 2.701756 6.8655162 0 0 0 0 32.999619
6.1081877 2.7819293 6.3965163 0 0 0 0 33.004566
4.7121391 2.1641574 6.5052381 0 0 0 0 33.009514
5.2852492 2.4580293 6.6019769 0 0 0 0 33.014462
5.9704776 2.8298252 6.8566709 0 0 0 0 33.019409
6.0241685 2.9130006 6.3816805 0 0 0 0 33.024353
4.6721239 2.2602115 6.5033531 0 0 0 0 33.029301
5.2242274 2.565094 6.5891123 0 0 0 0 33.034248
5.9074669 2.9618883 6.8598189 0 0 0 0 33.039196
6.5146079 3.3367491 6.9875698 0 0 0 0 33.044144
4.6231003 2.3522706 6.4904718 0 0 0 0 33.049088
5.1632071 2.6731565 6.5802464 0 0 0 0 33.054035
5.8274426 3.0839596 6.845973 0 0 0 0 33.058983
6.412581 3.4728286 6.9697442 0 0 0 0 33.063931
4.5790834 2.4473252 6.4875865 0 0 0 0 33.068878
5.104188 2.7812169 6.5743771 0 0 0 0 33.073826
5.7354107 3.2000358 6.8231301 0 0 0 0 33.07877
5.7090707 3.2632372 6.2911825 0 0 0 0 33.083717
4.5310631 2.5393808 6.4817009 0 0 0 0 33.088665
5.0361629 2.883281 6.5605097 0 0 0 0 33.093613
5.6533871 3.3201048 6.8122792 0 0 0 0 33.09856
6.1975203 3.733988 6.9300885 0 0 0 0 33.103508
4.4790926 2.6307609 6.4732914 0 0 0 0 33.687748
4.9741397 2.9917314 6.5601587 0 0 0 0 33.692696
5.5512486 3.4296734 6.7840056 0 0 0 0 33.697643
6.0913181 3.8666356 6.9198685 0 0 0 0 33.702591
4.4250593 2.7208107 6.4623818 0 0 0 0 33.707539
4.8951006 3.0877867 6.5382614 0 0 0 0 33.712486
5.4572086 3.5407319 6.7671189 0 0 0 0 33.71743
5.9842782 3.9936957 6.9079914 0 0 0 0 33.722378
4.3700266 2.8098598 6.4524698 0 0 0 0 33.727325
4.8190622 3.18384 6.5203609 0 0 0 0 33.732273
5.3731742 3.6577861 6.7642269 0 0 0 0 33.737221
5.8732376 4.1177559 6.8961129 0 0 0 0 33.742165
4.3079896 2.8939102 6.4335589 0 0 0 0 33.747112
4.7480283 3.2848907 6.5134573 0 0 0 0 33.75206
5.2811356 3.7678416 6.7533345 0 0 0 0 33.757008
5.7641988 4.2428136 6.8902311 0 0 0 0 33.761955
4.2559586 2.9849567 6.431643 0 0 0 0 33.766903
4.6669888 3.3769431 6.4945545 0 0 0 0 33.771847
5.1670861 3.862901 6.7184463 0 0 0 0 33.776794
5.1398969 3.9689894 6.2604866 0 0 0 0 33.781742
4.1999259 3.0740032 6.4267268 0 0 0 0 33.78669
4.5879512 3.4699936 6.4816489 0 0 0 0 33.791637
5.0610414 3.9609566 6.6955523 0 0 0 0 33.796585
5.5581288 4.4989219 6.9034543 0 0 0 0 33.801529
4.1288843 3.1520531 6.401813 0 0 0 0 33.806477
4.5079136 3.5640433 6.4697413 0 0 0 0 33.811424
4.9509945 4.0540118 6.6696568 0 0 0 0 33.816372
4.0658484 3.2360995 6.3908958 0 0 0 0 33.826263
4.4188704 3.6480939 6.4468341 0 0 0 0 33.831211
4.8359461 4.1430674 6.6397605 0 0 0 0 33.836159
4.0008116 3.3191457 6.3789768 0 0 0 0 33.846054
4.33283 3.7351427 6.4309239 0 0 0 0 33.851002
4.7138939 4.2231221 6.6028628 0 0 0 0 33.855946
3.9357746 3.401191 6.3690562 0 0 0 0 33.865841
4.2477908 3.8231897 6.4200115 0 0 0 0 33.870789
4.6028485 4.311173 6.5829597 0 0 0 0 33.875736
4.9018688 4.7751718 6.6489253 0 0 0 0 33.880684
3.8687375 3.4832358 6.3591347 0 0 0 0 33.885628
4.1607504 3.9072368 6.4060969 0 0 0 0 33.890575
4.4827981 4.3882251 6.5510559 0 0 0 0 33.895523
4.7798262 4.8752213 6.6450243 0 0 0 0 33.900471
3.792695 3.5582817 6.337214 0 0 0 0 33.905418
4.0677075 3.9862835 6.3871818 0 0 0 0 33.910366
4.3907638 4.4932694 6.5641437 0 0 0 0 33.91531
4.6327715 4.9462738 6.6071267 0 0 0 0 33.920258
3.7216563 3.6353252 6.3252892 0 0 0 0 33.925205
3.9756658 4.0663285 6.3732648 0 0 0 0 33.930153
4.2717152 4.5693183 6.5392342 0 0 0 0 33.935101
4.5007243 5.0323224 6.5932221 0 0 0 0 33.940048
3.6506178 3.715368 6.3153634 0 0 0 0 33.944992
3.8786211 4.1393738 6.3513465 0 0 0 0 33.94994
4.1466637 4.6373668 6.5063238 0 0 0 0 33.954887
4.3606744 5.1073704 6.5703163 0 0 0 0 33.959835
3.570575 3.7854114 6.2944374 0 0 0 0 33.964783
3.7765749 4.2084188 6.3254271 0 0 0 0 33.969727
4.0126081 4.6924148 6.4604125 0 0 0 0 33.974674
4.2196236 5.1784172 6.548408 0 0 0 0 33.979622
3.4945343 3.859453 6.280509 0 0 0 0 33.98457
3.6845338 4.2854605 6.316503 0 0 0 0 33.989517
3.8665469 4.7314639 6.3985014 0 0 0 0 33.994465
4.0815744 5.2484627 6.5304961 0 0 0 0 33.999409
3.4174941 3.9334939 6.2695789 0 0 0 0 34.004356
3.5814872 4.3505034 6.2915797 0 0 0 0 34.009304
3.7284899 4.77351 6.3465853 0 0 0 0 34.014252
3.9065077 5.2705116 6.4565883 0 0 0 0 34.019199
3.3364522 4.0045342 6.2536483 0 0 0 0 34.024147
3.4844449 4.4225435 6.2806525 0 0 0 0 34.029091
3.5994377 4.8245525 6.3096642 0 0 0 0 34.034039
3.7694595 5.3355532 6.4416695 0 0 0 0 34.038986
3.25541 4.0735736 6.2387152 0 0 0 0 34.043934
3.3713939 4.4725857 6.2417264 0 0 0 0 34.048882
3.4763892 4.8805938 6.2847404 0 0 0 0 34.053829
3.6284101 5.3925943 6.422749 0 0 0 0 34.058773
3.1743689 4.1446123 6.2277808 0 0 0 0 34.063721
3.2683492 4.535624 6.2237959 0 0 0 0 34.068668
3.3533418 4.9366326 6.263814 0 0 0 0 34.073616
3.4763553 5.4316354 6.3858285 0 0 0 0 34.078564
3.0903268 4.2116499 6.2148452 0 0 0 0 34.083508
3.1683064 4.6006618 6.2128634 0 0 0 0 34.088455
3.2302942 4.9896708 6.2418852 0 0 0 0 34.093403
3.284281 5.4006796 6.2729106 0 0 0 0 34.098351
3.0022824 4.2736874 6.1949081 0 0 0 0 34.103298
3.0672634 4.6656981 6.2039285 0 0 0 0 34.108246
3.1022451 5.034708 6.2149549 0 0 0 0 34.11319
3.1262238 5.4157181 6.2199845 0 0 0 0 34.118137
2.9152398 4.3387237 6.1819696 0 0 0 0 34.123085
2.9582167 4.7177343 6.1799936 0 0 0 0 34.128033
2.969193 5.0657444 6.1750231 0 0 0 0 34.13298
2.9841747 5.453753 6.197053 0 0 0 0 34.137928
2.8231947 4.3957591 6.1600294 0 0 0 0 34.142872
2.8511713 4.7707691 6.1620555 0 0 0 0 34.14782
2.8501482 5.1177783 6.1640859 0 0 0 0 34.152767
2.8381238 5.4787874 6.1651196 0 0 0 0 34.157715
2.7306292 4.4503188 6.1377125 0 0 0 0 33.90654
2.7406223 4.8173275 6.137764 0 0 0 0 33.911488
2.71661 5.1433387 6.1248212 0 0 0 0 33.916435
2.6906033 5.4973478 6.1288824 0 0 0 0 33.921383
2.6395876 4.5103574 6.1247807 0 0 0 0 33.926331
2.6235716 4.8523693 6.1028366 0 0 0 0 33.931278
2.5915635 5.1813784 6.1048946 0 0 0 0 33.936222
2.5515563 5.5273862 6.1119571 0 0 0 0 33.94117
2.5415409 4.5583973 6.0968485 0 0 0 0 33.946117
2.5115249 4.8934083 6.0779057 0 0 0 0 33.951065
2.466517 5.2174163 6.0849657 0 0 0 0 33.956013
2.4065056 5.5454254 6.0830307 0 0 0 0 33.960957
2.4454975 4.6114345 6.0789142 0 0 0 0 33.965904
2.4034829 4.9434443 6.0679727 0 0 0 0 33.970852
2.3374677 5.2414541 6.056035 0 0 0 0 33.9758
2.2614536 5.5554633 6.0501008 0 0 0 0 33.980747
2.3484535 4.6624713 6.059978 0 0 0 0 33.985695
2.2884345 4.9754815 6.0390382 0 0 0 0 33.990639
2.2084184 5.2624907 6.027101 0 0 0 0 33.995586
2.1214054 5.5694985 6.0271678 0 0 0 0 34.000534
2.2524116 4.7155066 6.0480394 0 0 0 0 34.005482
2.1753898 5.0135169 6.0201015 0 0 0 0 34.010429
2.0843732 5.2915249 6.0101652 0 0 0 0 34.015377
1.9803559 5.5765333 5.9992323 0 0 0 0 34.020321
2.1533673 4.7625413 6.0281 0 0 0 0 34.025269
2.0603435 5.0455513 5.9971638 0 0 0 0 34.030216
1.9543241 5.3065596 5.9802275 0 0 0 0 34.035164
1.8393061 5.5775666 5.9692941 0 0 0 0 34.040112
2.0543242 4.8095746 6.0131588 0 0 0 0 34.045059
1.9472978 5.0765843 5.9752221 0 0 0 0 34.050003
1.8292778 5.3245916 5.9582868 0 0 0 0 34.054951
1.6982565 5.5745988 5.938354 0 0 0 0 34.059898
1.9502782 4.8476081 5.9882159 0 0 0 0 34.064846
1.832253 5.106616 5.9562798 0 0 0 0 34.069794
1.703232 5.3406229 5.9373441 0 0 0 0 34.074738
1.560209 5.5736289 5.9134111 0 0 0 0 34.079685
1.8482342 4.8896394 5.9702716 0 0 0 0 34.084633
1.7192098 5.1396465 5.9423351 0 0 0 0 34.089581
1.5761856 5.3516531 5.9133992 0 0 0 0 34.094528
1.4231627 5.5706582 5.8904653 0 0 0 0 34.099476
1.7461915 4.93367 5.9573255 0 0 0 0 34.10442
1.6031637 5.1616769 5.9183893 0 0 0 0 34.109367
1.4491377 5.353682 5.882452 0 0 0 0 34.114315
1.2861143 5.5556865 5.8585176 0 0 0 0 34.119263
1.6371446 4.9607005 5.9273777 0 0 0 0 34.12421
1.4861176 5.1777058 5.8924408 0 0 0 0 34.129158
1.3240927 5.3607097 5.8615031 0 0 0 0 34.134102
1.1500666 5.5367131 5.8255672 0 0 0 0 34.13905
1.5321004 4.994729 5.9084277 0 0 0 0 34.143997
1.3670707 5.1877337 5.8614902 0 0 0 0 34.148945
1.1980467 5.3577361 5.8335519 0 0 0 0 34.153893
1.01702 5.5177388 5.7946143 0 0 0 0 34.15884
1.426057 5.029757 5.8924766 0 0 0 0 34.163784
1.2510257 5.2007604 5.8375378 0 0 0 0 34.168732
1.0740019 5.3567615 5.809598 0 0 0 0 34.173679
0.88597625 5.5037627 5.7736597 0 0 0 0 34.178627
1.3180124 5.0557837 5.869523 0 0 0 0 34.183575
1.1349823 5.2167854 5.8195839 0 0 0 0 34.188522
0.95195907 5.3597856 5.7926431 0 0 0 0 34.193466
0.75493169 5.479785 5.7457027 0 0 0 0 34.198414
1.2059649 5.0698099 5.8335686 0 0 0 0 34.203362
1.01994 5.2328091 5.8046279 0 0 0 0 34.208309
0.82791507 5.3518085 5.7676854 0 0 0 0 34.213257
0.62588739 5.451807 5.7157435 0 0 0 0 34.218201
1.0949191 5.0838346 5.8026118 0 0 0 0 34.223148
0.90089452 5.2328324 5.7736707 0 0 0 0 34.228096
0.7048707 5.3358302 5.7377257 0 0 0 0 34.233044
0.49884522 5.4268274 5.6927824 0 0 0 0 34.237991
0.98787928 5.1218572 5.8006539 0 0 0 0 34.242939
0.78485167 5.237854 5.7527103 0 0 0 0 34.247883
0.58382815 5.3248506 5.7147651 0 0 0 0 34.252831
0.37380478 5.4048462 5.6758199 0 0 0 0 34.257778
0.87683588 5.1408792 5.7796946 0 0 0 0 34.262726
0.66880935 5.2418752 5.732749 0 0 0 0 34.267673
0.46278644 5.3118696 5.692802 0 0 0 0 34.272621
0.24976261 5.3668647 5.6448545 0 0 0 0 34.277565
0.76479262 5.1569004 5.7577329 0 0 0 0 34.282513
0.55276752 5.2428946 5.7127862 0 0 0 0 34.28746
0.34374425 5.2878885 5.663837 0 0 0 0 34.292408
0.12772319 5.3378811 5.6258879 0 0 0 0 34.297356
0.6527496 5.1689205 5.7347698 0 0 0 0 34.302299
0.43672529 5.2369132 5.6878214 0 0 0 0 34.307247
0.22570425 5.2719054 5.6448703 0 0 0 0 34.312195
0.0076834625 5.2988973 5.5999193 0 0 0 0 34.317142
0.54070663 5.1769395 5.7098045 0 0 0 0 34.32209
0.32068381 5.228931 5.6638551 0 0 0 0 34.327038
0.10866407 5.2499218 5.6209016 0 0 0 0 34.331982
-0.10935611 5.252912 5.5689487 0 0 0 0 34.336929
0.42766494 5.1879573 5.6908383 0 0 0 0 34.341877
0.20564279 5.217947 5.6388865 0 0 0 0 34.346825
-0.0073756259 5.2199368 5.5939317 0 0 0 0 34.351772
-0.22539203 5.2239261 5.5589771 0 0 0 0 34.35672
0.31462279 5.1899738 5.6648703 0 0 0 0 34.361664
0.090602338 5.2049623 5.6139169 0 0 0 0 34.366611
-0.12241308 5.2009516 5.5799603 0 0 0 0 34.371559
-0.34042972 5.1739388 5.5290036 0 0 0 0 34.376507
0.20202507 5.1926932 5.6428056 0 0 0 0 34.141167
-0.021996776 5.195694 5.596869 0 0 0 0 34.146114
-0.23601669 5.1676946 5.552927 0 0 0 0 34.151062
-0.45203763 5.1236944 5.5019836 0 0 0 0 34.156006
0.087983772 5.1977139 5.625844 0 0 0 0 34.160954
-0.13603929 5.1747141 5.5699043 0 0 0 0 34.165901
-0.34805825 5.1297135 5.5249591 0 0 0 0 34.170849
-0.56307554 5.0817113 5.485014 0 0 0 0 34.175797
-0.024059398 5.1907344 5.5988803 0 0 0 0 34.180744
-0.24908008 5.1557331 5.5479383 0 0 0 0 34.185688
-0.46009693 5.0997305 5.5069909 0 0 0 0 34.190636
-0.67311418 5.0297284 5.4610424 0 0 0 0 34.195583
-0.13810204 5.1817536 5.5719151 0 0 0 0 34.200531
-0.36211947 5.1377501 5.5299711 0 0 0 0 34.205479
-0.5711354 5.0647473 5.4870205 0 0 0 0 34.210426
-0.77915221 4.9757438 5.4360685 0 0 0 0 34.21537
-0.25214186 5.1797709 5.5559492 0 0 0 0 34.220318
-0.47315994 5.1107674 5.5040011 0 0 0 0 34.225266
-0.6791746 5.0217628 5.4600482 0 0 0 0 34.230213
-0.88518757 4.9267583 5.4200945 0 0 0 0 34.235161
-0.36618304 5.1667876 5.5309806 0 0 0 0 34.240105
-0.5851993 5.0827827 5.4800305 0 0 0 0 34.245052
-0.78721029 4.9887772 5.4470754 0 0 0 0 34.25
-0.98822314 4.8737721 5.4001184 0 0 0 0 34.254948
-0.47922409 5.1478033 5.5030103 0 0 0 0 34.259895
-0.69523668 5.0587969 5.463058 0 0 0 0 34.264843
-0.8932476 4.942791 5.4221001 0 0 0 0 34.269787
-1.0862603 4.8037853 5.3651395 0 0 0 0 34.274734
-0.5922628 5.135818 5.4850392 0 0 0 0 34.279682
-0.80427539 5.0218105 5.4350839 0 0 0 0 34.28463
-0.99428666 4.880805 5.3811226 0 0 0 0 34.289577
-1.1852938 4.7467976 5.3461614 0 0 0 0 34.294525
-0.70630163 5.1178312 5.4630661 0 0 0 0 34.299469
-0.91031384 4.9788241 5.4031076 0 0 0 0 34.304417
-1.0973206 4.8388166 5.3661451 0 0 0 0 34.309364
-1.2823261 4.6898084 5.3291812 0 0 0 0 34.314312
-0.81634164 5.0848441 5.428091 0 0 0 0 34.31926
-1.0193486 4.9498348 5.3891315 0 0 0 0 34.324203
-1.1993543 4.7928271 5.3471661 0 0 0 0 34.329151
-1.377358 4.628819 5.3101997 0 0 0 0 34.334099
-0.92937815 5.065855 5.4121156 0 0 0 0 34.339046
-1.1243848 4.906846 5.3621531 0 0 0 0 34.343994
-1.2983878 4.7398372 5.3241854 0 0 0 0 34.348942
-1.4683896 4.5618281 5.2852173 0 0 0 0 34.353886
-1.0404156 5.0358653 5.3851385 0 0 0 0 34.358833
-1.2284195 4.8648553 5.3381729 0 0 0 0 34.363781
-1.3954203 4.6858463 5.3022041 0 0 0 0 34.368729
-1.5604193 4.5008373 5.2692342 0 0 0 0 34.373676
-1.1514513 5.0068746 5.3641591 0 0 0 0 34.378624
-1.3334525 4.8278642 5.3231926 0 0 0 0 34.383568
-1.4914517 4.6308546 5.2812214 0 0 0 0 34.388515
-1.6474485 4.4338455 5.2492495 0 0 0 0 34.393463
-1.3084662 5.156878 5.537189 0 0 0 0 34.398411
-1.4404833 4.798871 5.3202119 0 0 0 0 34.403358
-1.587482 4.5778623 5.2642379 0 0 0 0 34.408306
-1.7364759 4.3738527 5.2382646 0 0 0 0 34.41325
-1.422502 5.1258855 5.5202069 0 0 0 0 34.418198
-1.5905002 4.8978739 5.4612365 0 0 0 0 34.423145
-1.6815114 4.5218687 5.2462535 0 0 0 0 34.428093
-1.8195038 4.3018594 5.2152786 0 0 0 0 34.433041
-1.5335385 5.0798922 5.489223 0 0 0 0 34.437988
-1.7005311 4.8668799 5.4622526 0 0 0 0 34.442932
