# .PCD v0.7 - Point Cloud Data file format
VERSION 0.7
FIELDS x y z normal_x normal_y normal_z intensity curvature
SIZE 4 4 4 4 4 4 4 4
TYPE F F F F F F F F
COUNT 1 1 1 1 1 1 1 1
WIDTH 977
HEIGHT 1
VIEWPOINT 0 0 0 1 0 0 0
POINTS 977
DATA ascii
8.6943703 7.3477259 2.3005698 0 0 0 0 25.816936
8.9291191 7.8183861 2.0776451 0 0 0 0 25.821882
9.1720171 8.3300896 1.8248166 0 0 0 0 25.82683
8.5984325 7.3493953 2.6195946 0 0 0 0 25.831776
8.8391609 7.8160505 2.3896563 0 0 0 0 25.836723
9.101141 8.3476019 2.1688683 0 0 0 0 25.841671
8.8563833 8.4424477 1.8101648 0 0 0 0 25.846619
8.7632513 7.8246055 2.7246897 0 0 0 0 25.851564
9.0292063 8.3511629 2.4958861 0 0 0 0 25.85651
9.351572 8.9834642 2.2833209 0 0 0 0 25.861458
9.6299648 9.6270523 2.022794 0 0 0 0 25.866405
8.9331818 8.3307848 2.836853 0 0 0 0 25.871353
8.520709 8.2464304 2.411763 0 0 0 0 25.876301
9.5870924 9.6453781 2.4028337 0 0 0 0 25.881247
9.8205023 10.297185 2.1243348 0 0 0 0 25.886192
8.4697847 8.2518845 2.7487795 0 0 0 0 25.89114
8.7721205 8.8782482 2.5431995 0 0 0 0 25.896088
9.8288097 10.36125 2.5324669 0 0 0 0 25.901035
10.275355 11.307149 2.2926106 0 0 0 0 25.905981
8.6729717 8.826889 2.8810902 0 0 0 0 25.910929
9.0056181 9.5361328 2.6786966 0 0 0 0 25.915874
9.2802801 10.251639 2.4593327 0 0 0 0 25.920822
8.2553301 9.532937 1.8978918 0 0 0 0 25.92577
8.9104118 9.4697304 3.0295472 0 0 0 0 25.930717
9.2332315 10.227031 2.820267 0 0 0 0 25.935663
8.6653147 10.029324 2.3639481 0 0 0 0 25.940611
7.7175641 9.3582344 1.834603 0 0 0 0 25.945557
9.134943 10.139618 3.1820655 0 0 0 0 25.950504
9.5212936 11.036641 2.9890962 0 0 0 0 25.955452
7.5427995 9.150279 2.1201382 0 0 0 0 25.9604
7.3374248 9.3438387 1.8056542 0 0 0 0 25.965345
9.4540796 10.968044 3.3799279 0 0 0 0 25.970291
9.2860765 11.265626 2.9986784 0 0 0 0 25.975239
7.2711124 9.2524233 2.1104376 0 0 0 0 25.980186
8.2790251 11.072623 2.1124876 0 0 0 0 25.985134
9.2288303 11.188996 3.3874872 0 0 0 0 25.990082
7.6316428 10.186718 2.2905374 0 0 0 0 25.999973
7.190238 10.11633 1.9054884 0 0 0 0 26.004921
7.3580284 10.310851 2.2868822 0 0 0 0 26.019764
6.9115953 10.232465 1.9058152 0 0 0 0 26.02471
6.7637706 10.549065 1.9449713 0 0 0 0 25.799004
6.8736744 11.308427 2.0657599 0 0 0 0 25.81879
7.3654094 12.791 2.3181872 0 0 0 0 25.838577
7.005578 12.863491 2.312423 0 0 0 0 25.858368
6.788425 12.838809 3.0253143 0 0 0 0 25.907837
5.7311745 12.591844 2.220001 0 0 0 0 25.91773
6.8209653 12.712907 3.3739688 0 0 0 0 25.922678
5.3922558 12.641212 2.2191727 0 0 0 0 25.937519
5.4971862 12.617039 2.5610516 0 0 0 0 25.952358
5.0926762 12.778381 2.2355428 0 0 0 0 25.957306
5.6011424 12.600921 2.8839502 0 0 0 0 25.967201
5.1894383 12.711274 2.5633206 0 0 0 0 25.972149
4.7758856 12.861634 2.2417867 0 0 0 0 25.977095
5.2741179 12.624279 2.8650553 0 0 0 0 25.986988
4.8745766 12.77654 2.5615211 0 0 0 0 25.991936
4.4712048 12.973819 2.255095 0 0 0 0 25.996883
4.9854279 12.734439 2.8663552 0 0 0 0 26.006777
4.5788913 12.8877 2.5708244 0 0 0 0 26.011723
4.1746306 13.113951 2.2754657 0 0 0 0 26.01667
5.0911531 12.658341 3.1801107 0 0 0 0 26.021618
4.6765518 12.796688 2.8595457 0 0 0 0 26.026566
4.2811842 12.993866 2.5791147 0 0 0 0 26.031511
3.8568361 13.197175 2.2877054 0 0 0 0 26.036459
4.7922673 12.718573 3.1652935 0 0 0 0 26.041405
4.3898778 12.911819 2.8648539 0 0 0 0 26.046352
3.9906526 13.145967 2.6005099 0 0 0 0 26.0513
3.5552766 13.342302 2.3130856 0 0 0 0 26.056248
4.5035229 12.815733 3.1615596 0 0 0 0 26.061193
4.0981722 13.018964 2.8701429 0 0 0 0 26.066139
3.6828241 13.221163 2.6067262 0 0 0 0 26.071087
4.2207999 12.918859 3.1608365 0 0 0 0 26.080982
3.8145938 13.160048 2.8855083 0 0 0 0 26.08593
3.4145911 13.453135 2.6432993 0 0 0 0 26.090876
3.9462199 13.059925 3.1701989 0 0 0 0 26.100769
3.5137658 13.236225 2.8867235 0 0 0 0 26.105717
2.7568583 14.377998 2.4995928 0 0 0 0 26.11561
3.6533673 13.130093 3.1623983 0 0 0 0 26.120558
3.2627106 13.516106 2.9334013 0 0 0 0 26.125504
3.3686614 13.239201 3.1656852 0 0 0 0 26.140347
2.5986574 14.357935 2.8084915 0 0 0 0 26.15024
3.1347971 13.570987 3.2234759 0 0 0 0 26.160133
1.0686185 15.013069 2.6552539 0 0 0 0 26.21455
2.3175063 14.390831 3.361448 0 0 0 0 26.219498
2.0109522 14.544957 3.3798327 0 0 0 0 26.239285
1.482578 14.743455 3.1434238 0 0 0 0 26.244232
0.94645613 15.007888 2.9461684 0 0 0 0 26.24918
1.1521637 14.833577 3.1598446 0 0 0 0 26.205235
0.6040526 15.099048 2.9705985 0 0 0 0 26.21018
0.0071116611 15.411714 2.7734747 0 0 0 0 26.215128
0.81653923 14.968779 3.187191 0 0 0 0 26.225021
-0.35487959 15.448999 2.7995977 0 0 0 0 26.234917
-0.72933149 15.631257 2.8550572 0 0 0 0 26.254704
-1.816481 15.426146 2.8926909 0 0 0 0 26.314068
-0.31033832 15.423263 3.50825 0 0 0 0 26.319016
-0.93671376 15.61893 3.3388543 0 0 0 0 26.323961
-2.1678851 15.351391 2.9035521 0 0 0 0 26.333855
-0.66031235 15.467533 3.5143828 0 0 0 0 26.338802
-1.3034729 15.721198 3.3691225 0 0 0 0 26.34375
-1.8897401 15.400873 3.1255386 0 0 0 0 26.348698
-2.5556138 15.459669 2.9558401 0 0 0 0 26.353643
-1.0180153 15.585788 3.5366852 0 0 0 0 26.358589
-1.6492035 15.559511 3.3427832 0 0 0 0 26.363537
-2.2450564 15.35013 3.1354558 0 0 0 0 26.368484
-2.951293 15.581959 3.0121605 0 0 0 0 26.373432
-1.3540692 15.336134 3.4801455 0 0 0 0 26.37838
-1.9869783 15.384789 3.315414 0 0 0 0 26.383326
-2.6327741 15.462414 3.1827514 0 0 0 0 26.388271
-3.3688564 15.736296 3.0795574 0 0 0 0 26.393219
-1.7130166 15.3874 3.4932952 0 0 0 0 26.398167
-2.3442879 15.336061 3.3193367 0 0 0 0 26.403114
-3.022505 15.571699 3.2300389 0 0 0 0 26.40806
-3.7835181 15.86463 3.1408925 0 0 0 0 26.413008
-2.0643115 15.343678 3.4852276 0 0 0 0 26.417953
-2.7259917 15.453333 3.3596401 0 0 0 0 26.422901
-3.4291568 15.703017 3.2853789 0 0 0 0 26.427849
-4.2151079 16.012995 3.2112753 0 0 0 0 26.432796
-2.4194593 15.339939 3.488251 0 0 0 0 26.437742
-3.1127379 15.55962 3.3979185 0 0 0 0 26.44269
-3.8496916 15.867363 3.347795 0 0 0 0 26.447636
-2.8021202 15.47022 3.5235825 0 0 0 0 26.457531
-3.5223324 15.70795 3.4502957 0 0 0 0 26.462479
-4.2743516 15.997723 3.4071338 0 0 0 0 26.467424
-3.1928484 15.582526 3.5568738 0 0 0 0 26.477318
-3.9399257 15.857297 3.5046754 0 0 0 0 26.482265
-5.021203 17.183708 3.6989167 0 0 0 0 26.487213
-3.5896003 15.688846 3.5901515 0 0 0 0 26.497107
-4.3725071 16.010683 3.5620656 0 0 0 0 26.502052
-4.0170436 15.881219 3.6456273 0 0 0 0 26.516895
-5.1214051 17.189671 3.8518198 0 0 0 0 26.521843
-6.979332 17.803251 3.8356488 0 0 0 0 26.531734
-4.4516406 16.03162 3.6960094 0 0 0 0 26.536682
-5.177875 17.122566 3.9635491 0 0 0 0 26.556471
-7.0157895 17.738939 3.9953706 0 0 0 0 26.566364
-8.736598 18.410519 4.1712117 0 0 0 0 26.591099
-8.862606 17.604126 4.0613871 0 0 0 0 26.610888
-8.7959394 18.383293 4.3160138 0 0 0 0 26.625729
-9.4800854 17.789944 4.1828771 0 0 0 0 26.630676
-8.8910904 17.533855 4.1770954 0 0 0 0 26.645515
-10.109611 17.963791 4.3043413 0 0 0 0 26.650463
-8.3810644 17.288111 4.1433601 0 0 0 0 26.660358
-9.5492868 17.801786 4.3067737 0 0 0 0 26.665304
-10.359564 17.448656 4.266201 0 0 0 0 26.670252
-8.9935732 17.502222 4.2413168 0 0 0 0 27.331024
-10.054852 17.733349 4.3600092 0 0 0 0 27.335972
-10.47508 16.745022 4.1771278 0 0 0 0 27.340919
-8.6045227 17.551907 4.2562604 0 0 0 0 27.345865
-9.6886539 17.830097 4.3770499 0 0 0 0 27.350813
-10.212088 17.083948 4.2696772 0 0 0 0 27.355759
-10.592307 16.09346 4.1007886 0 0 0 0 27.360706
-9.1434879 17.60745 4.3094163 0 0 0 0 27.365654
-10.044855 17.501194 4.355401 0 0 0 0 27.370602
-10.363214 16.464506 4.1874104 0 0 0 0 27.375547
-10.694452 15.463844 4.0264964 0 0 0 0 27.380493
-9.805851 17.850275 4.4119697 0 0 0 0 27.385441
-10.184171 16.823767 4.2470174 0 0 0 0 27.390388
-10.510254 15.868037 4.1111946 0 0 0 0 27.395336
-10.800468 14.870215 3.963284 0 0 0 0 27.400284
-10.072542 17.368183 4.3380008 0 0 0 0 27.40523
-10.396944 16.311489 4.1789832 0 0 0 0 27.410175
-10.66613 15.319571 4.0460825 0 0 0 0 27.415123
-10.896393 14.30255 3.9011269 0 0 0 0 27.420071
-10.27153 16.789915 4.2428336 0 0 0 0 27.425018
-10.568819 15.764097 4.1018772 0 0 0 0 27.429964
-10.77011 14.734962 3.9688942 0 0 0 0 27.434912
-10.982269 13.745846 3.8419952 0 0 0 0 27.439857
-10.477339 16.264643 4.1587777 0 0 0 0 27.444805
-10.701791 15.182592 4.0177011 0 0 0 0 27.449753
-10.875977 14.182341 3.8987753 0 0 0 0 27.4547
-11.079983 13.237156 3.7929666 0 0 0 0 27.459646
-10.684076 15.758352 4.0827656 0 0 0 0 27.464594
-10.847575 14.657103 3.9446445 0 0 0 0 27.46954
-10.986738 13.659718 3.8367224 0 0 0 0 27.474487
-11.13477 12.70235 3.7338834 0 0 0 0 27.479435
-10.832961 15.201904 3.9926481 0 0 0 0 27.484383
-10.993273 14.155595 3.8786402 0 0 0 0 27.489328
-11.083454 13.148044 3.7766936 0 0 0 0 27.494274
-11.18749 12.185525 3.6798408 0 0 0 0 27.499222
-10.984736 14.677446 3.9095998 0 0 0 0 27.504169
-11.107029 13.631992 3.8085914 0 0 0 0 27.509117
-11.182076 12.663364 3.7217233 0 0 0 0 27.514065
-11.245096 11.701704 3.6318688 0 0 0 0 27.519011
-11.150389 14.188004 3.8396285 0 0 0 0 27.523956
-11.253566 13.17546 3.7536857 0 0 0 0 27.528904
-11.261707 12.172625 3.6657429 0 0 0 0 27.533852
-11.304626 11.239877 3.5889456 0 0 0 0 27.538799
-11.317945 13.72655 3.7767169 0 0 0 0 27.543747
-11.339265 12.663763 3.6846654 0 0 0 0 27.548693
-11.350219 11.716895 3.6178374 0 0 0 0 27.553638
-11.347144 10.777996 3.5450239 0 0 0 0 27.558586
-11.450562 13.241998 3.7067583 0 0 0 0 27.563534
-11.444811 12.198101 3.627744 0 0 0 0 27.568481
-11.399803 11.235061 3.5618782 0 0 0 0 27.573427
-11.393579 10.340118 3.5061548 0 0 0 0 27.578375
-11.586119 12.774442 3.6418388 0 0 0 0 27.583321
-11.531348 11.732386 3.5678234 0 0 0 0 27.588268
-11.481214 10.806294 3.5200336 0 0 0 0 27.593216
-11.424013 9.9001923 3.4662828 0 0 0 0 27.598164
-11.711634 12.316844 3.580941 0 0 0 0 27.603109
-11.62382 11.284668 3.5169442 0 0 0 0 27.608055
-11.541625 10.374469 3.4741831 0 0 0 0 27.613003
-11.441408 9.4702291 3.4244325 0 0 0 0 27.61795
-11.81916 11.85319 3.5190332 0 0 0 0 27.622898
-11.715227 10.854939 3.4691036 0 0 0 0 27.627846
-11.585043 9.9375887 3.4293246 0 0 0 0 27.632792
-11.47371 9.0672932 3.3916416 0 0 0 0 27.637737
-11.92063 11.404513 3.4581578 0 0 0 0 27.642685
-11.781661 10.414139 3.4172418 0 0 0 0 27.647633
-11.629385 9.5227041 3.3875127 0 0 0 0 27.65258
-11.485023 8.6582975 3.3558393 0 0 0 0 27.657528
-12.017062 10.964809 3.4023032 0 0 0 0 27.662474
-11.852021 9.994338 3.3714256 0 0 0 0 27.667419
-11.674694 9.1158161 3.3487213 0 0 0 0 27.672367
-11.482306 8.2572641 3.3180537 0 0 0 0 27.677315
-12.110465 10.532088 3.3494666 0 0 0 0 27.682262
-11.904376 9.5734854 3.3236084 0 0 0 0 27.687208
-11.710962 8.7198954 3.3119531 0 0 0 0 27.692156
-11.492527 7.8732557 3.2873077 0 0 0 0 27.697102
-12.179867 10.0973 3.2926254 0 0 0 0 27.702049
-11.963682 9.1656427 3.280822 0 0 0 0 27.706997
-11.736214 8.3269424 3.2741928 0 0 0 0 27.711945
-11.606484 7.5724983 3.2887456 0 0 0 0 27.71689
-12.270173 9.6905518 3.2468467 0 0 0 0 27.721838
-12.011953 8.7667627 3.2390549 0 0 0 0 27.726784
-11.772408 7.9500108 3.2424693 0 0 0 0 27.731731
-11.785296 7.3168964 3.3092864 0 0 0 0 27.736679
-12.343489 9.2777529 3.2000575 0 0 0 0 27.741627
-12.069169 8.3838968 3.2033241 0 0 0 0 27.746572
-11.767636 7.5599704 3.2027168 0 0 0 0 27.751518
-11.949143 7.0482469 3.329802 0 0 0 0 27.756466
-12.409768 8.8749285 3.1542904 0 0 0 0 27.761414
-12.114382 7.9989948 3.1675913 0 0 0 0 27.766361
-11.786777 7.1959858 3.1710229 0 0 0 0 27.771309
-12.00017 6.719317 3.3191836 0 0 0 0 27.776255
-12.478017 8.4791002 3.1125412 0 0 0 0 27.7812
-12.139585 7.6150393 3.1278605 0 0 0 0 27.786148
-11.859797 6.8691268 3.157414 0 0 0 0 27.791096
-11.983284 6.3602166 3.2914982 0 0 0 0 27.796043
-12.533451 8.0896606 3.0721788 0 0 0 0 27.534328
-12.163085 7.2374482 3.0924466 0 0 0 0 27.539274
-11.988093 6.5837474 3.161144 0 0 0 0 27.544222
-12.575722 7.6987643 3.0294108 0 0 0 0 27.554115
-12.202239 6.8805208 3.0627489 0 0 0 0 27.559063
-12.153965 6.313127 3.1756458 0 0 0 0 27.564011
-12.621959 7.3158689 2.9916637 0 0 0 0 27.573902
-12.210419 6.5135088 3.027029 0 0 0 0 27.57885
-0.46736291 0.20605902 0.11525625 0 0 0 0 27.588745
-12.657173 6.9379368 2.9549282 0 0 0 0 27.593693
-12.441219 6.2640638 3.0505896 0 0 0 0 27.598639
-0.46932214 0.21507168 0.10929422 0 0 0 0 27.603584
-12.723315 6.5810804 2.9272444 0 0 0 0 27.61348
-0.46539709 0.18204406 0.11326458 0 0 0 0 27.628321
-0.46332341 0.20405926 0.1003194 0 0 0 0 27.638214
-0.46836215 0.18905775 0.10829899 0 0 0 0 27.643162
-0.45929846 0.20805737 0.092346393 0 0 0 0 27.653055
-0.47841403 0.16306494 0.11628641 0 0 0 0 27.667896
-0.46635672 0.18005738 0.099329293 0 0 0 0 27.677792
-0.47938552 0.16807617 0.10931659 0 0 0 0 27.682737
-0.45833811 0.1820472 0.089351647 0 0 0 0 27.692631
-0.40551382 0.11787065 0.096239947 0 0 0 0 27.707474
-0.47937655 0.16008155 0.10034954 0 0 0 0 27.717365
-0.40548787 0.12187738 0.090268202 0 0 0 0 27.722313
-0.47335786 0.16207728 0.090372451 0 0 0 0 27.732208
-0.4055295 0.0988589 0.096260034 0 0 0 0 27.747047
-0.39448738 0.11085469 0.079293698 0 0 0 0 27.756943
-0.41749704 0.1048975 0.092294827 0 0 0 0 27.76189
-0.40944904 0.11890212 0.075332813 0 0 0 0 27.771784
-0.39555109 0.07782308 0.093274578 0 0 0 0 27.786625
-0.39450243 0.091842942 0.079314165 0 0 0 0 27.796518
-0.40851855 0.083864413 0.089309603 0 0 0 0 27.801466
-0.38648912 0.091833308 0.069333248 0 0 0 0 27.811359
-0.3945623 0.059808522 0.093297221 0 0 0 0 27.8262
-0.39152011 0.071826041 0.077332579 0 0 0 0 27.836094
-0.40453583 0.063842602 0.0883279 0 0 0 0 27.841042
-0.38350645 0.071814626 0.068351753 0 0 0 0 27.850937
-0.39257279 0.041791078 0.093320072 0 0 0 0 27.865776
-0.38653389 0.052801549 0.076352842 0 0 0 0 27.875671
-0.40054941 0.044820916 0.087348491 0 0 0 0 27.880617
-0.37752032 0.052789114 0.066371888 0 0 0 0 27.890511
-0.38957968 0.0247708 0.093344942 0 0 0 0 27.905354
-0.38554403 0.034788806 0.075376287 0 0 0 0 27.915247
-0.40055913 0.026809122 0.087372273 0 0 0 0 27.920193
-0.36953345 0.033758011 0.064392038 0 0 0 0 27.930088
-0.39458546 0.0077700983 0.095372036 0 0 0 0 27.944927
-0.38855299 0.016783992 0.076401062 0 0 0 0 27.954823
-0.40156794 0.0087984027 0.088396706 0 0 0 0 27.95977
-0.38054201 0.015774529 0.06641873 0 0 0 0 27.969664
-0.38458863 -0.0082665598 0.093397945 0 0 0 0 27.984505
-0.38755864 -0.00023057227 0.076427162 0 0 0 0 27.994398
-0.38957408 -0.0082423361 0.085420437 0 0 0 0 27.999346
-0.37181926 -0.001186501 0.064086899 0 0 0 0 27.761412
-0.39986935 -0.026170604 0.098068409 0 0 0 0 27.776253
-0.38383976 -0.018180303 0.076093808 0 0 0 0 27.786146
-0.40585765 -0.02714248 0.090089396 0 0 0 0 27.791094
-0.37682885 -0.019185081 0.065111771 0 0 0 0 27.800987
-0.40587789 -0.044170085 0.10109384 0 0 0 0 27.815828
-0.38984856 -0.036177922 0.078119226 0 0 0 0 27.825722
-0.41286901 -0.046139263 0.093113311 0 0 0 0 27.830669
-0.38684043 -0.038170993 0.067136377 0 0 0 0 27.840565
-0.40488628 -0.062186569 0.1021181 0 0 0 0 27.855404
-0.39686257 -0.056172799 0.080141649 0 0 0 0 27.865299
-0.41288009 -0.06515304 0.094136074 0 0 0 0 27.870247
-0.395854 -0.058161974 0.070159368 0 0 0 0 27.880138
-0.3958886 -0.078222625 0.10114461 0 0 0 0 27.894981
-0.39387044 -0.074193314 0.080165885 0 0 0 0 27.904875
-0.40588781 -0.083185293 0.094159514 0 0 0 0 27.909821
-0.38686195 -0.076198138 0.069182351 0 0 0 0 27.919716
-0.41190574 -0.10020056 0.10816636 0 0 0 0 27.934557
-0.4088909 -0.097170793 0.085185617 0 0 0 0 27.94445
-0.41790518 -0.10517151 0.099180505 0 0 0 0 27.949398
-0.39788261 -0.099183612 0.072201319 0 0 0 0 27.959291
-0.39690405 -0.11525179 0.10619416 0 0 0 0 27.974133
-0.39189205 -0.1132279 0.083211198 0 0 0 0 27.984028
-0.40390614 -0.12122001 0.097206861 0 0 0 0 27.988974
-0.37888098 -0.11424448 0.069228351 0 0 0 0 27.998867
-0.41292822 -0.14023012 0.1132115 0 0 0 0 28.013708
-0.40991914 -0.139199 0.089227267 0 0 0 0 28.023602
-0.43294632 -0.15216701 0.10721663 0 0 0 0 28.028549
-0.43294567 -0.15412757 0.083227791 0 0 0 0 28.038445
-0.4509781 -0.17515898 0.12721664 0 0 0 0 28.053284
-0.4309563 -0.16916393 0.096237525 0 0 0 0 28.063179
-0.44397497 -0.17915869 0.11323013 0 0 0 0 28.068127
-0.4239558 -0.1741654 0.083249263 0 0 0 0 28.078018
-0.44298747 -0.19519551 0.12823865 0 0 0 0 28.092861
-0.42396849 -0.1901976 0.097258039 0 0 0 0 28.102755
-0.44499767 -0.20417345 0.11624555 0 0 0 0 28.1077
-0.45601898 -0.21410379 0.092245355 0 0 0 0 28.117596
-0.48005432 -0.2371304 0.14323273 0 0 0 0 28.132437
-0.4670493 -0.23711415 0.11124483 0 0 0 0 28.14233
-0.4830696 -0.24810594 0.13123666 0 0 0 0 28.147278
-0.47207281 -0.25108421 0.099244013 0 0 0 0 28.157171
-6.585567 -4.6743813 1.6594665 0 0 0 0 28.0012
-5.8548455 -4.8374624 1.5721784 0 0 0 0 28.060562
-5.7061057 -4.9539261 1.5689956 0 0 0 0 28.080353
-5.5433249 -5.0564227 1.5638357 0 0 0 0 28.10014
-5.1643639 -5.1408825 1.7357332 0 0 0 0 28.144663
-4.602603 -4.8609037 1.4071403 0 0 0 0 28.159504
-5.0105338 -5.2273393 1.7286069 0 0 0 0 28.164452
-4.4567599 -4.9423409 1.4040234 0 0 0 0 28.179291
-4.865726 -5.3227777 1.7264683 0 0 0 0 28.184238
-4.9136076 -5.3019967 1.9245291 0 0 0 0 28.189186
-4.9665089 -5.2892222 2.1345773 0 0 0 0 28.194134
-4.282824 -4.9898372 1.3919603 0 0 0 0 28.19908
-4.7299352 -5.4251928 1.7273209 0 0 0 0 28.204025
-4.1349511 -5.0612741 1.3888624 0 0 0 0 28.218868
-4.214911 -5.0684009 1.5858816 0 0 0 0 28.223816
-3.9920874 -5.1366978 1.3877598 0 0 0 0 28.238655
-4.05197 -5.1148601 1.5738244 0 0 0 0 28.243603
-4.3967924 -5.4454379 1.8733476 0 0 0 0 28.24855
-3.8552434 -5.220108 1.3896459 0 0 0 0 28.258444
-3.8869958 -5.1493201 1.5607878 0 0 0 0 28.26339
-4.2649674 -5.5368328 1.8742232 0 0 0 0 28.268337
-3.453373 -4.9190636 1.2911301 0 0 0 0 28.278233
-3.5563922 -4.9471059 1.4771185 0 0 0 0 28.283178
-3.6614311 -4.9821382 1.6600956 0 0 0 0 28.288126
-3.3094409 -4.9694767 1.2880707 0 0 0 0 28.298019
-3.3873494 -4.9555612 1.4591249 0 0 0 0 28.302967
-3.472302 -4.9576221 1.6271536 0 0 0 0 28.307915
-3.5723104 -4.9816704 1.8121483 0 0 0 0 28.31286
-3.1805525 -5.0368567 1.2909867 0 0 0 0 28.317806
-3.2584405 -5.0149341 1.4580544 0 0 0 0 28.322754
-3.3544247 -5.0289674 1.6280653 0 0 0 0 28.327702
-3.43836 -5.0250387 1.8011041 0 0 0 0 28.332649
-3.0285521 -5.0622773 1.2829692 0 0 0 0 28.337597
-3.1174827 -5.0563302 1.4530123 0 0 0 0 28.342543
-3.2224832 -5.0763373 1.6220152 0 0 0 0 28.347488
-3.3043983 -5.064405 1.790067 0 0 0 0 28.352436
-2.9358158 -5.1885843 1.3027959 0 0 0 0 28.357384
-3.0036261 -5.1366692 1.4589115 0 0 0 0 28.362331
-3.0835063 -5.1107183 1.6129861 0 0 0 0 28.367277
-3.1714325 -5.1027675 1.7800324 0 0 0 0 28.372225
-2.7375827 -5.1260896 1.274917 0 0 0 0 28.377171
-2.8887649 -5.216012 1.4668133 0 0 0 0 28.382118
-3.0037916 -5.2459917 1.635802 0 0 0 0 28.387066
-3.056536 -5.1680942 1.7789574 0 0 0 0 28.392014
-2.6056426 -5.1754656 1.2768655 0 0 0 0 28.396959
-2.705575 -5.1694741 1.438911 0 0 0 0 28.401907
-2.7994936 -5.1574817 1.590965 0 0 0 0 28.406853
-2.9155192 -5.1874652 1.763954 0 0 0 0 28.4118
-2.4767168 -5.230834 1.2808055 0 0 0 0 28.416748
-2.5796416 -5.2218308 1.4408565 0 0 0 0 28.421696
-2.6725428 -5.2028341 1.5889219 0 0 0 0 28.426641
-2.7724788 -5.1978354 1.7469655 0 0 0 0 28.431587
-2.3467846 -5.2842045 1.2857493 0 0 0 0 28.436535
-2.4476814 -5.2641978 1.4408181 0 0 0 0 28.441483
-2.5526192 -5.259171 1.5898628 0 0 0 0 28.44643
-2.6455066 -5.2351785 1.7409363 0 0 0 0 28.451378
-2.2137191 -5.3362765 1.2942511 0 0 0 0 29.306828
-2.3186269 -5.3152585 1.4463141 0 0 0 0 29.311775
-2.4225516 -5.3012319 1.590367 0 0 0 0 29.316723
-2.5214651 -5.2822232 1.7394258 0 0 0 0 29.321669
-2.0817494 -5.3835907 1.2992218 0 0 0 0 29.326614
-2.1916578 -5.3625588 1.4492855 0 0 0 0 29.331562
-2.2955682 -5.3415251 1.5883479 0 0 0 0 29.33651
-2.4004948 -5.3285027 1.7373996 0 0 0 0 29.341457
-1.9799485 -5.5098634 1.3240902 0 0 0 0 29.346403
-2.063679 -5.4058571 1.451263 0 0 0 0 29.351351
-2.172605 -5.3918123 1.5903167 0 0 0 0 29.356297
-2.2775106 -5.3687835 1.7343819 0 0 0 0 29.361244
-1.834901 -5.5221915 1.3221081 0 0 0 0 29.366192
-1.9648827 -5.5351238 1.4781289 0 0 0 0 29.37114
-2.063715 -5.4770832 1.6042409 0 0 0 0 29.376085
-2.1555343 -5.4130602 1.7323596 0 0 0 0 29.381033
-1.7009106 -5.5615034 1.3280919 0 0 0 0 29.385979
-1.8268501 -5.5544338 1.4761391 0 0 0 0 29.390926
-1.9467938 -5.5483637 1.6141839 0 0 0 0 29.395874
-2.0717616 -5.5542974 1.7632132 0 0 0 0 29.400822
-1.5578576 -5.5718241 1.3281138 0 0 0 0 29.405767
-1.6898148 -5.5727396 1.4751512 0 0 0 0 29.410713
-1.8157804 -5.5766554 1.6121836 0 0 0 0 29.415661
-1.9387339 -5.5755873 1.7562219 0 0 0 0 29.420609
-1.4470494 -5.6981115 1.3569853 0 0 0 0 29.425556
-1.5618382 -5.6190333 1.4811276 0 0 0 0 29.430504
-1.6736946 -5.5709581 1.6022274 0 0 0 0 29.43545
-1.8056848 -5.5868702 1.7462445 0 0 0 0 29.440395
-1.4580699 -5.7653122 1.5159748 0 0 0 0 29.450291
-1.5648305 -5.6712284 1.6231352 0 0 0 0 29.455238
-1.6776581 -5.6091471 1.7412535 0 0 0 0 29.460184
-1.4936225 -6.5455155 1.718002 0 0 0 0 29.470078
-1.4580144 -5.7955017 1.6510128 0 0 0 0 29.475025
-1.5667698 -5.6984124 1.7571768 0 0 0 0 29.479973
-1.3466723 -6.6098518 1.7309581 0 0 0 0 29.489866
-1.5103489 -6.0146551 1.8438097 0 0 0 0 29.49976
-1.2007371 -6.682188 1.7479048 0 0 0 0 29.509655
-1.4217429 -6.2439275 1.9035558 0 0 0 0 29.519548
-1.0508022 -6.7555327 1.7668505 0 0 0 0 29.529442
-1.18743 -6.5963678 1.8601007 0 0 0 0 29.534389
-1.2867681 -6.2952237 1.9095305 0 0 0 0 29.539337
-1.0424815 -6.6626925 1.8740567 0 0 0 0 29.554176
-1.1659653 -6.4315233 1.9423974 0 0 0 0 29.559124
-0.89449269 -6.7100153 1.8840379 0 0 0 0 29.573965
-0.74753326 -6.7723389 1.8990005 0 0 0 0 29.593754
-0.5986048 -6.8506703 1.918943 0 0 0 0 29.613541
-0.77049476 -6.8174663 2.0360327 0 0 0 0 29.618488
-0.44671071 -6.9470143 1.945863 0 0 0 0 29.633329
-0.29280278 -7.0373559 1.9707917 0 0 0 0 29.653118
-0.1337916 -7.0766878 1.9827858 0 0 0 0 29.672905
-0.31854126 -6.9714184 2.0679686 0 0 0 0 29.677853
0.028107945 -7.1730461 2.0127079 0 0 0 0 29.692694
-0.16350716 -6.9987321 2.0729785 0 0 0 0 29.697639
0.19301923 -7.2644053 2.0416369 0 0 0 0 29.712482
-0.0085488921 -7.0650582 2.0909398 0 0 0 0 29.717428
0.15145187 -7.1103845 2.1039276 0 0 0 0 29.737217
0.3134008 -7.1827207 2.1238823 0 0 0 0 29.757004
0.48231891 -7.2720785 2.1528156 0 0 0 0 29.776793
0.65094572 -7.3466692 2.1747127 0 0 0 0 29.511543
0.83573389 -7.4951048 2.2225587 0 0 0 0 29.53133
1.0018865 -7.4664268 2.2176421 0 0 0 0 29.551121
1.1996424 -7.6328902 2.2724655 0 0 0 0 29.570908
1.3935392 -7.7313166 2.3083799 0 0 0 0 29.590694
2.2313826 -7.311657 2.0088003 0 0 0 0 29.595642
2.4025772 -7.2629972 2.0229082 0 0 0 0 29.615431
2.1425183 -7.3085485 2.0969119 0 0 0 0 29.620377
2.5688052 -7.1973181 2.0330384 0 0 0 0 29.63522
2.3206429 -7.2939048 2.1139748 0 0 0 0 29.640165
2.7807844 -7.2557755 2.0790014 0 0 0 0 29.655006
2.4759212 -7.2021847 2.1111398 0 0 0 0 29.659954
2.2557557 -7.2998118 2.1770706 0 0 0 0 29.664902
2.9609559 -7.2181311 2.1000931 0 0 0 0 29.674793
2.6620173 -7.2015586 2.1351829 0 0 0 0 29.679741
2.413008 -7.2200899 2.1712196 0 0 0 0 29.684689
2.194839 -7.3197198 2.234148 0 0 0 0 29.689636
3.0535135 -6.9842324 2.0634477 0 0 0 0 29.694584
2.8919067 -7.3060603 2.1930859 0 0 0 0 29.69953
2.5901387 -7.2014313 2.185287 0 0 0 0 29.704475
2.3610227 -7.2740211 2.2332523 0 0 0 0 29.709423
3.1510215 -6.7733507 2.0337701 0 0 0 0 29.714371
2.9924397 -7.0831733 2.153424 0 0 0 0 29.719318
2.8289659 -7.3379545 2.2481492 0 0 0 0 29.724264
2.5192547 -7.2032957 2.2263887 0 0 0 0 29.729212
3.2415121 -6.5694566 2.0060821 0 0 0 0 29.734158
3.0889571 -6.8662791 2.1157532 0 0 0 0 29.739105
2.9543867 -7.1711321 2.220412 0 0 0 0 29.744053
2.7162907 -7.2326851 2.2513928 0 0 0 0 29.749001
3.3269908 -6.3695521 1.9793878 0 0 0 0 29.753946
3.1834388 -6.6653848 2.0820599 0 0 0 0 29.758894
3.0538969 -6.9562349 2.1767366 0 0 0 0 29.76384
2.9153297 -7.2610755 2.2773986 0 0 0 0 29.768787
3.4104521 -6.1766462 1.9556829 0 0 0 0 29.773735
3.2659402 -6.4524617 2.0463815 0 0 0 0 29.778683
3.1463919 -6.7473254 2.1350529 0 0 0 0 29.783628
3.0108683 -7.0301576 2.223743 0 0 0 0 29.788574
3.4849095 -5.9837184 1.9299771 0 0 0 0 29.793522
3.352391 -6.2635527 2.0156698 0 0 0 0 29.79847
3.234879 -6.5404096 2.0953648 0 0 0 0 29.803417
3.1053641 -6.8192444 2.17606 0 0 0 0 29.808365
3.5713115 -5.8178253 1.9142339 0 0 0 0 29.813311
3.4328325 -6.0776324 1.9869536 0 0 0 0 29.818256
3.3133559 -6.3364711 2.0546722 0 0 0 0 29.823204
3.1988335 -6.6203322 2.1323602 0 0 0 0 29.828152
3.639739 -5.636888 1.8925102 0 0 0 0 29.833099
3.5102613 -5.8967075 1.9602296 0 0 0 0 29.838045
3.4007862 -6.1555614 2.023948 0 0 0 0 29.842993
3.2823043 -6.4183984 2.0876634 0 0 0 0 29.847939
3.7131305 -5.4729648 1.8747628 0 0 0 0 29.852886
3.5876694 -5.7247853 1.9364927 0 0 0 0 29.857834
3.4812105 -5.975636 1.9922215 0 0 0 0 29.862782
3.3707395 -6.2334814 2.0499427 0 0 0 0 29.867727
3.7795229 -5.3070273 1.8580172 0 0 0 0 29.872675
3.6610665 -5.5568538 1.9127495 0 0 0 0 29.877621
3.5556333 -5.7946973 1.9604949 0 0 0 0 29.882568
3.4511693 -6.0495491 2.0132203 0 0 0 0 29.887516
3.8449044 -5.1450887 1.8422649 0 0 0 0 29.892464
3.7284606 -5.3889112 1.8900054 0 0 0 0 29.897409
3.6380079 -5.6377831 1.9367363 0 0 0 0 29.902355
3.5275879 -5.8696084 1.9764916 0 0 0 0 29.907303
3.9062755 -4.9871421 1.8275067 0 0 0 0 29.912251
3.7978365 -5.2289758 1.8712493 0 0 0 0 29.917198
3.7024186 -5.4598246 1.9060038 0 0 0 0 29.922146
3.6059868 -5.6986747 1.9437495 0 0 0 0 29.927092
3.9746156 -4.844214 1.8177276 0 0 0 0 29.932037
3.8602076 -5.0700235 1.8504915 0 0 0 0 29.936985
3.7718 -5.2958813 1.8812519 0 0 0 0 29.941933
3.6793766 -5.5307326 1.9130028 0 0 0 0 29.94688
3.4871309 -4.0589347 1.5607985 0 0 0 0 29.951826
3.9265587 -4.920083 1.8337203 0 0 0 0 29.956774
3.8441525 -5.1459479 1.8604809 0 0 0 0 29.96172
3.7557414 -5.3747993 1.8852395 0 0 0 0 29.966667
4.0405664 -4.4938107 1.7724917 0 0 0 0 29.713078
3.3904192 -4.0582013 1.5441631 0 0 0 0 29.718025
3.9096048 -4.993607 1.8379138 0 0 0 0 29.722973
3.8162031 -5.2034268 1.852681 0 0 0 0 29.727919
7.2743783 -7.7299662 3.1349518 0 0 0 0 29.732864
3.7500448 -4.2860384 1.6688731 0 0 0 0 29.737812
3.96998 -4.8386536 1.8161589 0 0 0 0 29.74276
3.880583 -5.0464749 1.824929 0 0 0 0 29.747707
7.3769493 -7.4900675 3.1223142 0 0 0 0 29.752653
4.2135062 -4.6021271 1.835459 0 0 0 0 29.757601
3.4905462 -4.0633245 1.5552644 0 0 0 0 29.762547
3.9509389 -4.9005394 1.8021604 0 0 0 0 29.767494
7.47051 -7.2531476 3.1086717 0 0 0 0 29.772442
7.302815 -7.6158056 3.1182683 0 0 0 0 29.77739
4.0966759 -4.5527658 1.7806129 0 0 0 0 29.782335
3.4186485 -4.0460811 1.5143665 0 0 0 0 29.787283
7.5700474 -7.0262446 3.1010129 0 0 0 0 29.792229
7.4043689 -7.3808932 3.0986207 0 0 0 0 29.797176
7.277719 -7.7216148 3.0922403 0 0 0 0 29.802124
3.8301809 -4.3260202 1.6510092 0 0 0 0 29.807072
7.6655807 -6.7993345 3.094352 0 0 0 0 29.812017
7.4949284 -7.1409574 3.0779786 0 0 0 0 29.816963
7.3872666 -7.4887133 3.0685883 0 0 0 0 29.821911
4.2557478 -4.5909762 1.786672 0 0 0 0 29.826859
4.4034328 -3.7352066 1.7507108 0 0 0 0 29.831806
7.602447 -6.9200644 3.0673075 0 0 0 0 29.836754
7.4748402 -7.2397594 3.0389564 0 0 0 0 29.8417
7.347229 -7.5624547 3.0106022 0 0 0 0 29.846645
4.4627194 -3.6172712 1.7508988 0 0 0 0 29.851593
4.3663759 -3.7990456 1.7297065 0 0 0 0 29.856541
7.5773735 -7.0098443 3.018296 0 0 0 0 29.861488
7.4597635 -7.3325515 2.9829421 0 0 0 0 29.866434
4.5150132 -3.4943197 1.7500927 0 0 0 0 29.871382
4.430656 -3.6841171 1.7278894 0 0 0 0 29.876328
7.6818871 -6.7879348 3.0006232 0 0 0 0 29.881275
7.5623012 -7.0986261 2.9542856 0 0 0 0 29.886223
4.5563135 -3.3663411 1.745293 0 0 0 0 29.891171
4.4849496 -3.5601633 1.7220837 0 0 0 0 29.896116
4.425621 -3.7360041 1.6948947 0 0 0 0 29.901064
7.6578445 -6.8596845 2.9246335 0 0 0 0 29.90601
4.611588 -3.2513959 1.7464738 0 0 0 0 29.910957
4.5362396 -3.4372041 1.7172759 0 0 0 0 29.915905
4.4699321 -3.6020212 1.681102 0 0 0 0 29.920853
4.4026251 -3.7668371 1.6449288 0 0 0 0 29.925798
4.6608672 -3.1324396 1.748659 0 0 0 0 29.930744
4.5865254 -3.3152421 1.7124654 0 0 0 0 29.935692
4.5312133 -3.4830809 1.6762871 0 0 0 0 29.940639
4.4709048 -3.6489058 1.6361122 0 0 0 0 29.945587
4.7081404 -3.0154772 1.749841 0 0 0 0 29.950535
4.6398039 -3.1962881 1.7106495 0 0 0 0 29.955481
4.5844994 -3.3601205 1.6684767 0 0 0 0 29.960426
4.5202088 -3.5169315 1.6223141 0 0 0 0 29.965374
4.7584062 -2.9015219 1.7530174 0 0 0 0 29.970322
4.6860828 -3.0753176 1.7068359 0 0 0 0 29.975269
4.6277924 -3.2321379 1.6586726 0 0 0 0 29.980215
4.5814877 -3.3969851 1.6134982 0 0 0 0 29.985163
4.8036771 -2.7835548 1.7551981 0 0 0 0 29.990108
4.7303596 -2.9543438 1.704021 0 0 0 0 29.995056
4.6860633 -3.1151912 1.6558515 0 0 0 0 30.000004
4.6277809 -3.2680056 1.6016941 0 0 0 0 30.004951
4.8449416 -2.6675797 1.7573757 0 0 0 0 30.009897
4.7926149 -2.8444099 1.7071891 0 0 0 0 30.014845
4.7343388 -2.9942212 1.6500354 0 0 0 0 30.019791
4.6860557 -3.1480539 1.5948759 0 0 0 0 30.024738
4.8951969 -2.5556235 1.7625458 0 0 0 0 30.029686
4.8378825 -2.7264383 1.7063679 0 0 0 0 30.034634
4.7886047 -2.877265 1.6472123 0 0 0 0 30.039579
4.7343369 -3.0230792 1.5850639 0 0 0 0 30.044525
6.996696 -3.4573188 2.5062201 0 0 0 0 30.049473
4.8841438 -2.6104689 1.7065428 0 0 0 0 30.05442
4.8448672 -2.7613134 1.6463865 0 0 0 0 30.059368
4.7916036 -2.9051244 1.5792408 0 0 0 0 30.064316
7.0530505 -3.2943478 2.5114529 0 0 0 0 30.069262
4.9284029 -2.4944961 1.7077168 0 0 0 0 30.074207
4.8901343 -2.6413374 1.6425656 0 0 0 0 30.079155
4.842875 -2.7831581 1.5734218 0 0 0 0 30.084103
7.1203899 -3.1384022 2.5226741 0 0 0 0 30.08905
7.0429702 -3.3661261 2.4224381 0 0 0 0 30.093998
4.9363976 -2.5223646 1.6407421 0 0 0 0 30.098944
4.8911443 -2.661185 1.5676022 0 0 0 0 30.103889
7.1687436 -2.972414 2.5279078 0 0 0 0 30.108837
7.0973268 -3.1991444 2.4226732 0 0 0 0 30.113785
7.0509591 -3.3999252 2.321465 0 0 0 0 30.118732
4.9444041 -2.5432227 1.5637755 0 0 0 0 30.123678
7.2330785 -2.8154616 2.5401268 0 0 0 0 30.128626
7.1656723 -3.0371947 2.4298985 0 0 0 0 30.133572
7.1203089 -3.2359703 2.3216932 0 0 0 0 30.138519
7.0639615 -3.4257212 2.2085006 0 0 0 0 30.143467
7.3004093 -2.6595156 2.5543425 0 0 0 0 30.148415
7.2320108 -2.877239 2.43612 0 0 0 0 30.15336
7.1856642 -3.067008 2.3229258 0 0 0 0 30.158306
7.1383157 -3.2577715 2.2057316 0 0 0 0 30.163254
7.3577418 -2.5005467 2.5655615 0 0 0 0 30.168201
7.2933512 -2.7142739 2.4433436 0 0 0 0 30.173149
7.2540092 -2.9020512 2.3251517 0 0 0 0 30.178097
7.1976771 -3.0837905 2.1999695 0 0 0 0 30.183043
7.4195204 -2.3426816 2.5801692 0 0 0 0 29.933786
7.359107 -2.5543919 2.4509382 0 0 0 0 29.938732
7.3177509 -2.7371459 2.3277392 0 0 0 0 29.94368
7.2634053 -2.9138665 2.1965499 0 0 0 0 29.948627
7.4768691 -2.182723 2.5953975 0 0 0 0 29.953575
7.4244628 -2.3914449 2.4621694 0 0 0 0 29.958523
7.3811173 -2.5681868 2.3309789 0 0 0 0 29.963469
7.3457685 -2.7479455 2.2007837 0 0 0 0 29.968414
7.5262198 -2.0197444 2.6076286 0 0 0 0 29.973362
7.4878144 -2.2284913 2.4723997 0 0 0 0 29.97831
7.4504747 -2.4032423 2.3382111 0 0 0 0 29.983257
7.4071403 -2.5749762 2.1990275 0 0 0 0 29.988205
7.5885611 -1.8607962 2.6258509 0 0 0 0 29.993151
7.5461693 -2.0625274 2.4826319 0 0 0 0 29.998096
7.5088353 -2.2342708 2.3414476 0 0 0 0 30.003044
7.469511 -2.40101 2.1992702 0 0 0 0 30.007992
7.6538987 -1.7018545 2.6460712 0 0 0 0 30.012939
7.602519 -1.8975595 2.4938614 0 0 0 0 30.017885
7.5671964 -2.0633018 2.3476846 0 0 0 0 30.022833
7.5338764 -2.2280474 2.2005091 0 0 0 0 30.027779
7.7132392 -1.539899 2.6652939 0 0 0 0 30.032726
7.6708622 -1.7346172 2.5090847 0 0 0 0 30.037674
7.6315475 -1.8963463 2.3569138 0 0 0 0 30.042622
7.6092343 -2.0581112 2.207741 0 0 0 0 30.047567
7.960526 -1.4113671 2.7514467 0 0 0 0 30.052513
7.736208 -1.5686691 2.52531 0 0 0 0 30.057461
7.7009029 -1.7254009 2.3681455 0 0 0 0 30.062408
7.6616025 -1.8801237 2.2089837 0 0 0 0 30.067356
8.0518637 -1.2484802 2.7836621 0 0 0 0 30.072304
7.9465137 -1.4270408 2.5894833 0 0 0 0 30.07725
7.7572584 -1.552428 2.3773789 0 0 0 0 30.082195
7.7499576 -1.708214 2.2212119 0 0 0 0 30.087143
8.1052141 -1.0765094 2.8048918 0 0 0 0 30.092091
8.0718489 -1.2652229 2.627691 0 0 0 0 30.097038
7.9985647 -1.4098562 2.4435472 0 0 0 0 30.101986
7.8113194 -1.5302464 2.2274492 0 0 0 0 30.106932
8.1615591 -0.90554482 2.8281181 0 0 0 0 30.111877
8.1352024 -1.0902666 2.6459217 0 0 0 0 30.116825
8.1149111 -1.2400103 2.4727645 0 0 0 0 30.121773
8.0796299 -1.3847216 2.2946157 0 0 0 0 30.12672
8.2319002 -0.73560995 2.8563392 0 0 0 0 30.131666
8.2065563 -0.91333014 2.6701512 0 0 0 0 30.136614
8.1872711 -1.0600698 2.490998 0 0 0 0 30.14156
8.1779919 -1.2038294 2.3128469 0 0 0 0 30.146507
8.302247 -0.56067669 2.8875637 0 0 0 0 30.151455
8.2639103 -0.73436123 2.689383 0 0 0 0 30.156403
8.2566338 -0.87612134 2.5082343 0 0 0 0 30.161348
8.2383623 -1.0158578 2.3230898 0 0 0 0 30.166296
8.3515921 -0.38369635 2.9117916 0 0 0 0 30.171242
8.3492613 -0.55545217 2.7186086 0 0 0 0 30.176189
8.324996 -0.69117171 2.5274696 0 0 0 0 30.181137
8.3077326 -0.82590437 2.3363311 0 0 0 0 30.186085
8.4309368 -0.20678151 2.9480131 0 0 0 0 30.191031
8.4096184 -0.37049004 2.7418427 0 0 0 0 30.195976
8.3983574 -0.5042305 2.5477045 0 0 0 0 30.200924
8.3981047 -0.6339944 2.3565693 0 0 0 0 30.205872
8.4792824 -0.025798718 2.9742415 0 0 0 0 30.210819
8.4709759 -0.18453044 2.7670753 0 0 0 0 30.215767
8.4697247 -0.31228742 2.5709429 0 0 0 0 30.220713
8.470479 -0.43804744 2.3738124 0 0 0 0 30.225658
8.4076195 0.15544184 2.9594865 0 0 0 0 30.230606
8.5473299 0.0023987717 2.7973046 0 0 0 0 30.235554
8.5380907 -0.11933743 2.5941806 0 0 0 0 30.240501
8.5378571 -0.2380912 2.3920586 0 0 0 0 30.245447
8.3909521 0.3345615 2.9657183 0 0 0 0 30.250395
8.3996716 0.18979932 2.7565663 0 0 0 0 30.255341
8.5994568 0.076628558 2.6154203 0 0 0 0 30.260288
8.6102333 -0.037143238 2.4113026 0 0 0 0 30.265236
8.23526 0.50597537 2.9239604 0 0 0 0 30.270184
8.453022 0.37877506 2.7817969 0 0 0 0 30.275129
8.4438047 0.27004141 2.5736876 0 0 0 0 30.280077
8.5916052 0.16599023 2.4065604 0 0 0 0 30.285023
7.8615093 0.65184677 2.8052051 0 0 0 0 30.28997
8.1683197 0.54945374 2.6990554 0 0 0 0 30.294918
8.4791641 0.46605814 2.5899267 0 0 0 0 30.299866
8.5319662 0.3662037 2.3928185 0 0 0 0 30.304811
7.9128289 0.82681471 2.8374157 0 0 0 0 30.309757
7.8945894 0.7051059 2.6172941 0 0 0 0 30.314705
8.050437 0.62702322 2.4661942 0 0 0 0 30.319653
8.2972965 0.55476755 2.3310874 0 0 0 0 30.3246
7.9601469 1.0027909 2.869626 0 0 0 0 30.329548
7.972928 0.89202118 2.6555123 0 0 0 0 30.334494
7.9907565 0.80722636 2.4564257 0 0 0 0 30.339439
7.9885883 0.72447258 2.2503448 0 0 0 0 30.344387
8.0204763 1.1867375 2.9098411 0 0 0 0 30.349335
8.0412683 1.0819566 2.6927328 0 0 0 0 30.354282
8.0551043 1.0021752 2.4866526 0 0 0 0 30.359228
8.07195 0.92738813 2.2805772 0 0 0 0 30.364176
8.0908098 1.3746648 2.9540567 0 0 0 0 30.369122
8.1076078 1.2738971 2.7299535 0 0 0 0 30.374069
8.1264572 1.2021096 2.5208812 0 0 0 0 30.379017
8.1493111 1.1323158 2.3108106 0 0 0 0 30.383965
8.1551437 1.565605 2.9972742 0 0 0 0 30.38891
8.1649504 1.4698565 2.7651775 0 0 0 0 30.393858
8.1938114 1.4050524 2.5551112 0 0 0 0 30.398804
8.2146759 1.3422663 2.3400486 0 0 0 0 30.403751
9.1809034 1.970942 3.3996987 0 0 0 0 31.403538
8.2324867 1.676531 2.8075933 0 0 0 0 31.408484
8.2643938 1.6176766 2.5925515 0 0 0 0 31.413429
8.2813025 1.5608441 2.3715134 0 0 0 0 31.418377
9.2621737 2.1949122 3.4558778 0 0 0 0 31.423325
9.2840376 2.1051116 3.187814 0 0 0 0 31.428272
9.3139391 2.0452855 2.9407718 0 0 0 0 31.43322
9.3538504 1.993446 2.6947346 0 0 0 0 31.438166
9.3444462 2.4248819 3.5140584 0 0 0 0 31.443111
9.3683195 2.3430822 3.2400005 0 0 0 0 31.448059
9.4032335 2.2942522 2.988966 0 0 0 0 31.453007
9.4471512 2.2484109 2.7379324 0 0 0 0 31.457954
9.4187222 2.6608624 3.5732415 0 0 0 0 31.4629
9.4646091 2.5910363 3.2991903 0 0 0 0 31.467848
9.502533 2.5512054 3.0431616 0 0 0 0 31.472794
9.5434608 2.5143721 2.7851353 0 0 0 0 31.477741
9.5050039 2.9058278 3.6374273 0 0 0 0 31.482689
9.5559025 2.8459985 3.3583827 0 0 0 0 31.487637
9.5848312 2.8121822 3.0953593 0 0 0 0 31.492582
9.6417742 2.7893305 2.8363409 0 0 0 0 31.49753
9.5912876 3.1567941 3.7036145 0 0 0 0 31.502476
9.6451979 3.1079636 3.4205773 0 0 0 0 31.507423
9.6991444 3.0891171 3.1585617 0 0 0 0 31.512371
9.7570963 3.0752673 2.8945494 0 0 0 0 31.517319
9.4124603 3.3231318 3.6707678 0 0 0 0 31.522264
9.4803867 3.2882795 3.393739 0 0 0 0 31.52721
9.5633593 3.2913907 3.1437356 0 0 0 0 31.532158
9.6313248 3.2895267 2.8817306 0 0 0 0 31.537106
9.5047455 3.5830891 3.742955 0 0 0 0 31.542053
9.576685 3.5602343 3.4619341 0 0 0 0 31.547001
9.6336546 3.5623846 3.1969326 0 0 0 0 31.551947
9.6986322 3.5725267 2.9299357 0 0 0 0 31.556892
9.6140423 3.8570237 3.8241472 0 0 0 0 31.56184
9.6719885 3.8411918 3.5321324 0 0 0 0 31.566788
9.7399721 3.8573303 3.2651391 0 0 0 0 31.571735
9.8169661 3.8834593 2.9971516 0 0 0 0 31.576681
9.6933336 4.1319985 3.8993402 0 0 0 0 31.581629
9.7712984 4.1331434 3.6073349 0 0 0 0 31.586575
9.843297 4.1642795 3.3373508 0 0 0 0 31.591522
9.9213009 4.2004118 3.0623693 0 0 0 0 31.59647
9.8036423 4.4259329 3.9885395 0 0 0 0 31.601418
9.8926277 4.4470663 3.6945465 0 0 0 0 31.606363
9.9546337 4.4862189 3.4155684 0 0 0 0 31.611311
10.049661 4.5443325 3.1405995 0 0 0 0 31.616257
9.9069567 4.7298775 4.0777431 0 0 0 0 31.621204
9.9859476 4.7590265 3.7757559 0 0 0 0 31.626152
10.075979 4.8221464 3.4997904 0 0 0 0 31.6311
10.180025 4.8992519 3.2218328 0 0 0 0 31.636045
10.004273 5.0418286 4.170949 0 0 0 0 31.640991
10.118294 5.0989375 3.8729765 0 0 0 0 31.645939
10.214344 5.1810517 3.5950222 0 0 0 0 31.650887
10.308396 5.2661743 3.3070703 0 0 0 0 31.655834
9.9545031 5.2839799 4.2031207 0 0 0 0 31.660782
9.9854918 5.3141966 3.8741381 0 0 0 0 31.665728
9.981493 5.3554382 3.5611665 0 0 0 0 31.670673
9.9885082 5.4096661 3.2502022 0 0 0 0 31.675621
9.6605768 5.3934541 4.1332269 0 0 0 0 31.680569
9.6755667 5.4246836 3.8052466 0 0 0 0 31.685516
9.6755848 5.4809127 3.5012841 0 0 0 0 31.690462
9.6565924 5.5281663 3.1883173 0 0 0 0 31.69541
9.3776445 5.4979081 4.0663271 0 0 0 0 31.700356
9.3936529 5.5451279 3.7483568 0 0 0 0 31.705303
9.3666611 5.5933838 3.4413912 0 0 0 0 31.710251
9.3456812 5.6526322 3.135432 0 0 0 0 31.715199
9.123724 5.6133165 4.0134301 0 0 0 0 31.720144
9.1107225 5.6535678 3.6894577 0 0 0 0 31.725092
9.0647306 5.7018394 3.3834937 0 0 0 0 31.730038
9.0307531 5.7630954 3.0825365 0 0 0 0 31.734985
8.8447781 5.7077508 3.9515202 0 0 0 0 31.739933
8.8317862 5.7569957 3.6335533 0 0 0 0 31.744881
8.7898073 5.8172545 3.3365958 0 0 0 0 31.749826
8.7458296 5.8795166 3.0366399 0 0 0 0 31.754772
8.5928354 5.8061461 3.8986087 0 0 0 0 31.75972
8.5638466 5.8584027 3.5826445 0 0 0 0 31.764668
8.520875 5.9256563 3.2916913 0 0 0 0 31.769615
8.4578953 5.9859338 2.9927354 0 0 0 0 31.774563
8.3518925 5.9055233 3.848695 0 0 0 0 31.779509
8.3119049 5.9597855 3.535733 0 0 0 0 31.784454
8.2499313 6.0250545 3.2457798 0 0 0 0 31.789402
8.1839552 6.0893283 2.952826 0 0 0 0 31.79435
8.1119432 5.9998922 3.8017769 0 0 0 0 31.799297
8.0579529 6.0521655 3.4888144 0 0 0 0 31.804243
8.04002 6.1573734 3.2218807 0 0 0 0 31.809191
8.1982384 6.4103684 3.0180209 0 0 0 0 31.814137
7.9010029 6.1042199 3.7658603 0 0 0 0 31.819084
8.0391827 6.3212452 3.5459797 0 0 0 0 31.824032
8.1833982 6.5732522 3.3461194 0 0 0 0 31.828979
8.3426352 6.8492503 3.1372716 0 0 0 0 31.833925
7.9933133 6.4531579 3.8790619 0 0 0 0 31.838873
8.1575308 6.711153 3.6682019 0 0 0 0 31.843819
8.3207836 7.0041389 3.4733629 0 0 0 0 31.848766
8.4950581 7.3231215 3.2675374 0 0 0 0 31.853714
8.1266651 6.8500438 4.0182843 0 0 0 0 31.858662
8.288909 7.1380429 3.8044407 0 0 0 0 31.863607
8.4711962 7.4720087 3.6146224 0 0 0 0 31.868553
8.673522 7.8479605 3.4168258 0 0 0 0 31.873501
8.2467365 7.2565188 4.1576495 0 0 0 0 31.602619
8.4440737 7.6004682 3.9568613 0 0 0 0 31.607567
8.6324434 7.9724197 3.7670918 0 0 0 0 31.612514
8.8538704 8.4013386 3.5743563 0 0 0 0 31.61746
8.4022026 7.7203412 4.3239379 0 0 0 0 31.622408
8.6025705 8.0962906 4.1201682 0 0 0 0 31.627354
8.8190041 8.5322046 3.9424365 0 0 0 0 31.632301
9.0785084 9.0360785 3.7597444 0 0 0 0 31.637249
8.5666904 8.2121525 4.4992394 0 0 0 0 31.642197
8.7821121 8.6420822 4.3035011 0 0 0 0 31.647142
9.0296154 9.1469584 4.1378088 0 0 0 0 31.652088
9.3141937 9.7268 3.9641612 0 0 0 0 31.657036
8.7392101 8.7409506 4.6905584 0 0 0 0 31.661983
8.9836998 9.2398424 4.5068603 0 0 0 0 31.666931
9.2512665 9.8106947 4.348206 0 0 0 0 31.671879
9.5759449 10.489487 4.1906152 0 0 0 0 31.676825
8.9257698 9.3167276 4.8999004 0 0 0 0 31.68177
9.2113485 9.9045649 4.7362533 0 0 0 0 31.686718
9.5390348 10.594339 4.6056666 0 0 0 0 31.691666
9.4762878 10.890654 4.2708607 0 0 0 0 31.696613
9.144393 9.9624577 5.1382794 0 0 0 0 31.701559
9.4500427 10.623271 4.984673 0 0 0 0 31.706507
9.3282242 10.855656 4.6338301 0 0 0 0 31.711452
9.1483459 11.034119 4.2519569 0 0 0 0 31.7164
9.37006 10.660175 5.3976831 0 0 0 0 31.721348
9.2101727 10.831633 4.9908032 0 0 0 0 31.726295
9.0292978 11.013086 4.6199317 0 0 0 0 31.731241
9.1001234 10.808585 5.3757768 0 0 0 0 31.741135
8.9362535 10.998034 4.9809079 0 0 0 0 31.746082
9.1479235 11.696947 4.8263254 0 0 0 0 31.75103
8.8401937 10.964974 5.3608723 0 0 0 0 31.760923
8.8099499 11.819418 4.8024015 0 0 0 0 31.770817
8.9687901 11.626817 5.5912452 0 0 0 0 31.780712
8.4399128 11.883926 4.757443 0 0 0 0 31.790606
8.6507874 11.724276 5.5493026 0 0 0 0 31.800499
8.1439724 12.043327 4.7535343 0 0 0 0 31.810394
8.3417883 11.826715 5.5143609 0 0 0 0 31.820288
8.027771 11.913157 5.4724078 0 0 0 0 31.840076
7.2321458 12.492674 4.3738117 0 0 0 0 31.854916
7.6336308 11.877699 5.3813872 0 0 0 0 31.859863
6.8911309 12.586101 4.3618598 0 0 0 0 31.874704
7.3015637 11.915152 5.3264046 0 0 0 0 31.87965
7.2500458 12.472357 5.1087346 0 0 0 0 31.884598
6.5511117 12.676517 4.3519044 0 0 0 0 31.894493
6.9985328 11.989557 5.2914405 0 0 0 0 31.899441
6.9049811 12.516804 5.0677528 0 0 0 0 31.904387
6.6904912 12.053964 5.2544694 0 0 0 0 31.919228
6.5839434 12.590212 5.0407853 0 0 0 0 31.924175
6.4094782 12.149329 5.2335124 0 0 0 0 31.939014
6.2819324 12.692589 5.028831 0 0 0 0 31.943962
5.3816528 12.532935 4.2018037 0 0 0 0 31.953857
6.1204572 12.237696 5.213551 0 0 0 0 31.958803
5.9739032 12.776966 5.0128651 0 0 0 0 31.963751
5.0285354 12.520349 4.168787 0 0 0 0 31.973644
5.8464584 12.352035 5.2056012 0 0 0 0 31.978592
5.5666704 12.646473 4.9177852 0 0 0 0 31.98354
5.080451 12.477173 4.4897246 0 0 0 0 31.988485
4.7285485 12.647676 4.1898441 0 0 0 0 31.993433
5.5844855 12.495351 5.2126651 0 0 0 0 31.998379
5.1784372 12.511953 4.8217025 0 0 0 0 32.003326
4.7844296 12.568508 4.4917607 0 0 0 0 32.008274
4.3984771 12.685041 4.1818519 0 0 0 0 32.013222
5.3164902 12.61667 5.2127151 0 0 0 0 32.018166
4.8443136 12.493349 4.77668 0 0 0 0 32.023113
4.4733686 12.617858 4.4797735 0 0 0 0 32.028061
4.0984669 12.79036 4.1968937 0 0 0 0 32.033009
4.9212036 12.422167 5.0846009 0 0 0 0 32.037956
4.5663066 12.602661 4.7827229 0 0 0 0 32.042904
4.1793504 12.715177 4.4888105 0 0 0 0 32.047852
3.804477 12.920663 4.2239466 0 0 0 0 32.052795
4.648181 12.515482 5.0776343 0 0 0 0 32.057743
4.2642365 12.644001 4.7647295 0 0 0 0 32.062691
3.8913417 12.82548 4.5048518 0 0 0 0 32.067638
3.5145025 13.070951 4.2600088 0 0 0 0 32.072586
4.3634734 12.578898 5.0632281 0 0 0 0 31.821285
3.9865842 12.749463 4.7733603 0 0 0 0 31.826233
3.6207747 12.995976 4.5455375 0 0 0 0 31.831181
3.2018669 13.146564 4.2766604 0 0 0 0 31.836128
4.083436 12.649248 5.0512547 0 0 0 0 31.841076
3.701576 12.848798 4.7824039 0 0 0 0 31.846022
3.321748 13.078319 4.5555706 0 0 0 0 31.850967
2.9551399 13.530786 4.3938704 0 0 0 0 31.855915
3.8094287 12.749576 5.0552979 0 0 0 0 31.860863
3.4356396 13.022092 4.8214889 0 0 0 0 31.86581
3.0367939 13.235624 4.5956459 0 0 0 0 31.870756
2.6401198 13.625122 4.4199076 0 0 0 0 31.875704
3.5504732 12.904872 5.0803714 0 0 0 0 31.88065
3.1435995 13.093427 4.8235126 0 0 0 0 31.885597
2.3331566 13.779433 4.467978 0 0 0 0 31.895493
3.2844977 13.042171 5.1024323 0 0 0 0 31.900438
2.8827045 13.314692 4.8836217 0 0 0 0 31.905386
3.0064809 13.139486 5.1094689 0 0 0 0 31.920227
2.23436 14.17136 4.887125 0 0 0 0 31.93012
2.7545886 13.36874 5.1685786 0 0 0 0 31.940014
1.4075067 14.513276 4.7163339 0 0 0 0 31.954857
2.0872135 14.210423 5.1590643 0 0 0 0 31.964748
1.964038 14.219467 5.4239841 0 0 0 0 31.999378
0.38048691 14.888213 4.8764677 0 0 0 0 32.014221
0.60940892 14.878892 5.1333952 0 0 0 0 32.02906
0.48917642 14.840935 5.3532796 0 0 0 0 32.06369
0.40093979 14.797956 5.5651588 0 0 0 0 32.09832
-1.4316335 15.462713 5.1916351 0 0 0 0 32.113159
-1.5148149 15.494678 5.441545 0 0 0 0 32.147789
-2.5062039 15.241604 5.230423 0 0 0 0 32.172523
-2.8743277 15.24388 5.2743921 0 0 0 0 32.19231
-1.3051194 15.485362 5.8103571 0 0 0 0 32.197258
-2.5415115 15.120557 5.3962517 0 0 0 0 32.207153
-3.2574174 15.28715 5.3383832 0 0 0 0 32.212097
-1.5639292 14.657737 5.5049019 0 0 0 0 32.217049
-2.9076056 15.158823 5.4452395 0 0 0 0 32.22694
-3.6684225 15.436418 5.4404278 0 0 0 0 32.231888
-1.9139481 14.786996 5.560936 0 0 0 0 32.236835
-2.5828383 14.975541 5.5090723 0 0 0 0 32.241783
-3.3006299 15.285086 5.531271 0 0 0 0 32.246727
-4.0914373 15.576686 5.5474663 0 0 0 0 32.251675
-2.2839115 14.98825 5.648005 0 0 0 0 32.256622
-2.9708221 15.152799 5.6011291 0 0 0 0 32.26157
-3.7036538 15.414347 5.6213036 0 0 0 0 32.266518
-4.4715939 15.539942 5.5934143 0 0 0 0 32.271461
-2.6260424 14.982511 5.6599689 0 0 0 0 32.276413
-3.3578563 15.270058 5.6751542 0 0 0 0 32.281357
-4.093739 15.468605 5.6862969 0 0 0 0 32.286304
-4.7230864 15.072168 5.4871454 0 0 0 0 32.291252
-3.0064757 15.155732 5.7418003 0 0 0 0 32.057327
-3.7443256 15.367366 5.7449689 0 0 0 0 32.062275
-4.3696065 15.094981 5.5998626 0 0 0 0 32.067223
-5.1166434 15.093639 5.5609155 0 0 0 0 32.072166
-3.3885033 15.268026 5.8038321 0 0 0 0 32.077118
-4.0446901 15.100653 5.6807866 0 0 0 0 32.082062
-4.6170964 14.680235 5.4965978 0 0 0 0 32.087009
-5.3980455 14.775884 5.5137057 0 0 0 0 32.091957
-3.714757 15.125319 5.7727208 0 0 0 0 32.096905
-4.3121305 14.74092 5.5845547 0 0 0 0 32.101852
-4.8565617 14.285473 5.4003468 0 0 0 0 32.106796
-5.6245365 14.349098 5.4244366 0 0 0 0 32.111744
-3.9951556 14.812597 5.6795158 0 0 0 0 32.116692
-4.5715418 14.406171 5.4983387 0 0 0 0 32.121639
-5.1558475 14.087713 5.3832092 0 0 0 0 32.126587
-5.840004 13.939296 5.3411794 0 0 0 0 32.131531
-4.2665372 14.51186 5.5913205 0 0 0 0 32.136478
-4.8159575 14.059403 5.4091191 0 0 0 0 32.141426
-5.5239639 14.083963 5.4411817 0 0 0 0 32.146374
-6.0504518 13.543479 5.2659345 0 0 0 0 32.151321
-4.527915 14.209107 5.5041261 0 0 0 0 32.156265
-5.0433841 13.690621 5.3128905 0 0 0 0 32.161217
-5.7513776 13.728163 5.3659596 0 0 0 0 32.166161
-6.261857 13.188651 5.2047148 0 0 0 0 32.171108
-4.7862778 13.916342 5.4249401 0 0 0 0 32.176056
-5.2837424 13.394828 5.2457047 0 0 0 0 32.181004
-5.9568062 13.346343 5.2817264 0 0 0 0 32.185951
-6.4053483 12.722787 5.0994368 0 0 0 0 32.190895
-5.0196643 13.587559 5.3317366 0 0 0 0 32.195843
-5.6987391 13.528082 5.3517532 0 0 0 0 32.20079
-6.1871576 13.048522 5.2305417 0 0 0 0 32.205738
-6.5967326 12.374931 5.0422282 0 0 0 0 32.210686
-5.2440395 13.264758 5.2435389 0 0 0 0 32.21563
-5.9231071 13.210267 5.2805586 0 0 0 0 32.220577
-4.9339056 9.8111277 3.9867706 0 0 0 0 32.225525
-5.6630206 13.420012 5.3465981 0 0 0 0 32.23542
-4.7508278 9.9799433 4.0318122 0 0 0 0 32.240368
-6.5299873 12.272807 5.0610847 0 0 0 0 32.245316
-6.6528745 11.191056 4.7235541 0 0 0 0 32.250259
-5.9253192 13.18221 5.2994494 0 0 0 0 32.255207
-6.3258591 12.531592 5.1271553 0 0 0 0 32.260155
-6.8551497 10.94918 4.7064123 0 0 0 0 32.27005
-4.769949 9.9969034 4.0547619 0 0 0 0 32.274994
-6.5192137 12.206738 5.0579653 0 0 0 0 32.279945
-6.6010714 11.136944 4.7354488 0 0 0 0 32.284889
-6.9385595 10.530246 4.6141782 0 0 0 0 32.289837
-6.3290462 12.522535 5.1290622 0 0 0 0 32.294785
-5.1077676 9.0582438 3.8023033 0 0 0 0 32.299728
-6.8233175 10.927075 4.7243266 0 0 0 0 32.30468
