# .PCD v0.7 - Point Cloud Data file format
VERSION 0.7
FIELDS x y z normal_x normal_y normal_z intensity curvature
SIZE 4 4 4 4 4 4 4 4
TYPE F F F F F F F F
COUNT 1 1 1 1 1 1 1 1
WIDTH 975
HEIGHT 1
VIEWPOINT 0 0 0 1 0 0 0
POINTS 975
DATA ascii
6.7686753 -4.9654589 3.1227744 0 0 0 0 63.527519
8.7588053 -4.8884444 4.0856419 0 0 0 0 63.532463
8.1250668 -4.9431257 3.7621143 0 0 0 0 63.537415
7.5573173 -4.9373035 3.4616082 0 0 0 0 63.542358
7.0948663 -4.9620523 3.2140071 0 0 0 0 63.54731
9.2078266 -4.8780942 4.2574244 0 0 0 0 63.552254
8.5225582 -4.9270024 3.9004712 0 0 0 0 63.557198
7.949111 -4.9413514 3.5891073 0 0 0 0 63.562149
7.4288006 -4.9454613 3.3070972 0 0 0 0 63.567093
9.6777411 -4.858254 4.4369254 0 0 0 0 63.572044
8.9827738 -4.9294348 4.0651689 0 0 0 0 63.576988
8.3343573 -4.9225411 3.7115917 0 0 0 0 63.581932
7.7858424 -4.9293375 3.4079182 0 0 0 0 63.586884
10.261 -4.870791 4.6692352 0 0 0 0 63.591827
9.3805246 -4.8802853 4.2003884 0 0 0 0 63.596779
8.7609491 -4.9107785 3.8496206 0 0 0 0 63.601723
8.1975327 -4.9299526 3.5321672 0 0 0 0 63.606667
10.513744 -4.7118902 4.7517085 0 0 0 0 63.611618
9.8907051 -4.8685408 4.3864465 0 0 0 0 63.616562
9.1963282 -4.8867993 3.991497 0 0 0 0 63.621513
8.6097918 -4.9125538 3.6523366 0 0 0 0 63.626457
10.505512 -4.4339647 4.7187438 0 0 0 0 63.631409
10.474545 -4.8700967 4.6026974 0 0 0 0 63.636353
9.6799898 -4.8647022 4.1528182 0 0 0 0 63.641296
9.058279 -4.8973136 3.7870905 0 0 0 0 63.646248
10.505566 -4.1658392 4.6927195 0 0 0 0 63.651192
10.525942 -4.6108294 4.5881138 0 0 0 0 63.656143
10.233301 -4.8570008 4.3413815 0 0 0 0 63.661087
9.5245848 -4.8696508 3.9285867 0 0 0 0 63.666031
10.4997 -3.9018419 4.6667767 0 0 0 0 63.670982
10.525746 -4.3367424 4.5520678 0 0 0 0 63.675926
10.56479 -4.7253571 4.436038 0 0 0 0 63.680878
10.059453 -4.8534131 4.0953269 0 0 0 0 63.685822
10.386942 -3.6077473 4.5974889 0 0 0 0 63.363777
10.518836 -4.0652738 4.5186391 0 0 0 0 63.368721
10.552362 -4.4400492 4.3896098 0 0 0 0 63.373665
10.57161 -4.8071613 4.2507157 0 0 0 0 63.378616
10.229548 -3.3041775 4.5121427 0 0 0 0 63.38356
10.523005 -3.8010652 4.4915891 0 0 0 0 63.388512
10.556112 -4.1608768 4.3535099 0 0 0 0 63.393456
10.587195 -4.5227528 4.2094612 0 0 0 0 63.398399
10.233335 -3.0629451 4.4971824 0 0 0 0 63.403351
10.258943 -3.4489405 4.3542848 0 0 0 0 63.408295
10.567123 -3.891535 4.3223619 0 0 0 0 63.413246
10.595787 -4.2384901 4.1692858 0 0 0 0 63.41819
10.223063 -2.8210223 4.4793787 0 0 0 0 63.423141
10.12079 -3.1549563 4.2727547 0 0 0 0 63.428085
10.373749 -3.556819 4.2113128 0 0 0 0 63.433029
10.584263 -3.9526768 4.1233335 0 0 0 0 63.437981
10.265429 -2.5958979 4.4850335 0 0 0 0 63.442924
10.254957 -2.9497731 4.3084311 0 0 0 0 63.447876
10.249482 -3.2555239 4.1335959 0 0 0 0 63.45282
10.514177 -3.6521788 4.0579972 0 0 0 0 63.457764
10.211844 -2.3479464 4.453702 0 0 0 0 63.462715
10.273831 -2.7112048 4.2973042 0 0 0 0 63.467659
10.295352 -3.0153728 4.1241536 0 0 0 0 63.47261
10.323863 -3.3183875 3.9519179 0 0 0 0 63.477554
10.235147 -2.1222384 4.4565701 0 0 0 0 63.482506
10.259411 -2.4653838 4.2755308 0 0 0 0 63.48745
10.2948 -2.764261 4.1002011 0 0 0 0 63.492393
10.324006 -3.0572865 3.9199212 0 0 0 0 63.497345
10.41189 -1.9250156 4.5277815 0 0 0 0 63.502289
10.243082 -2.2236013 4.2547936 0 0 0 0 63.50724
10.302371 -2.5159557 4.0821652 0 0 0 0 63.512184
10.324241 -2.7991736 3.890933 0 0 0 0 63.517128
10.505854 -1.7106711 4.565877 0 0 0 0 63.522079
10.339889 -2.0072327 4.2828493 0 0 0 0 63.527023
10.259572 -2.2607882 4.0466814 0 0 0 0 63.531975
10.325535 -2.5420246 3.8659356 0 0 0 0 63.536919
10.502971 -1.4805378 4.563024 0 0 0 0 63.541862
10.334971 -2.0339258 4.0599427 0 0 0 0 63.551758
10.287597 -2.2817597 3.8283763 0 0 0 0 63.556709
10.498127 -1.2514395 4.5621967 0 0 0 0 63.561653
10.496043 -1.8191075 4.1072612 0 0 0 0 63.571548
10.365771 -2.0478554 3.8355777 0 0 0 0 63.576492
10.494311 -1.0223089 4.5643573 0 0 0 0 63.581444
10.951563 -1.3827225 4.5103979 0 0 0 0 63.586388
10.54779 -1.8305845 3.882643 0 0 0 0 63.596283
10.489564 -0.79720277 4.5655413 0 0 0 0 63.601227
10.941275 -1.137759 4.5015697 0 0 0 0 63.606178
10.475801 -0.57229352 4.5658293 0 0 0 0 63.621017
10.93706 -0.89264137 4.4996705 0 0 0 0 63.625961
10.477175 -0.34902883 4.5749483 0 0 0 0 63.640808
10.90273 -0.64921218 4.4861231 0 0 0 0 63.645752
10.461457 -0.12515174 4.5782609 0 0 0 0 63.660591
10.895633 -0.40915102 4.4862738 0 0 0 0 63.665543
10.454844 0.096941158 4.5874748 0 0 0 0 63.680382
10.893575 -0.16896777 4.490365 0 0 0 0 63.685326
10.443269 0.31692684 4.5967526 0 0 0 0 63.700172
10.868444 0.069691204 4.4867263 0 0 0 0 63.705116
10.433657 0.53996563 4.6089954 0 0 0 0 63.719955
10.869486 0.3079614 4.4967871 0 0 0 0 63.724907
10.432159 0.76019585 4.6261539 0 0 0 0 63.739746
10.849422 0.54675299 4.5000887 0 0 0 0 63.74469
10.413592 0.98003745 4.6375103 0 0 0 0 63.759537
10.83142 0.78359514 4.5053725 0 0 0 0 63.764481
10.411065 1.2032599 4.658668 0 0 0 0 63.77932
10.8285 1.0217972 4.5204759 0 0 0 0 63.784271
10.88306 0.84701425 4.2434597 0 0 0 0 63.789215
10.400542 1.4242994 4.6769257 0 0 0 0 63.79911
10.802498 1.2584696 4.5268517 0 0 0 0 63.804054
10.40204 1.6486267 4.7030306 0 0 0 0 63.818901
10.749426 1.4935288 4.5255461 0 0 0 0 63.823845
10.386165 1.8706547 4.7259321 0 0 0 0 63.587479
10.627994 1.7120638 4.4976988 0 0 0 0 63.59243
10.389689 2.0970383 4.756012 0 0 0 0 63.607269
10.55106 1.9385933 4.4907022 0 0 0 0 63.612221
10.4062 2.3287332 4.7949209 0 0 0 0 63.62706
10.53722 2.1755705 4.5099406 0 0 0 0 63.632004
10.532697 2.5919912 4.8884449 0 0 0 0 63.646843
10.495384 2.4069138 4.5205212 0 0 0 0 63.651794
10.384111 2.7868807 4.856391 0 0 0 0 63.666634
10.474537 2.6457539 4.5438323 0 0 0 0 63.671577
10.832345 2.6088681 4.3638039 0 0 0 0 63.676529
10.427714 2.8769951 4.5564699 0 0 0 0 63.691368
10.893038 2.8865857 4.418026 0 0 0 0 63.69632
10.410835 3.1189344 4.5837221 0 0 0 0 63.711159
10.861713 3.1451993 4.4383793 0 0 0 0 63.716103
10.770692 3.6309369 5.1636605 0 0 0 0 63.725998
10.371994 3.3553782 4.605247 0 0 0 0 63.730942
10.828405 3.4037764 4.4607553 0 0 0 0 63.735893
10.074116 3.6310587 4.8746605 0 0 0 0 63.745789
10.160453 3.5358274 4.5539765 0 0 0 0 63.750732
10.645411 3.6129012 4.4230452 0 0 0 0 63.755684
10.005649 3.8468375 4.8916068 0 0 0 0 63.765572
10.069783 3.7520723 4.5551772 0 0 0 0 63.770523
10.142404 3.701632 4.2564874 0 0 0 0 63.775467
10.203947 3.6509283 3.9509265 0 0 0 0 63.780418
9.9980278 4.0850291 4.9357648 0 0 0 0 63.785362
10.059878 4.0022106 4.5973172 0 0 0 0 63.790306
10.078438 3.9395077 4.2722983 0 0 0 0 63.795258
10.135706 3.8997037 3.9637458 0 0 0 0 63.800201
9.9933615 4.3283067 4.9858694 0 0 0 0 63.805153
10.044977 4.2502303 4.6365213 0 0 0 0 63.810097
10.082188 4.2069545 4.317214 0 0 0 0 63.815041
10.143193 4.1792345 4.0085731 0 0 0 0 63.819992
9.8889942 4.5302515 4.9882812 0 0 0 0 63.824936
9.9672327 4.477808 4.6535301 0 0 0 0 63.829887
10.020147 4.450892 4.3389792 0 0 0 0 63.834831
10.074923 4.4320288 4.0273767 0 0 0 0 63.839783
9.883214 4.7815266 5.0443683 0 0 0 0 63.844727
9.9452381 4.731688 4.6967936 0 0 0 0 63.84967
9.9988689 4.7177906 4.3821859 0 0 0 0 63.854622
10.059356 4.7110467 4.068471 0 0 0 0 63.859566
9.881362 5.0368948 5.1023927 0 0 0 0 63.864517
9.9410801 5.0000024 4.7527966 0 0 0 0 63.869461
9.9814882 4.9917927 4.4303198 0 0 0 0 63.874405
10.047645 5.000175 4.1164827 0 0 0 0 63.879356
9.9440517 5.3358126 5.2005053 0 0 0 0 63.8843
10.02834 5.321475 4.8555384 0 0 0 0 63.889252
10.071416 5.3263116 4.5289812 0 0 0 0 63.894196
10.124337 5.3393707 4.2042789 0 0 0 0 63.899139
9.9022436 5.5812697 5.2460284 0 0 0 0 63.904091
9.9642992 5.5714135 4.8903022 0 0 0 0 63.909035
10.016068 5.5914493 4.565587 0 0 0 0 63.913986
10.065682 5.6184397 4.2408705 0 0 0 0 63.91893
9.8454409 5.8233829 5.2867379 0 0 0 0 63.923882
9.9449434 5.8494124 4.9494419 0 0 0 0 63.928825
9.9824677 5.87712 4.6188631 0 0 0 0 63.933769
10.030828 5.9140754 4.2911234 0 0 0 0 63.938721
10.543011 6.5160065 5.32095 0 0 0 0 63.948616
10.260475 6.3561158 4.817791 0 0 0 0 63.95356
10.633645 6.614635 4.6194415 0 0 0 0 63.958504
10.619355 6.8873286 5.4406209 0 0 0 0 63.968399
10.400024 6.7779031 4.9615393 0 0 0 0 63.973351
10.464361 6.8561811 4.623455 0 0 0 0 63.978294
10.298978 7.1048274 4.6323981 0 0 0 0 63.998085
10.231661 7.4237905 4.6899357 0 0 0 0 64.017868
10.541547 7.9469151 5.3013535 0 0 0 0 64.032715
10.21372 7.7859306 4.773736 0 0 0 0 64.037659
10.509686 8.3077755 5.3903174 0 0 0 0 64.052498
10.232148 8.1899557 4.8809533 0 0 0 0 64.057449
10.570578 8.7510071 5.5288239 0 0 0 0 64.091957
10.499171 8.8200626 5.1163545 0 0 0 0 64.096909
10.566161 9.3123236 5.265666 0 0 0 0 64.116692
10.470958 9.6807652 5.344337 0 0 0 0 64.136482
10.154917 10.585933 6.871541 0 0 0 0 64.20079
9.8523397 11.555915 5.7632413 0 0 0 0 64.23542
9.6046839 11.825824 5.7990746 0 0 0 0 64.255211
9.5354223 11.95009 6.2674074 0 0 0 0 64.27005
9.4735565 12.251593 5.9119534 0 0 0 0 64.275002
9.4147902 11.969007 6.6797395 0 0 0 0 64.284889
9.3881207 12.330445 6.3666477 0 0 0 0 64.289841
9.4663916 12.866449 6.1156631 0 0 0 0 64.294785
9.2769976 11.961617 7.114377 0 0 0 0 64.299736
9.3266134 12.411815 6.8190508 0 0 0 0 64.30468
9.3785372 12.919245 6.5714841 0 0 0 0 64.309624
9.4684019 13.529593 6.3400807 0 0 0 0 64.314575
9.254015 12.468042 7.3016829 0 0 0 0 64.319519
9.3047171 12.965313 7.0171647 0 0 0 0 64.324471
9.3662701 13.547054 6.7922025 0 0 0 0 64.329414
9.1003704 12.814219 7.3941283 0 0 0 0 64.33931
9.2509651 13.507081 7.207696 0 0 0 0 64.344254
9.2967577 14.125503 6.9877791 0 0 0 0 64.349205
8.7302895 12.855945 7.3142705 0 0 0 0 64.3591
9.1829777 14.06055 7.4013491 0 0 0 0 64.364044
9.2110329 14.715615 7.1885018 0 0 0 0 64.368988
9.2667837 15.483368 6.9898996 0 0 0 0 64.37394
8.3927107 12.935483 7.2618923 0 0 0 0 64.378883
8.7710171 14.099375 7.3289976 0 0 0 0 64.383835
9.1460705 15.380324 7.4236965 0 0 0 0 64.388779
9.1807766 16.200666 7.2361426 0 0 0 0 64.393723
8.0445099 12.992741 7.2007289 0 0 0 0 64.398674
8.3330574 14.079517 7.2331805 0 0 0 0 64.403618
8.6641359 15.362533 7.3363872 0 0 0 0 64.408569
8.9918756 16.788456 7.4240866 0 0 0 0 64.413513
7.7013879 13.049118 7.1445127 0 0 0 0 64.418465
8.2651119 14.694111 7.461606 0 0 0 0 64.423409
8.2370052 15.423107 7.2921414 0 0 0 0 64.428352
8.4016161 16.619047 7.2856336 0 0 0 0 64.433304
7.3449135 13.065112 7.0686116 0 0 0 0 64.438248
7.8429098 14.693645 7.3815379 0 0 0 0 64.443199
8.0291672 15.897306 7.4437475 0 0 0 0 64.448143
8.2187414 17.269094 7.5082769 0 0 0 0 64.453087
6.9935389 13.079225 6.9976625 0 0 0 0 64.458038
7.4366546 14.701556 7.3122554 0 0 0 0 64.462982
7.5627089 15.85983 7.3603468 0 0 0 0 64.467934
7.6553073 17.117315 7.3874536 0 0 0 0 64.472878
6.6560235 13.105676 6.9375076 0 0 0 0 64.477821
7.0327783 14.68848 7.2360301 0 0 0 0 64.482773
7.1053953 15.818559 7.2818589 0 0 0 0 64.487717
7.135026 17.021601 7.2979155 0 0 0 0 64.492668
6.3245511 13.131258 6.8792896 0 0 0 0 64.497612
6.6261477 14.665337 7.1618814 0 0 0 0 64.502563
6.6533456 15.765388 7.2033606 0 0 0 0 64.507507
6.6154356 16.889845 7.1995144 0 0 0 0 64.512451
5.9748321 13.113357 6.8044567 0 0 0 0 64.517403
6.2537093 14.694048 7.1151376 0 0 0 0 64.522346
6.2103643 15.712426 7.1307611 0 0 0 0 64.527298
6.1175227 16.782625 7.1187716 0 0 0 0 64.532242
5.6447344 13.122952 6.7482924 0 0 0 0 64.537186
5.8516364 14.642959 7.0360527 0 0 0 0 64.542137
5.7726808 15.645562 7.057158 0 0 0 0 64.547081
5.6280456 16.651541 7.030026 0 0 0 0 64.552032
5.3136048 13.128577 6.6883883 0 0 0 0 65.459526
5.4584012 14.609307 6.9668131 0 0 0 0 65.46447
5.3223629 15.529463 6.9628448 0 0 0 0 65.469421
5.1414676 16.524578 6.9481282 0 0 0 0 65.474365
4.9946175 13.134212 6.6362195 0 0 0 0 65.479309
5.0859661 14.585695 6.9084067 0 0 0 0 65.484261
4.9030166 15.451731 6.8952231 0 0 0 0 65.489204
4.6688824 16.354511 6.8555179 0 0 0 0 65.494156
4.6748128 13.132823 6.5860915 0 0 0 0 65.4991
4.7053866 14.515817 6.8342862 0 0 0 0 65.504044
4.4542499 15.225038 6.7625489 0 0 0 0 65.508995
4.0670767 15.63051 6.5366573 0 0 0 0 65.513939
4.3619971 13.133597 6.5388756 0 0 0 0 65.51889
4.1767383 13.921532 6.5200281 0 0 0 0 65.523834
3.9414673 14.716375 6.5147657 0 0 0 0 65.528786
3.6468496 15.50573 6.473248 0 0 0 0 65.53373
4.0703516 13.18596 6.5192037 0 0 0 0 65.538673
3.8336301 13.891603 6.4753079 0 0 0 0 65.543625
3.5541301 14.591297 6.43996 0 0 0 0 65.548569
3.2198753 15.313682 6.3871913 0 0 0 0 65.55352
3.7560651 13.15965 6.4651198 0 0 0 0 65.558464
3.4786437 13.796267 6.4009933 0 0 0 0 65.563408
3.1745057 14.485432 6.3769908 0 0 0 0 65.568359
2.8066378 15.140992 6.3148975 0 0 0 0 65.573303
3.4419191 13.129349 6.4150553 0 0 0 0 65.578255
3.1438432 13.753508 6.3572326 0 0 0 0 65.583199
2.8052988 14.35877 6.3089814 0 0 0 0 65.588142
2.4141276 14.983788 6.2482963 0 0 0 0 65.593094
3.1290634 13.082034 6.3570466 0 0 0 0 65.598038
2.8040986 13.650517 6.2877731 0 0 0 0 65.602989
2.4440062 14.240311 6.2488494 0 0 0 0 65.607933
2.0237706 14.765533 6.1619143 0 0 0 0 65.612885
2.8215127 13.019817 6.2960353 0 0 0 0 65.617828
2.4741547 13.56178 6.2281427 0 0 0 0 65.622772
2.0856938 14.067818 6.1678982 0 0 0 0 65.627724
1.7141811 15.186278 6.3450451 0 0 0 0 65.632668
2.52074 12.972787 6.2448864 0 0 0 0 65.637619
2.1484947 13.459117 6.1655202 0 0 0 0 65.642563
1.8073649 14.471226 6.3387146 0 0 0 0 65.647507
1.336917 14.966316 6.2625203 0 0 0 0 65.652458
2.2213182 12.907755 6.188796 0 0 0 0 65.657402
1.8996243 13.895264 6.3518486 0 0 0 0 65.662354
1.4604065 14.341081 6.2834682 0 0 0 0 65.667297
0.8836987 13.450304 5.6490207 0 0 0 0 65.672249
1.9977881 13.322428 6.3618989 0 0 0 0 65.677193
1.5714982 13.766502 6.2843676 0 0 0 0 65.682137
1.1179471 14.184992 6.2202744 0 0 0 0 65.687088
0.61021066 14.550107 6.1250577 0 0 0 0 65.692032
1.69426 13.268334 6.3178239 0 0 0 0 65.696983
1.2544532 13.693103 6.2445388 0 0 0 0 65.701927
0.71011662 12.736989 5.5979629 0 0 0 0 65.706871
0.26121369 14.325805 6.0542226 0 0 0 0 65.711823
1.3978117 13.211398 6.2746782 0 0 0 0 65.716766
0.93560541 13.55354 6.1789966 0 0 0 0 65.721718
0.41245598 12.54085 5.5223904 0 0 0 0 65.726662
-0.077409722 14.138806 6.0011196 0 0 0 0 65.731606
1.1020166 13.1174 6.2156749 0 0 0 0 65.736557
0.58507085 12.473433 5.691545 0 0 0 0 65.741501
0.12196869 12.394977 5.4725375 0 0 0 0 65.746452
-0.40159154 13.929097 5.9409347 0 0 0 0 65.751396
0.80736244 13.018426 6.1586819 0 0 0 0 65.756348
0.30280468 12.30465 5.6166811 0 0 0 0 65.761292
-0.15804441 12.22329 5.412663 0 0 0 0 65.766235
-0.64776987 12.420795 5.3319044 0 0 0 0 65.771187
0.36216408 8.7456503 4.1489601 0 0 0 0 65.776131
0.028115883 12.163097 5.557622 0 0 0 0 65.781082
-0.43302289 12.107822 5.3785095 0 0 0 0 65.786026
-0.93024826 12.287169 5.3049202 0 0 0 0 65.79097
0.17046408 8.65907 4.1046705 0 0 0 0 65.795921
-0.1672751 8.77707 4.032362 0 0 0 0 65.800865
-0.71400177 12.166554 5.4247484 0 0 0 0 65.805817
-1.3247464 13.29109 5.7718401 0 0 0 0 65.81076
-0.018380605 8.5815706 4.0653138 0 0 0 0 65.815704
-0.54855853 12.885337 5.9058938 0 0 0 0 65.820656
-1.0666958 13.01315 5.8257723 0 0 0 0 65.8256
-1.6167822 13.083131 5.7242746 0 0 0 0 65.830551
-0.20545547 8.5211582 4.0388703 0 0 0 0 65.835495
-0.83003402 12.737626 5.8529549 0 0 0 0 65.840446
-1.3470175 12.810411 5.7640409 0 0 0 0 65.84539
-1.8955121 12.858439 5.6696157 0 0 0 0 65.850334
-0.5888477 12.493289 5.8989577 0 0 0 0 65.855286
-1.1054696 12.591066 5.8049417 0 0 0 0 65.860229
-1.623022 12.648851 5.7230988 0 0 0 0 65.865181
-2.1716304 12.657856 5.6278353 0 0 0 0 65.870125
-0.85760653 12.411951 5.8646035 0 0 0 0 65.875069
-1.3762412 12.464647 5.7667956 0 0 0 0 65.88002
-1.8937259 12.473395 5.6801515 0 0 0 0 65.884964
-2.4343274 12.43554 5.5789795 0 0 0 0 65.889915
-1.1216261 12.291656 5.8173494 0 0 0 0 65.894859
-1.6374017 12.304382 5.7146697 0 0 0 0 65.899811
-2.1501498 12.281223 5.6280985 0 0 0 0 65.904755
-2.6684232 12.122705 5.4901328 0 0 0 0 65.909698
-1.3805864 12.169476 5.7710452 0 0 0 0 65.91465
-1.8956007 12.1492 5.6684914 0 0 0 0 65.919594
-2.4055982 12.094091 5.5830178 0 0 0 0 65.924545
-2.8173146 11.514261 5.2694049 0 0 0 0 65.929489
-1.6318521 12.034624 5.7203984 0 0 0 0 65.477104
-2.1505802 12.010478 5.6328254 0 0 0 0 65.482056
-2.6483986 11.896742 5.5343504 0 0 0 0 65.487
-3.0468831 11.306384 5.2295222 0 0 0 0 65.491951
-1.8849909 11.924684 5.6839342 0 0 0 0 65.496895
-2.3931763 11.822681 5.5775418 0 0 0 0 65.501839
-2.7790048 11.253653 5.2834783 0 0 0 0 65.50679
-3.2717447 11.096031 5.1911206 0 0 0 0 65.511734
-2.1345208 11.782774 5.6375556 0 0 0 0 65.516685
-2.6341147 11.654952 5.5311642 0 0 0 0 65.521629
-3.0034585 11.06831 5.2429733 0 0 0 0 65.526581
-3.4863904 10.874891 5.1496415 0 0 0 0 65.531525
-2.3739612 11.636079 5.589076 0 0 0 0 65.536469
-2.7563052 11.036042 5.2760978 0 0 0 0 65.54142
-3.221864 10.881098 5.2024059 0 0 0 0 65.546364
-3.6931121 10.65793 5.1090527 0 0 0 0 65.551315
-2.6166387 11.506351 5.5525746 0 0 0 0 65.556259
-2.981478 10.885709 5.241468 0 0 0 0 65.561203
-3.4404397 10.706917 5.1717939 0 0 0 0 65.566154
-3.8949063 10.447096 5.0733833 0 0 0 0 65.571098
-2.7342927 10.903512 5.2883935 0 0 0 0 65.57605
-3.2100897 10.763356 5.2227755 0 0 0 0 65.580994
-3.6446583 10.512013 5.1310906 0 0 0 0 65.585938
-4.0855069 10.226498 5.0346198 0 0 0 0 65.590889
-2.959029 10.780205 5.2576556 0 0 0 0 65.595833
-3.4112298 10.556463 5.1660805 0 0 0 0 65.600784
-3.8469591 10.324173 5.0963407 0 0 0 0 65.605728
-4.272079 10.005994 4.9978104 0 0 0 0 65.61068
-3.1753492 10.634044 5.2179079 0 0 0 0 65.615623
-3.6305983 10.423303 5.1463251 0 0 0 0 65.620567
-4.0348005 10.11061 5.050518 0 0 0 0 65.625519
-4.4569602 9.8035555 4.9689126 0 0 0 0 65.630463
-3.3895736 10.484932 5.18015 0 0 0 0 65.635414
-3.8228631 10.226632 5.0974889 0 0 0 0 65.640358
-4.2354474 9.9458523 5.0296655 0 0 0 0 65.645302
-4.622201 9.5665054 4.9269137 0 0 0 0 65.650253
-3.5935857 10.323018 5.1353211 0 0 0 0 65.655197
-4.0266986 10.065775 5.0686588 0 0 0 0 65.660149
-4.4133692 9.7395287 4.9897003 0 0 0 0 65.665092
-4.8012152 9.3752289 4.906908 0 0 0 0 65.670036
-3.8029022 10.182034 5.1044788 0 0 0 0 65.674988
-4.2182302 9.8881626 5.0327468 0 0 0 0 65.679932
-4.5945053 9.5481663 4.9597197 0 0 0 0 65.684883
-5.039125 9.2998552 4.9491758 0 0 0 0 65.689827
-4.0007453 10.015263 5.0636005 0 0 0 0 65.694778
-4.4036913 9.7076845 4.9967756 0 0 0 0 65.699722
-4.7551613 9.3292131 4.9165988 0 0 0 0 65.704666
-5.2727618 9.210556 4.9874501 0 0 0 0 65.709618
-4.1957202 9.8565693 5.026659 0 0 0 0 65.714561
-4.5860553 9.5242767 4.962781 0 0 0 0 65.719513
-4.9510522 9.1856146 4.9136195 0 0 0 0 65.724457
-5.2535582 8.7061224 4.8032441 0 0 0 0 65.729401
-4.3874855 9.688941 4.9897175 0 0 0 0 65.734352
-4.7571144 9.3240938 4.9217172 0 0 0 0 65.739296
-5.2786603 9.2715197 5.0383654 0 0 0 0 65.744247
-5.409328 8.5063639 4.7850003 0 0 0 0 65.749191
-4.5762782 9.5253944 4.9577265 0 0 0 0 65.754143
-4.9356818 9.1548004 4.8966279 0 0 0 0 65.759087
-5.2297764 8.7176132 4.8159895 0 0 0 0 65.76403
-5.5499544 8.2969189 4.7596107 0 0 0 0 65.768982
-4.7454782 9.32722 4.9086342 0 0 0 0 65.773926
-5.294467 9.3040829 5.0445113 0 0 0 0 65.778877
-5.389853 8.5297441 4.7947536 0 0 0 0 65.783821
-5.6815104 8.0836706 4.7321267 0 0 0 0 65.788765
-4.9901934 9.2806396 4.93888 0 0 0 0 65.793716
-5.2476339 8.7501106 4.8171625 0 0 0 0 65.79866
-5.5337176 8.3292131 4.7663703 0 0 0 0 65.803612
-5.8069491 7.8655572 4.7045903 0 0 0 0 65.808556
-5.3088951 9.3576422 5.039556 0 0 0 0 65.813499
-5.4099636 8.5711727 4.7919211 0 0 0 0 65.818451
-5.6765995 8.1307087 4.7399702 0 0 0 0 65.823395
-5.9417934 7.6722789 4.6900749 0 0 0 0 65.828346
-5.3217111 8.8994904 4.8575678 0 0 0 0 65.83329
-5.5631433 8.384428 4.7636008 0 0 0 0 65.838242
-5.8104453 7.9304042 4.7124691 0 0 0 0 65.843185
-6.2478862 7.6906052 4.8098454 0 0 0 0 65.848129
-5.4470944 8.6572247 4.790122 0 0 0 0 65.853081
-5.7214489 8.207593 4.7433085 0 0 0 0 65.858025
-5.9340725 7.7193165 4.6818871 0 0 0 0 65.862976
-6.3999791 7.5179925 4.8134689 0 0 0 0 65.86792
-5.6196876 8.4910526 4.766963 0 0 0 0 65.872864
-5.8573413 8.0062141 4.7098389 0 0 0 0 65.877815
-6.1771364 7.6638641 4.7461715 0 0 0 0 65.882759
-6.5031867 7.2903671 4.7847075 0 0 0 0 65.887711
-5.7667785 8.2953997 4.7286086 0 0 0 0 65.892654
-5.9881406 7.7999401 4.6743288 0 0 0 0 65.897606
-6.428215 7.611237 4.814548 0 0 0 0 65.90255
-6.5994143 7.0639005 4.7558579 0 0 0 0 65.907494
-5.9322696 8.1273956 4.7093754 0 0 0 0 65.912445
-6.1578379 7.6519146 4.6750731 0 0 0 0 65.917389
-6.5395799 7.3894153 4.7838669 0 0 0 0 65.92234
-6.7201428 6.8699484 4.7471862 0 0 0 0 65.927284
-6.0763707 7.9358263 4.6769743 0 0 0 0 65.932228
-6.4599452 7.6602364 4.7748437 0 0 0 0 65.93718
-6.6480641 7.1746693 4.756124 0 0 0 0 65.942123
-6.8083825 6.6466756 4.7222304 0 0 0 0 65.947075
-6.2145133 7.7426043 4.6415744 0 0 0 0 65.624275
-6.6315842 7.5054741 4.7766533 0 0 0 0 65.629219
-6.7629938 6.9731522 4.7353816 0 0 0 0 65.634171
-6.8931007 6.4288635 4.6961422 0 0 0 0 65.639114
-6.4310479 7.6436462 4.6686821 0 0 0 0 65.644066
-6.7523022 7.2984695 4.7480111 0 0 0 0 65.64901
-6.8746424 6.7683859 4.7156229 0 0 0 0 65.653954
-6.9744911 6.2117724 4.6730633 0 0 0 0 65.658905
-6.7380662 7.6428699 4.7595205 0 0 0 0 65.663849
-6.8699231 7.0885391 4.7213459 0 0 0 0 65.6688
-6.980299 6.5647578 4.6967888 0 0 0 0 65.673744
-7.074132 6.0143251 4.6661334 0 0 0 0 65.678688
-6.8759699 7.4444737 4.732059 0 0 0 0 65.68364
-6.9937592 6.8924961 4.7027054 0 0 0 0 65.688583
-7.073751 6.3503885 4.6738491 0 0 0 0 65.693535
-7.1495786 5.8023815 4.646966 0 0 0 0 65.698479
-7.0098 7.2441735 4.7065573 0 0 0 0 65.703423
-7.1155782 6.6964989 4.6850424 0 0 0 0 65.708374
-7.17241 6.1479182 4.6559291 0 0 0 0 65.713318
-7.2371559 5.6022005 4.6389041 0 0 0 0 65.718269
-7.1517987 7.0557151 4.6891127 0 0 0 0 65.723213
-7.2221498 6.4868221 4.6612482 0 0 0 0 65.728165
-7.2640071 5.9436102 4.6389322 0 0 0 0 65.733109
-7.3086715 5.3953543 4.6226721 0 0 0 0 65.738052
-7.2673526 6.8418074 4.6594462 0 0 0 0 65.743004
-7.3267722 6.281199 4.6404166 0 0 0 0 65.747948
-7.351532 5.736392 4.6218991 0 0 0 0 65.752899
-7.3681078 5.1837707 4.6033125 0 0 0 0 65.757843
-7.3901229 6.6407566 4.6358204 0 0 0 0 65.762787
-7.4304333 6.0786033 4.6215644 0 0 0 0 65.767738
-7.4330993 5.5313087 4.6047864 0 0 0 0 65.772682
-7.3146405 4.8995204 4.5188465 0 0 0 0 65.777634
-7.5087962 6.4368029 4.6141582 0 0 0 0 65.782578
-7.5178699 5.8633509 4.5965643 0 0 0 0 65.787521
-7.5167036 5.3301916 4.5916858 0 0 0 0 65.792473
-7.2060022 4.5934286 4.405786 0 0 0 0 65.797417
-7.6223845 6.2299652 4.5934477 0 0 0 0 65.802368
-7.6104202 5.6570067 4.5785947 0 0 0 0 65.807312
-7.5801206 5.1164999 4.569387 0 0 0 0 65.812263
-7.2748308 4.4076891 4.4014444 0 0 0 0 65.817207
-7.729948 6.021255 4.5706735 0 0 0 0 65.822151
-7.6928673 5.4448795 4.5575252 0 0 0 0 65.827103
-7.3936615 4.7479897 4.4046111 0 0 0 0 65.832047
-7.3174539 4.2075057 4.385838 0 0 0 0 65.836998
-7.8274422 5.8087645 4.5457921 0 0 0 0 65.841942
-7.7824397 5.2416105 4.5425119 0 0 0 0 65.846886
-7.4311156 4.5328674 4.3750005 0 0 0 0 65.851837
-7.3732305 4.020062 4.3813457 0 0 0 0 65.856781
-7.9329448 5.6011181 4.5289931 0 0 0 0 65.861732
-7.8548794 5.0297084 4.5213227 0 0 0 0 65.866676
-7.4918079 4.3372769 4.3626008 0 0 0 0 65.871628
-7.3998518 3.8182282 4.3615513 0 0 0 0 65.876572
-8.0203152 5.384861 4.5060067 0 0 0 0 65.881516
-7.6391759 4.6438174 4.3422546 0 0 0 0 65.886467
-7.5475092 4.1417961 4.3491416 0 0 0 0 65.891411
-7.4657111 3.6395855 4.3661532 0 0 0 0 65.896362
-8.1086769 5.1695862 4.4850307 0 0 0 0 65.901306
-7.722899 4.4527154 4.3361259 0 0 0 0 65.90625
-7.6071987 3.9492447 4.3417225 0 0 0 0 65.911201
-7.7433848 3.560539 4.4949899 0 0 0 0 65.916145
-7.9421511 4.8046608 4.3314905 0 0 0 0 65.921097
-7.7804632 4.2481623 4.3167286 0 0 0 0 65.926041
-7.6407995 3.7462416 4.3210225 0 0 0 0 65.930984
-7.7930131 3.3702459 4.4954414 0 0 0 0 65.935936
-7.9783616 4.5735116 4.2909341 0 0 0 0 65.94088
-7.8520536 4.0513306 4.3094764 0 0 0 0 65.945831
-7.7899008 3.5998335 4.3675342 0 0 0 0 65.950775
-8.0648708 4.3713202 4.2808895 0 0 0 0 65.96067
-7.8995643 3.845005 4.2899652 0 0 0 0 65.965614
-8.0422268 3.4932616 4.4721732 0 0 0 0 65.970566
-0.45192203 0.1794387 0.32403606 0 0 0 0 65.97551
-8.1232567 4.1577268 4.258543 0 0 0 0 65.980461
-7.9400258 3.6368403 4.2703757 0 0 0 0 65.985405
-8.189662 3.9489746 4.2432795 0 0 0 0 66.000244
-0.4420245 0.17659418 0.30798367 0 0 0 0 66.010139
-0.4483597 0.15448482 0.32016039 0 0 0 0 66.015083
-0.42431077 0.17993206 0.28977475 0 0 0 0 66.024979
-0.43544134 0.1497025 0.30207798 0 0 0 0 66.049713
-0.45578733 0.13229994 0.32241076 0 0 0 0 66.054665
-0.41733089 0.17402376 0.27477044 0 0 0 0 66.059608
-0.43176422 0.15773961 0.29002488 0 0 0 0 66.06456
-0.42989045 0.12479143 0.29717737 0 0 0 0 66.089294
-0.42928687 0.10383165 0.30626333 0 0 0 0 66.094238
-0.42690846 0.15283398 0.27581364 0 0 0 0 65.967026
-0.44133088 0.13655455 0.29206738 0 0 0 0 65.97197
-0.4145008 0.099136598 0.28692707 0 0 0 0 65.996704
-0.41988099 0.080057628 0.30107993 0 0 0 0 66.001656
-0.41235504 0.12511142 0.26581195 0 0 0 0 66.006599
-0.40279493 0.10333971 0.26978943 0 0 0 0 66.011551
-0.39701581 0.074483216 0.27687675 0 0 0 0 66.036285
-0.41139951 0.05821535 0.29613072 0 0 0 0 66.041229
-0.38383335 0.095689781 0.24964297 0 0 0 0 66.046173
-0.39029428 0.079582833 0.26279742 0 0 0 0 66.051125
-0.38657039 0.053683616 0.27089855 0 0 0 0 66.075859
-0.40492707 0.037330925 0.29220268 0 0 0 0 66.080803
-0.3813487 0.074717321 0.24676436 0 0 0 0 66.085754
-0.38184831 0.058737148 0.2568441 0 0 0 0 66.090698
-0.38508189 0.03369581 0.27002886 0 0 0 0 66.115433
-0.39547786 0.017516056 0.28823334 0 0 0 0 66.120384
-0.37286675 0.052876271 0.24181457 0 0 0 0 66.125328
-0.38334647 0.038683891 0.25701186 0 0 0 0 66.130272
-0.38361558 0.014707794 0.26915559 0 0 0 0 66.155006
-0.40692985 -0.00074186048 0.29551899 0 0 0 0 66.159958
-0.36639386 0.031992968 0.23788604 0 0 0 0 66.164902
-0.37389719 0.018869737 0.25304219 0 0 0 0 66.169853
-0.38710907 -0.0043841954 0.27134502 0 0 0 0 66.194588
-0.40544921 -0.019726284 0.29564622 0 0 0 0 66.199532
-0.36791381 0.012939683 0.23805022 0 0 0 0 66.204483
-0.39031148 -0.00049997459 0.26139432 0 0 0 0 66.209427
-0.38563904 -0.022364408 0.27246818 0 0 0 0 66.234161
-0.39998138 -0.038621642 0.29472333 0 0 0 0 66.239113
-0.37638032 -0.0062603592 0.2423023 0 0 0 0 66.244057
-0.38289356 -0.018356867 0.2584424 0 0 0 0 66.249001
-0.38911796 -0.041452568 0.27565801 0 0 0 0 66.273735
-0.44105452 -0.063504606 0.3204087 0 0 0 0 66.278687
-0.37589884 -0.025267405 0.24244183 0 0 0 0 66.28363
-0.38933566 -0.038510602 0.26267368 0 0 0 0 66.288582
-0.38759911 -0.061432168 0.27678901 0 0 0 0 66.313316
-0.41477588 -0.079956055 0.30821532 0 0 0 0 66.31826
-0.37737975 -0.04531673 0.24361041 0 0 0 0 66.323212
-0.38384333 -0.058405071 0.26175442 0 0 0 0 66.328156
-0.40488791 -0.08380992 0.28916645 0 0 0 0 66.35289
-0.43792877 -0.10545339 0.32567981 0 0 0 0 66.357834
-0.39072081 -0.067617305 0.25193757 0 0 0 0 66.362785
-0.38529733 -0.078446463 0.26492324 0 0 0 0 66.367729
-0.40826792 -0.10588983 0.29436833 0 0 0 0 66.392464
-0.44622132 -0.12963812 0.33395275 0 0 0 0 66.397415
-0.3772907 -0.086337097 0.24791394 0 0 0 0 66.402359
-0.38672677 -0.099487625 0.26809606 0 0 0 0 66.40731
-0.41656023 -0.13007407 0.30264106 0 0 0 0 66.432045
-0.47121501 -0.1601705 0.35446268 0 0 0 0 66.436989
-0.37206063 -0.10646559 0.24922086 0 0 0 0 67.139938
-0.3913562 -0.12183236 0.27554283 0 0 0 0 67.14489
-0.42505273 -0.15551317 0.31316152 0 0 0 0 67.169624
-0.48256698 -0.18869106 0.3680504 0 0 0 0 67.174568
-0.38432467 -0.13074404 0.25854906 0 0 0 0 67.17952
-0.40750751 -0.14919351 0.28793433 0 0 0 0 67.184464
-0.45391393 -0.19014677 0.33474812 0 0 0 0 67.209198
-0.46706268 -0.20935312 0.36500829 0 0 0 0 67.214142
-0.38664213 -0.15480043 0.26374888 0 0 0 0 67.219093
-0.42257258 -0.17952645 0.30132508 0 0 0 0 67.224037
-6.7290549 -2.9802208 4.3053427 0 0 0 0 67.233932
-0.45416805 -0.21615207 0.34093103 0 0 0 0 67.248772
-6.7153645 -3.1508753 4.3449683 0 0 0 0 67.253723
-0.42141542 -0.19257277 0.28642476 0 0 0 0 67.258667
-0.44252315 -0.2129665 0.31779262 0 0 0 0 67.263618
-6.6475549 -3.3003421 4.3538074 0 0 0 0 67.273506
-0.45534644 -0.24417239 0.34913471 0 0 0 0 67.288353
-6.573915 -3.4446812 4.3585501 0 0 0 0 67.293297
-0.41082251 -0.21533948 0.28645378 0 0 0 0 67.298241
-0.4505643 -0.24514079 0.32910207 0 0 0 0 67.303192
-6.9167633 -3.6502616 4.3028798 0 0 0 0 67.308136
-6.5070081 -3.5951469 4.3724055 0 0 0 0 67.313087
-7.2548442 -3.8897595 4.2432938 0 0 0 0 67.322983
-6.8376942 -3.8104653 4.3106213 0 0 0 0 67.327927
-6.4245095 -3.7342761 4.375011 0 0 0 0 67.33287
-7.6224651 -4.1570435 4.1682067 0 0 0 0 67.337822
-7.1723108 -4.0668736 4.2550645 0 0 0 0 67.342766
-6.7399216 -3.9612386 4.3120818 0 0 0 0 67.347717
-6.3605051 -3.8857887 4.393908 0 0 0 0 67.352661
-7.5334568 -4.3520002 4.182972 0 0 0 0 67.357605
-7.0789113 -4.2397346 4.2636766 0 0 0 0 67.362556
-6.6754408 -4.1307373 4.3340507 0 0 0 0 67.3675
-6.281774 -4.0299745 4.4045839 0 0 0 0 67.372452
-7.419908 -4.5334029 4.1863627 0 0 0 0 67.377396
-6.9903555 -4.4156876 4.2783647 0 0 0 0 67.382339
-6.5893197 -4.2897458 4.3466959 0 0 0 0 67.387291
-6.198175 -4.1700516 4.412179 0 0 0 0 67.392235
-7.325841 -4.7292252 4.2030663 0 0 0 0 67.397186
-6.8968949 -4.5885272 4.2909756 0 0 0 0 67.40213
-6.4934444 -4.4415379 4.3531837 0 0 0 0 67.407082
-6.1222839 -4.3172793 4.4289041 0 0 0 0 67.412025
-7.2199917 -4.9167666 4.2175822 0 0 0 0 67.416969
-6.794518 -4.758152 4.3024578 0 0 0 0 67.421921
-6.4092383 -4.601573 4.3698578 0 0 0 0 67.426865
-6.0337262 -4.4542246 4.4384208 0 0 0 0 67.431816
-7.1043372 -5.098083 4.2279444 0 0 0 0 67.43676
-6.6989598 -4.9319172 4.3200455 0 0 0 0 67.441704
-6.3141913 -4.7563543 4.3833685 0 0 0 0 67.446655
-5.9412155 -4.5900788 4.4458818 0 0 0 0 67.451599
-7.0070906 -5.2957864 4.2536139 0 0 0 0 67.456551
-6.5935841 -5.0994525 4.3344789 0 0 0 0 67.461494
-6.219151 -4.9101286 4.3978748 0 0 0 0 67.466446
-5.8574123 -4.733108 4.4624853 0 0 0 0 67.47139
-6.8464632 -5.445085 4.2422571 0 0 0 0 67.476334
-6.4764285 -5.2597141 4.3447289 0 0 0 0 67.481285
-6.1172314 -5.0597415 4.410274 0 0 0 0 67.486229
-5.7619171 -4.8668776 4.4718981 0 0 0 0 67.49118
-6.4989748 -5.4382472 4.1198173 0 0 0 0 67.496124
-6.3660803 -5.4251194 4.3600879 0 0 0 0 67.501068
-6.0171461 -5.213378 4.4277139 0 0 0 0 67.50602
-5.6944556 -5.0272317 4.5067863 0 0 0 0 67.510963
-6.1724381 -5.4298792 4.0046372 0 0 0 0 67.515915
-6.0798626 -5.4376726 4.2595177 0 0 0 0 67.520859
-5.9034433 -5.3557143 4.4359288 0 0 0 0 67.525803
-5.6676021 -5.2274475 4.5753708 0 0 0 0 67.530754
-5.8530803 -5.4126616 3.8925087 0 0 0 0 67.535698
-5.7688336 -5.4116855 4.1384583 0 0 0 0 67.540649
-5.7073226 -5.421257 4.3857465 0 0 0 0 67.545593
-5.5766706 -5.3722773 4.5968895 0 0 0 0 67.550545
-5.554575 -5.3969045 3.7896531 0 0 0 0 67.555489
-5.4930487 -5.4054623 4.0399361 0 0 0 0 67.560432
-5.433043 -5.4011149 4.2741833 0 0 0 0 67.565384
-5.3753982 -5.410738 4.5315213 0 0 0 0 67.570328
-5.2806387 -5.3916826 3.7011569 0 0 0 0 67.575279
-5.225419 -5.3924236 3.9424872 0 0 0 0 67.580223
-5.1784091 -5.3893962 4.1749072 0 0 0 0 67.585167
-5.1328583 -5.3973241 4.4283943 0 0 0 0 67.590118
-5.0157828 -5.3816609 3.6157546 0 0 0 0 67.595062
-4.9697328 -5.3786435 3.851187 0 0 0 0 67.600014
-4.943419 -5.3861017 4.0879192 0 0 0 0 67.604958
-4.9060497 -5.3892446 4.3364906 0 0 0 0 67.609901
-4.7627969 -5.366941 3.5332251 0 0 0 0 67.301903
-4.7335467 -5.3723373 3.7709129 0 0 0 0 67.306847
-4.709641 -5.3699055 3.9966357 0 0 0 0 67.31179
-4.6890984 -5.3804607 4.247458 0 0 0 0 67.316742
-4.526608 -5.3625908 3.4632397 0 0 0 0 67.321686
-4.5045881 -5.362184 3.693995 0 0 0 0 67.326637
-4.4915562 -5.3650136 3.9198792 0 0 0 0 67.331581
-4.4772573 -5.3697467 4.1627564 0 0 0 0 67.336525
-4.3012905 -5.3604727 3.3994009 0 0 0 0 67.341476
-4.2854037 -5.3572307 3.6252222 0 0 0 0 67.34642
-4.2824903 -5.3573165 3.8472247 0 0 0 0 67.351372
-4.2762141 -5.3632569 4.0862093 0 0 0 0 67.356316
-4.0791903 -5.3494239 3.3355627 0 0 0 0 67.361259
-4.0666218 -5.3382969 3.5513928 0 0 0 0 67.366211
-4.0832005 -5.3558273 3.7807193 0 0 0 0 67.371155
-4.0850801 -5.3579807 4.0147929 0 0 0 0 67.376106
-3.8641715 -5.3345346 3.2727971 0 0 0 0 67.38105
-3.8721182 -5.3398771 3.4959607 0 0 0 0 67.386002
-3.8832636 -5.3413258 3.7111485 0 0 0 0 67.390945
-3.900795 -5.3558421 3.9494755 0 0 0 0 67.395889
-3.6627657 -5.3299274 3.2212477 0 0 0 0 67.400841
-3.6749208 -5.3303957 3.4374444 0 0 0 0 67.405785
-3.6998532 -5.3401737 3.6538448 0 0 0 0 67.410736
-3.719593 -5.3497686 3.8851788 0 0 0 0 67.41568
-3.4655042 -5.3194132 3.1697242 0 0 0 0 67.420624
-3.4875462 -5.3251238 3.3850701 0 0 0 0 67.425575
-3.5185268 -5.335062 3.597549 0 0 0 0 67.430519
-3.5377467 -5.3316903 3.8158207 0 0 0 0 67.435471
-3.2760668 -5.3130603 3.1243172 0 0 0 0 67.440414
-3.3099339 -5.326057 3.3398459 0 0 0 0 67.445366
-3.3402834 -5.3260155 3.542274 0 0 0 0 67.45031
-3.375118 -5.3360033 3.7658036 0 0 0 0 67.455254
-3.0964892 -5.3099213 3.0840485 0 0 0 0 67.460205
-3.1259112 -5.3068557 3.2864516 0 0 0 0 67.465149
-3.1660624 -5.3150525 3.4890404 0 0 0 0 67.4701
-3.2098579 -5.3282685 3.7096994 0 0 0 0 67.475044
-2.9171317 -5.2987885 3.0417464 0 0 0 0 67.479988
-2.9573548 -5.3039851 3.2443237 0 0 0 0 67.48494
-3.0054421 -5.3153772 3.4460287 0 0 0 0 67.489883
-3.0494847 -5.322628 3.6586652 0 0 0 0 67.494835
-2.7474501 -5.2968559 3.0076063 0 0 0 0 67.499779
-2.7899067 -5.2961316 3.203187 0 0 0 0 67.504723
-2.8411787 -5.3036261 3.3979163 0 0 0 0 67.509674
-2.895972 -5.3201308 3.612731 0 0 0 0 67.514618
-2.583715 -5.2950463 2.9775417 0 0 0 0 67.519569
-2.6274798 -5.2863865 3.1641054 0 0 0 0 67.524513
-2.6856899 -5.2980614 3.3559418 0 0 0 0 67.529465
-2.7436066 -5.312664 3.5647886 0 0 0 0 67.534409
-2.4192746 -5.2832289 2.943423 0 0 0 0 67.539352
-2.4718657 -5.2817836 3.1301315 0 0 0 0 67.544304
-2.5283854 -5.28545 3.3129115 0 0 0 0 67.549248
-2.593338 -5.3012424 3.5168543 0 0 0 0 67.554199
-2.2596958 -5.2745056 2.9143786 0 0 0 0 67.559143
-2.3192489 -5.2762413 3.0981903 0 0 0 0 67.564087
-2.3808174 -5.280045 3.2770364 0 0 0 0 67.569038
-2.4488194 -5.2959261 3.4770188 0 0 0 0 67.573982
-2.1050653 -5.266891 2.8874009 0 0 0 0 67.578934
-2.1685691 -5.2717295 3.0692766 0 0 0 0 67.583878
-2.2388887 -5.28474 3.2502754 0 0 0 0 67.588821
-2.3035476 -5.2826018 3.4331374 0 0 0 0 67.593773
-1.9533585 -5.2603269 2.8644638 0 0 0 0 67.598717
-2.0237389 -5.2713418 3.0444546 0 0 0 0 67.603668
-2.0963297 -5.2774367 3.2174535 0 0 0 0 67.608612
-2.1659386 -5.2784266 3.3983927 0 0 0 0 67.613564
-1.8112049 -5.2679629 2.8497088 0 0 0 0 67.618507
-1.879153 -5.2619615 3.0175958 0 0 0 0 67.623451
-1.9548568 -5.2671585 3.1836307 0 0 0 0 67.628403
-2.0303781 -5.2722969 3.3636644 0 0 0 0 67.633347
-1.6654445 -5.2615199 2.8308454 0 0 0 0 67.638298
-1.7385534 -5.2526693 2.991787 0 0 0 0 67.643242
-1.8228235 -5.2730594 3.162998 0 0 0 0 67.648186
-1.8986675 -5.2702422 3.3330019 0 0 0 0 67.653137
-1.5207943 -5.251102 2.8109772 0 0 0 0 67.658081
-1.6035306 -5.2554736 2.9761004 0 0 0 0 67.663033
-1.6862102 -5.2648649 3.1362438 0 0 0 0 67.667976
-1.7717935 -5.2722831 3.3074179 0 0 0 0 67.672928
-1.3810178 -5.2437844 2.7951841 0 0 0 0 67.677872
-1.4676188 -5.2542553 2.9593835 0 0 0 0 67.682816
-1.5553601 -5.2637887 3.1145933 0 0 0 0 67.687767
-1.640267 -5.2632284 3.2757242 0 0 0 0 67.692711
-1.245091 -5.2405415 2.7834566 0 0 0 0 67.697662
-1.3321142 -5.240067 2.9356143 0 0 0 0 67.702606
-1.4246694 -5.2567163 3.0919173 0 0 0 0 67.70755
-1.5163779 -5.2643232 3.2531719 0 0 0 0 67.712502
-1.1082865 -5.2322721 2.7716944 0 0 0 0 67.717445
-1.2029504 -5.2449756 2.9270082 0 0 0 0 67.722397
-1.2950031 -5.2486639 3.0692489 0 0 0 0 67.727341
-1.3897988 -5.2553658 3.2255397 0 0 0 0 67.732285
-0.97703511 -5.2381072 2.7680631 0 0 0 0 67.737236
-1.0696034 -5.2238264 2.9042339 0 0 0 0 67.74218
-1.1673217 -5.239645 3.0496004 0 0 0 0 67.747131
-1.267908 -5.2554941 3.2050056 0 0 0 0 67.752075
-0.84235203 -5.2248812 2.7563033 0 0 0 0 67.757027
-0.94341284 -5.2287927 2.8976629 0 0 0 0 67.761971
-1.045156 -5.2457256 3.0390868 0 0 0 0 67.766914
-1.1462139 -5.2486305 3.1824429 0 0 0 0 67.771866
-0.71381199 -5.2186832 2.7500014 0 0 0 0 67.521355
-0.81894857 -5.2227001 2.8864045 0 0 0 0 67.526306
-0.92115229 -5.227674 3.0157735 0 0 0 0 67.53125
-1.0259795 -5.2406597 3.1592119 0 0 0 0 67.536201
-0.58559412 -5.2215915 2.7494035 0 0 0 0 67.541145
-0.69300205 -5.2186928 2.8778067 0 0 0 0 67.546089
-0.79832977 -5.2217655 3.0012081 0 0 0 0 67.551041
-0.90805876 -5.2398791 3.1427319 0 0 0 0 67.555984
-0.45576778 -5.2104683 2.7447236 0 0 0 0 67.560936
-0.56821358 -5.2087121 2.868197 0 0 0 0 67.56588
-0.678222 -5.2238946 2.9937105 0 0 0 0 67.570824
-0.78937143 -5.2310867 3.1232064 0 0 0 0 67.575775
-0.32814956 -5.1924052 2.7370408 0 0 0 0 67.580719
-0.44495586 -5.2127304 2.8686647 0 0 0 0 67.58567
-0.55756897 -5.2110295 2.9791405 0 0 0 0 67.590614
-0.67159677 -5.2243023 3.1066997 0 0 0 0 67.595566
-0.20190197 -5.193326 2.742455 0 0 0 0 67.60051
-0.32232562 -5.1967974 2.8580544 0 0 0 0 67.605453
-0.43674332 -5.2031436 2.9685881 0 0 0 0 67.610405
-0.55561143 -5.2235403 3.0952404 0 0 0 0 67.615349
-0.07677687 -5.1902776 2.7458649 0 0 0 0 67.6203
-0.20025046 -5.1938391 2.8575048 0 0 0 0 67.625244
-0.31952149 -5.2073135 2.9661317 0 0 0 0 67.630188
-0.43892118 -5.2127705 3.0797276 0 0 0 0 67.635139
0.048398424 -5.1882172 2.7512772 0 0 0 0 67.640083
-0.07903894 -5.1948876 2.8599818 0 0 0 0 67.645035
-0.20157044 -5.202476 2.9596262 0 0 0 0 67.649979
-0.32498422 -5.2100511 3.0682833 0 0 0 0 67.654922
0.17257585 -5.1851692 2.7586963 0 0 0 0 67.659874
0.041161716 -5.1949539 2.8634663 0 0 0 0 67.664818
-0.083642185 -5.1956272 2.955111 0 0 0 0 67.669769
-0.21110727 -5.2043252 3.0578258 0 0 0 0 67.674713
0.29661882 -5.1771235 2.7650945 0 0 0 0 67.679665
0.16121495 -5.1900263 2.8649297 0 0 0 0 67.684608
0.0324471 -5.19381 2.9536395 0 0 0 0 67.689552
-0.097081408 -5.2025781 3.0513813 0 0 0 0 67.694504
0.42067462 -5.1690702 2.7724905 0 0 0 0 67.699448
0.28133142 -5.1860828 2.8693948 0 0 0 0 67.704399
0.14928937 -5.1839838 2.9481223 0 0 0 0 67.709343
0.016598685 -5.1898575 3.0388935 0 0 0 0 67.714287
0.54738522 -5.1809039 2.7929356 0 0 0 0 67.719238
0.40135047 -5.1781368 2.8738427 0 0 0 0 67.724182
0.2654548 -5.1831431 2.9506509 0 0 0 0 67.729134
0.1306258 -5.1870961 3.0344417 0 0 0 0 67.734077
0.67257893 -5.1757975 2.8053262 0 0 0 0 67.739021
0.52265328 -5.1791401 2.8833106 0 0 0 0 67.743973
0.3826085 -5.1812706 2.9541607 0 0 0 0 67.748917
0.24372789 -5.186347 3.0320094 0 0 0 0 67.753868
0.79651481 -5.161727 2.8146935 0 0 0 0 67.758812
0.64399529 -5.1801271 2.8957763 0 0 0 0 67.763763
0.49970049 -5.1774001 2.9566612 0 0 0 0 67.768707
0.35665765 -5.1796055 3.0275521 0 0 0 0 67.773651
0.92309344 -5.1675482 2.8361096 0 0 0 0 67.778603
0.76505297 -5.1721344 2.9032056 0 0 0 0 67.783546
0.61676973 -5.1715178 2.9611518 0 0 0 0 67.788498
0.46982306 -5.1798372 3.0281198 0 0 0 0 67.793442
1.0492417 -5.1583915 2.8524656 0 0 0 0 67.798386
0.88495159 -5.1581688 2.9096227 0 0 0 0 67.803337
0.73492467 -5.1686034 2.9666395 0 0 0 0 67.808281
0.584952 -5.1780138 3.0296521 0 0 0 0 67.813232
1.1766254 -5.1561832 2.8738337 0 0 0 0 67.818176
1.0083209 -5.1580806 2.9260526 0 0 0 0 67.823128
0.8520574 -5.163702 2.9741302 0 0 0 0 67.828072
0.6989705 -5.1722174 3.0301802 0 0 0 0 67.833015
1.3071337 -5.1568809 2.8991716 0 0 0 0 67.837967
1.1317034 -5.1579838 2.9434805 0 0 0 0 67.842911
0.97227687 -5.1607113 2.9845877 0 0 0 0 67.847862
0.81500125 -5.1663642 3.0316801 0 0 0 0 67.852806
1.435371 -5.148643 2.9204993 0 0 0 0 67.85775
1.2548273 -5.1489 2.9578719 0 0 0 0 67.862701
1.0915343 -5.1587367 2.9960601 0 0 0 0 67.867645
0.9300828 -5.1615238 3.0351954 0 0 0 0 67.872597
1.5646343 -5.1403685 2.9438119 0 0 0 0 67.877541
1.3814095 -5.1536965 2.981276 0 0 0 0 67.882484
1.2138656 -5.1586771 3.0094993 0 0 0 0 67.887436
1.0462145 -5.1576471 3.0406992 0 0 0 0 67.89238
1.6982453 -5.1419559 2.9751081 0 0 0 0 67.897331
1.5077331 -5.1495051 3.0016429 0 0 0 0 67.902275
1.3339518 -5.1496735 3.0209279 0 0 0 0 67.907227
1.1645445 -5.1596994 3.0501986 0 0 0 0 67.91217
1.8327585 -5.1395164 3.0063736 0 0 0 0 67.917114
1.634021 -5.1433072 3.0230005 0 0 0 0 67.922066
1.4585211 -5.1555262 3.0413597 0 0 0 0 67.92701
1.2848886 -5.160687 3.0626655 0 0 0 0 67.931961
1.9671855 -5.1340785 3.0366259 0 0 0 0 67.936905
1.7654949 -5.1419601 3.0493093 0 0 0 0 67.941849
1.5816699 -5.1474295 3.0557489 0 0 0 0 67.9468
1.4039099 -5.1517243 3.0691051 0 0 0 0 67.951744
2.1057258 -5.130517 3.0718303 0 0 0 0 67.956696
1.8969823 -5.140605 3.0766163 0 0 0 0 67.961639
1.7079812 -5.1432343 3.0751116 0 0 0 0 67.966591
1.5251806 -5.149682 3.0815439 0 0 0 0 67.971535
2.2409701 -5.1170449 3.1030335 0 0 0 0 67.976479
2.0271485 -5.1282916 3.0998914 0 0 0 0 67.98143
1.8363425 -5.139977 3.0964501 0 0 0 0 67.986374
1.6484146 -5.1455841 3.0949461 0 0 0 0 67.991325
2.3836002 -5.112339 3.1421924 0 0 0 0 68.007652
2.1617017 -5.1248193 3.1311626 0 0 0 0 68.012596
1.9636315 -5.1317282 3.1167974 0 0 0 0 68.01754
1.7694635 -5.133534 3.1043601 0 0 0 0 68.022491
2.5292177 -5.1085672 3.1832972 0 0 0 0 68.027435
2.2991796 -5.120285 3.1633718 0 0 0 0 68.032387
2.0907087 -5.1185036 3.1351056 0 0 0 0 68.037331
1.8946494 -5.1263709 3.1197197 0 0 0 0 68.042274
2.6759126 -5.1057496 3.2283902 0 0 0 0 68.047226
2.435498 -5.1097775 3.1945684 0 0 0 0 68.05217
2.2262957 -5.120028 3.1643643 0 0 0 0 68.057121
2.0241091 -5.127079 3.1410558 0 0 0 0 68.062065
2.8255084 -5.098856 3.2734256 0 0 0 0 68.067017
2.5780518 -5.1060953 3.2307105 0 0 0 0 68.07196
2.3616979 -5.1145544 3.1925936 0 0 0 0 68.076904
2.1523201 -5.1198273 3.1583722 0 0 0 0 68.081856
2.979218 -5.0938377 3.3234134 0 0 0 0 68.0868
2.7215829 -5.1003771 3.2688296 0 0 0 0 68.091751
2.4980512 -5.1070538 3.2207994 0 0 0 0 68.096695
2.2867687 -5.1183934 3.1826298 0 0 0 0 68.101639
3.1338294 -5.0847917 3.3733699 0 0 0 0 68.10659
2.8681035 -5.0925684 3.3098984 0 0 0 0 68.111534
2.6385536 -5.1034322 3.2529659 0 0 0 0 68.116486
2.4232676 -5.117897 3.208863 0 0 0 0 68.121429
3.3019896 -5.0903573 3.4372096 0 0 0 0 68.126381
3.0229971 -5.0955215 3.3589017 0 0 0 0 68.131325
2.7820456 -5.0977206 3.2880821 0 0 0 0 68.136269
2.5553317 -5.1035295 3.2280927 0 0 0 0 68.14122
3.4646535 -5.0800805 3.4930508 0 0 0 0 68.146164
3.1744444 -5.0835743 3.4018841 0 0 0 0 68.151115
2.927526 -5.0909524 3.3241661 0 0 0 0 68.156059
2.6999943 -5.1057987 3.2612269 0 0 0 0 68.161003
3.6324427 -5.0726581 3.5528345 0 0 0 0 68.165955
3.332092 -5.076448 3.4508035 0 0 0 0 68.170898
3.077069 -5.0850687 3.3631983 0 0 0 0 68.17585
2.8391709 -5.0932298 3.2853673 0 0 0 0 68.180794
3.8073466 -5.0660281 3.6195264 0 0 0 0 68.185738
3.5001638 -5.0810251 3.5096345 0 0 0 0 68.190689
3.232712 -5.0810151 3.4061561 0 0 0 0 68.195633
2.9856853 -5.0894432 3.3184471 0 0 0 0 68.200584
3.9915507 -5.0671349 3.6941271 0 0 0 0 68.205528
3.66274 -5.0687513 3.5624628 0 0 0 0 68.21048
3.3871572 -5.0699925 3.4470975 0 0 0 0 68.215424
3.1361377 -5.082551 3.3524594 0 0 0 0 68.220367
4.1765447 -5.0602183 3.7676802 0 0 0 0 68.225319
3.8408146 -5.0700469 3.6271436 0 0 0 0 68.230263
3.5593765 -5.0804625 3.5058961 0 0 0 0 68.235214
3.2917781 -5.0805082 3.3914227 0 0 0 0 68.240158
4.3654413 -5.0481911 3.8431573 0 0 0 0 68.245102
4.0187044 -5.0643444 3.6907942 0 0 0 0 68.250053
3.7249486 -5.0701251 3.5546894 0 0 0 0 68.254997
3.4493325 -5.0744085 3.4313412 0 0 0 0 68.259949
4.5719004 -5.0506701 3.9334633 0 0 0 0 68.264893
4.1900845 -5.0418205 3.7474554 0 0 0 0 68.269836
3.8987968 -5.0665488 3.6114011 0 0 0 0 68.274788
3.6160617 -5.0720553 3.4771526 0 0 0 0 68.279732
4.7739749 -5.0402675 4.0187688 0 0 0 0 68.284683
4.3894887 -5.047513 3.8278668 0 0 0 0 68.289627
4.0755205 -5.0578961 3.6680505 0 0 0 0 68.294579
3.7795308 -5.0607877 3.5199664 0 0 0 0 68.299522
4.9872394 -5.0325475 4.1129355 0 0 0 0 68.304466
4.5907197 -5.0461526 3.9082212 0 0 0 0 68.309418
4.2500086 -5.0413022 3.7216923 0 0 0 0 68.314362
3.9573858 -5.0601268 3.5716338 0 0 0 0 68.319313
5.2188678 -5.0323191 4.2198901 0 0 0 0 68.324257
4.7958779 -5.0406804 3.9905033 0 0 0 0 68.329201
4.4378219 -5.0323367 3.7851892 0 0 0 0 68.334152
4.1423559 -5.0602579 3.6302087 0 0 0 0 68.339096
5.4554744 -5.028944 4.3307619 0 0 0 0 68.344048
5.008038 -5.0330129 4.0766807 0 0 0 0 68.348991
4.6503997 -5.0426769 3.8694406 0 0 0 0 68.353943
4.3322887 -5.0582571 3.6897063 0 0 0 0 68.358887
5.6917839 -5.0145741 4.4395871 0 0 0 0 68.363831
5.2386255 -5.0348301 4.1766529 0 0 0 0 68.368782
4.8553405 -5.033237 3.9427037 0 0 0 0 68.373726
4.5116234 -5.0375462 3.73926 0 0 0 0 68.378677
5.950572 -5.009572 4.566153 0 0 0 0 68.383621
5.4657769 -5.0217419 4.2716031 0 0 0 0 68.388565
5.0622215 -5.0197301 4.0189214 0 0 0 0 68.393517
4.7187462 -5.037066 3.8095317 0 0 0 0 68.39846
6.2276244 -5.009068 4.7034931 0 0 0 0 68.403412
5.7041192 -5.0113344 4.3754139 0 0 0 0 68.408356
5.2936668 -5.019546 4.1118689 0 0 0 0 68.4133
4.9214826 -5.0237041 3.8748026 0 0 0 0 68.418251
6.5053425 -4.9955397 4.8397651 0 0 0 0 68.423195
5.9679875 -5.0132279 4.4949369 0 0 0 0 68.428146
5.525888 -5.0113406 4.2027683 0 0 0 0 68.43309
5.1374583 -5.0149736 3.948916 0 0 0 0 68.438042
6.7776885 -4.9691486 4.9720473 0 0 0 0 68.442986
6.2397718 -5.0088964 4.6193256 0 0 0 0 68.447929
5.771275 -5.0047674 4.3024969 0 0 0 0 68.452881
5.3666105 -5.0088797 4.0308633 0 0 0 0 68.457825
7.0847273 -4.9567938 5.1289287 0 0 0 0 68.462776
6.5205097 -4.9993095 4.7495685 0 0 0 0 68.46772
6.034925 -5.0026922 4.4130011 0 0 0 0 68.472664
5.6079016 -5.0044513 4.1196537 0 0 0 0 68.477615
7.415906 -4.9373136 5.2991467 0 0 0 0 69.293152
6.8336501 -4.9947414 4.897265 0 0 0 0 69.298096
6.3153815 -4.9923854 4.5302553 0 0 0 0 69.30304
5.8660069 -4.9960718 4.2153435 0 0 0 0 69.307991
7.7736311 -4.9313326 5.4892721 0 0 0 0 69.312935
7.1518621 -4.9889212 5.0509281 0 0 0 0 69.317886
6.5969663 -4.980639 4.6503892 0 0 0 0 69.32283
6.1293621 -4.9868798 4.3147373 0 0 0 0 69.327782
8.1494131 -4.9208322 5.6911283 0 0 0 0 69.332726
7.4799113 -4.9738188 5.2094126 0 0 0 0 69.337669
6.897758 -4.9703469 4.7822661 0 0 0 0 69.342621
6.4182196 -4.9879665 4.4308276 0 0 0 0 69.347565
8.548316 -4.906671 5.9076505 0 0 0 0 69.352516
7.8251042 -4.9582267 5.3786573 0 0 0 0 69.35746
7.2207956 -4.9624295 4.9268475 0 0 0 0 69.362404
6.7014899 -4.9692049 4.5409017 0 0 0 0 69.367355
8.9795694 -4.8945909 6.1447377 0 0 0 0 69.372299
8.1544533 -4.9170761 5.533999 0 0 0 0 69.377251
7.5650287 -4.9549112 5.0841393 0 0 0 0 69.382195
7.0173879 -4.9645329 4.6695919 0 0 0 0 69.387138
9.4349337 -4.8778181 6.397471 0 0 0 0 69.39209
8.5695391 -4.9115052 5.7473316 0 0 0 0 69.397034
7.9303932 -4.9457955 5.2531323 0 0 0 0 69.401985
7.3718934 -4.96977 4.8227983 0 0 0 0 69.406929
9.9808197 -4.8864837 6.7110848 0 0 0 0 69.41188
9.0067196 -4.9023061 5.9733424 0 0 0 0 69.416824
8.3167992 -4.9320869 5.4328146 0 0 0 0 69.421768
7.7095404 -4.9494796 4.9611144 0 0 0 0 69.42672
10.181678 -4.7098179 6.7935452 0 0 0 0 69.431664
9.4812126 -4.8930545 6.2208414 0 0 0 0 69.436615
8.6853476 -4.8918672 5.5996151 0 0 0 0 69.441559
8.0631123 -4.9217391 5.1071763 0 0 0 0 69.446503
10.176235 -4.4399261 6.7423863 0 0 0 0 69.451454
10.018538 -4.8930192 6.5095215 0 0 0 0 69.456398
9.161993 -4.8956141 5.8341384 0 0 0 0 69.461349
8.4634304 -4.9076867 5.2806592 0 0 0 0 69.466293
10.171968 -4.1749897 6.6952324 0 0 0 0 69.471245
10.207915 -4.7097268 6.5701017 0 0 0 0 69.476189
9.6134491 -4.8630557 6.0498357 0 0 0 0 69.481133
8.892972 -4.892808 5.4707355 0 0 0 0 69.486084
10.170989 -3.9179437 6.6550679 0 0 0 0 69.491028
10.197163 -4.4330058 6.5099821 0 0 0 0 69.495979
10.185006 -4.8711271 6.3390751 0 0 0 0 69.500923
9.3700037 -4.8826008 5.6861801 0 0 0 0 69.505867
10.029594 -3.6158299 6.5276098 0 0 0 0 69.510818
10.185658 -4.1663074 6.4499164 0 0 0 0 69.515762
10.242361 -4.6205506 6.3091445 0 0 0 0 69.520714
9.8648214 -4.8588843 5.9103165 0 0 0 0 69.525658
9.9272223 -3.3376088 6.4297285 0 0 0 0 69.530602
