# .PCD v0.7 - Point Cloud Data file format
VERSION 0.7
FIELDS x y z normal_x normal_y normal_z intensity curvature
SIZE 4 4 4 4 4 4 4 4
TYPE F F F F F F F F
COUNT 1 1 1 1 1 1 1 1
WIDTH 973
HEIGHT 1
VIEWPOINT 0 0 0 1 0 0 0
POINTS 973
DATA ascii
-1.069878 6.9839058 3.6022084 0 0 0 0 28.566093
-1.3949348 7.071629 3.6135492 0 0 0 0 28.571041
-1.7099526 7.0733123 3.5990405 0 0 0 0 28.575989
-2.0692668 7.1426353 3.6290832 0 0 0 0 28.580936
-1.2371532 7.0373855 3.639132 0 0 0 0 28.585882
-1.5541811 7.0400648 3.6165783 0 0 0 0 28.59083
-1.8901912 7.0998154 3.6429482 0 0 0 0 28.595776
-2.264195 7.183569 3.6893272 0 0 0 0 28.600723
-1.4061188 7.0782914 3.6723416 0 0 0 0 28.605671
-1.7251318 7.060966 3.6478262 0 0 0 0 28.610619
-2.0771313 7.1417408 3.6951797 0 0 0 0 28.615564
-2.4801271 7.2735343 3.7775118 0 0 0 0 28.620512
-1.5600702 7.0371361 3.6636775 0 0 0 0 28.625458
-1.9050807 7.0988817 3.6910551 0 0 0 0 28.630405
-2.2660668 7.1786652 3.7474222 0 0 0 0 28.635353
-2.6980507 7.3484926 3.862726 0 0 0 0 28.640301
-1.7300305 7.0610299 3.6899178 0 0 0 0 28.645247
-2.0890276 7.140801 3.7382817 0 0 0 0 28.650194
-2.4509933 7.1875734 3.7887087 0 0 0 0 28.65514
-2.9039626 7.3724189 3.9240139 0 0 0 0 28.660088
-1.9049882 7.0929322 3.72315 0 0 0 0 28.665035
-2.2729697 7.1657085 3.7785382 0 0 0 0 28.669981
-2.681932 7.3125582 3.8948507 0 0 0 0 28.674929
-3.1348748 7.4483824 4.0182428 0 0 0 0 28.679874
-2.086942 7.1328425 3.7643771 0 0 0 0 28.684822
-2.4579079 7.1846137 3.8178062 0 0 0 0 28.68977
-2.8918569 7.3604913 3.9621007 0 0 0 0 28.694717
-2.2708945 7.1697497 3.8046117 0 0 0 0 28.704611
-2.6818516 7.2965827 3.9119616 0 0 0 0 28.709557
-3.1117783 7.4184327 4.0383463 0 0 0 0 28.714504
-2.4558396 7.1886463 3.8388793 0 0 0 0 28.7244
-2.8917859 7.3515129 3.9771984 0 0 0 0 28.729345
-2.6777949 7.3046069 3.9270241 0 0 0 0 28.744186
-3.1127145 7.4144497 4.0514359 0 0 0 0 28.749134
-2.8847375 7.3565254 3.9842618 0 0 0 0 28.763975
-4.1645694 8.2896662 4.6893806 0 0 0 0 28.773869
-3.1066775 7.4274564 4.0554857 0 0 0 0 28.783762
-4.1365285 8.234621 4.6535211 0 0 0 0 28.808498
-4.1335278 8.264596 4.6415462 0 0 0 0 28.843126
-5.4147797 7.7919154 4.8821487 0 0 0 0 28.857967
-5.1002097 7.7799797 4.7512584 0 0 0 0 28.635979
-5.7118983 7.828896 5.0040255 0 0 0 0 28.640926
-5.3470688 7.7628946 4.8256721 0 0 0 0 28.655767
-6.0797281 7.9448948 5.1843667 0 0 0 0 28.660715
-5.1222339 7.8359356 4.739264 0 0 0 0 28.670609
-5.6539249 7.8218489 4.9510317 0 0 0 0 28.675556
-6.230556 7.7627497 5.1779408 0 0 0 0 28.680502
-5.3181052 7.7457972 4.7587376 0 0 0 0 28.690397
-6.0457664 7.9728518 5.1453428 0 0 0 0 28.695343
-6.3403873 7.5385885 5.1425319 0 0 0 0 28.700291
-5.6289744 7.811739 4.8790889 0 0 0 0 28.710184
-6.2656074 7.8827338 5.1878467 0 0 0 0 28.715132
-6.4602165 7.3314428 5.1201038 0 0 0 0 28.720078
-5.9858322 7.9197035 5.0344286 0 0 0 0 28.729973
-6.3734498 7.6535559 5.1414423 0 0 0 0 28.734921
-6.5750475 7.1253018 5.0976663 0 0 0 0 28.739866
-5.6070518 7.8136039 4.7941294 0 0 0 0 28.744814
-6.3106823 7.9656372 5.1568327 0 0 0 0 28.74976
-6.514287 7.4674063 5.1270046 0 0 0 0 28.754707
-6.6748786 6.9101634 5.069222 0 0 0 0 28.759655
-5.9779277 7.9435587 4.950448 0 0 0 0 28.764603
-6.4825292 7.8074789 5.1523886 0 0 0 0 28.769548
-6.6271267 7.2562499 5.0945716 0 0 0 0 28.774496
-6.7737079 6.6980338 5.0447698 0 0 0 0 28.779442
-6.3007913 7.9884753 5.0618505 0 0 0 0 28.784389
-6.6113768 7.6043072 5.1189637 0 0 0 0 28.789337
-6.738965 7.0471001 5.0651321 0 0 0 0 28.794283
-6.8475428 6.4678993 5.0053124 0 0 0 0 28.799231
-6.6166453 8.0023775 5.1612973 0 0 0 0 28.804178
-6.7462225 7.4101443 5.0935292 0 0 0 0 28.809124
-6.8458028 6.8399591 5.0376806 0 0 0 0 28.814072
-6.932374 6.2537789 4.9788413 0 0 0 0 28.819019
-6.732502 7.774178 5.1058974 0 0 0 0 28.823965
-6.8640666 7.200983 5.0600963 0 0 0 0 28.828913
-6.944643 6.6298199 5.0072217 0 0 0 0 28.833858
-7.0102072 6.0396638 4.9513583 0 0 0 0 28.838806
-6.9133501 7.6210194 5.1044521 0 0 0 0 28.843754
-7.2358799 7.2529349 5.2145467 0 0 0 0 28.848701
-7.043478 6.4216895 4.9817572 0 0 0 0 28.853647
-7.0870409 5.8315563 4.9278622 0 0 0 0 28.858595
-7.0092025 7.37883 5.0440464 0 0 0 0 28.863541
-7.3907113 7.0747957 5.2111068 0 0 0 0 28.868488
-7.2632928 6.3256087 5.0432582 0 0 0 0 28.873436
-7.1668706 5.6274571 4.9103613 0 0 0 0 28.878384
-7.2760382 7.3157163 5.1095552 0 0 0 0 28.883329
-7.498548 6.8556447 5.1776729 0 0 0 0 28.888277
-7.5130892 6.2465453 5.1287684 0 0 0 0 28.893223
-7.2287059 5.4153581 4.8838487 0 0 0 0 28.89817
-7.5828614 7.2786145 5.2010717 0 0 0 0 28.903118
-7.5933852 6.629498 5.1402316 0 0 0 0 28.908064
-7.5939236 6.0274229 5.0982943 0 0 0 0 28.913012
-7.2975378 5.2112675 4.8653297 0 0 0 0 28.917959
-7.7067022 7.0634508 5.1676512 0 0 0 0 28.922905
-7.7022161 6.4183645 5.1167812 0 0 0 0 28.927853
-7.684752 5.8193135 5.079812 0 0 0 0 28.9328
-7.3533745 5.00418 4.8417969 0 0 0 0 28.937746
-7.8255391 6.845293 5.1352272 0 0 0 0 28.942694
-7.8010516 6.2032313 5.0883231 0 0 0 0 28.947639
-7.7535839 5.5962029 5.0493255 0 0 0 0 28.952587
-7.4082103 4.8000984 4.8212562 0 0 0 0 28.957535
-7.9493742 6.6351442 5.1097941 0 0 0 0 28.962482
-7.898881 5.9881077 5.0648613 0 0 0 0 28.967428
-7.8264174 5.3830991 5.0248251 0 0 0 0 28.972376
-7.4600444 4.5960231 4.8027101 0 0 0 0 28.977322
-8.057209 6.4139991 5.0783567 0 0 0 0 28.982269
-7.9957113 5.7779913 5.0443878 0 0 0 0 28.987217
-7.895247 5.1680031 5.0023208 0 0 0 0 28.992165
-7.5118809 4.3979511 4.7861514 0 0 0 0 28.99711
-8.1700401 6.1978602 5.0529156 0 0 0 0 29.002058
-8.0745449 5.5568748 5.0149078 0 0 0 0 29.007004
-7.9460826 4.946908 4.9718018 0 0 0 0 29.011951
-7.5657129 4.2018871 4.7745914 0 0 0 0 29.016899
-8.2568741 5.9667253 5.0164638 0 0 0 0 29.021847
-8.1513739 5.3357654 4.9884233 0 0 0 0 29.026793
-8.0059156 4.7358217 4.9502754 0 0 0 0 29.03174
-7.6015534 4.0008225 4.754014 0 0 0 0 29.036686
-8.3487043 5.7405972 4.9860082 0 0 0 0 29.041634
-8.2352028 5.1246643 4.9699292 0 0 0 0 29.046581
-8.0647459 4.5247397 4.9307461 0 0 0 0 29.051527
-7.618402 3.7937586 4.724421 0 0 0 0 29.056475
-8.4395332 5.5184765 4.9595428 0 0 0 0 29.06142
-8.2950335 4.8985648 4.9404278 0 0 0 0 29.066368
-8.1265745 4.3196664 4.9172091 0 0 0 0 29.071316
-7.6522398 3.5977068 4.7098298 0 0 0 0 29.076263
-8.5323629 5.2983584 4.9350748 0 0 0 0 29.081209
-8.3648624 4.6834726 4.919919 0 0 0 0 29.086157
-8.1744051 4.107594 4.8976641 0 0 0 0 29.091103
-8.6033087 5.0662298 4.9044237 0 0 0 0 28.97596
-8.4278059 4.4673657 4.8972368 0 0 0 0 28.980907
-8.2173452 3.8985121 4.8789501 0 0 0 0 28.985855
-0.47438273 0.19106098 0.26701331 0 0 0 0 28.990803
-8.685133 4.8451242 4.8819447 0 0 0 0 28.995749
-8.4836311 4.2472835 4.87572 0 0 0 0 29.000696
-8.7599535 4.6190243 4.8594632 0 0 0 0 29.015537
-0.45736817 0.18604785 0.24705255 0 0 0 0 29.025431
-0.45933193 0.16206111 0.25510439 0 0 0 0 29.030376
-8.8387747 4.398931 4.8419752 0 0 0 0 29.035324
-0.44235098 0.1780332 0.22709975 0 0 0 0 29.060059
-0.45731086 0.16204931 0.24315491 0 0 0 0 29.065006
-0.45827422 0.13906507 0.25220349 0 0 0 0 29.069954
-0.44135723 0.18701817 0.21610579 0 0 0 0 29.074902
-0.44129494 0.15403384 0.22220069 0 0 0 0 29.099636
-0.44026226 0.13404953 0.23024133 0 0 0 0 29.104584
-0.45821616 0.11706995 0.25030199 0 0 0 0 29.109529
-0.43130529 0.16001783 0.20619994 0 0 0 0 29.114477
-0.4332417 0.13003695 0.21529208 0 0 0 0 29.139212
-0.43920547 0.1120536 0.22733842 0 0 0 0 29.144159
-0.43417206 0.091072567 0.23537531 0 0 0 0 29.149105
-0.43224832 0.13802037 0.20329985 0 0 0 0 29.154053
-0.4141953 0.10303726 0.20137386 0 0 0 0 29.178787
-0.42115903 0.088056453 0.21541625 0 0 0 0 29.183735
-0.42412081 0.069077246 0.22846018 0 0 0 0 29.188683
-0.4092015 0.10902237 0.18837979 0 0 0 0 29.193628
-0.40914071 0.082043059 0.19746368 0 0 0 0 29.218365
-0.4151046 0.067063011 0.21150462 0 0 0 0 29.22331
-0.43005976 0.051085725 0.23155908 0 0 0 0 29.228258
-0.40115002 0.087025613 0.1814674 0 0 0 0 29.233204
-0.40108973 0.062047955 0.19154768 0 0 0 0 29.25794
-0.41105059 0.048069634 0.20859204 0 0 0 0 29.262886
-0.42700461 0.032093149 0.22964761 0 0 0 0 29.267834
-0.39709631 0.067030676 0.17755668 0 0 0 0 29.272781
-0.3940362 0.042055424 0.1876328 0 0 0 0 29.297516
-0.40299931 0.029076163 0.20367402 0 0 0 0 29.302464
-0.418953 0.014101287 0.22572772 0 0 0 0 29.307409
-0.39603961 0.048038371 0.17664795 0 0 0 0 29.312357
-0.38898438 0.024061261 0.18371698 0 0 0 0 29.337091
-0.40593979 0.0110855 0.20576848 0 0 0 0 29.342039
-0.43088451 -0.0038850287 0.23483372 0 0 0 0 29.346985
-0.38698873 0.028044185 0.17073029 0 0 0 0 29.351933
-0.39592224 0.0060707689 0.18781656 0 0 0 0 29.376667
-0.41287863 -0.0059050736 0.20986623 0 0 0 0 29.381615
-0.42583051 -0.021875996 0.23291735 0 0 0 0 29.386562
-0.39292783 0.010052902 0.17382856 0 0 0 0 29.391508
-0.39486626 -0.01091993 0.18790385 0 0 0 0 29.416245
-0.41781598 -0.024894027 0.21396445 0 0 0 0 29.42119
-0.46473846 -0.0438575 0.25806436 0 0 0 0 29.426138
-0.40186661 -0.0069391429 0.17792876 0 0 0 0 29.431084
-0.40033615 -0.028815579 0.1926695 0 0 0 0 29.896658
-0.42728335 -0.043788988 0.22173437 0 0 0 0 29.901604
-0.4682098 -0.064752452 0.26382613 0 0 0 0 29.906551
-0.39834002 -0.025833234 0.17868476 0 0 0 0 29.911499
-0.39828023 -0.046805575 0.19275567 0 0 0 0 29.936234
-0.41423377 -0.061778579 0.21680675 0 0 0 0 29.941181
-0.42818534 -0.077748477 0.24185689 0 0 0 0 29.946127
-0.40527758 -0.045823701 0.18278518 0 0 0 0 29.951075
-0.41520777 -0.068792678 0.20387135 0 0 0 0 29.975809
-0.4431501 -0.08576227 0.23594019 0 0 0 0 29.980757
-0.48407111 -0.10972123 0.28103602 0 0 0 0 29.985703
-0.40921527 -0.06581188 0.18688165 0 0 0 0 29.99065
-0.41514692 -0.088779487 0.20696263 0 0 0 0 30.015385
-0.4410907 -0.10574925 0.23802875 0 0 0 0 30.020332
-0.50099146 -0.13570228 0.296157 0 0 0 0 30.02528
-0.40515882 -0.084800303 0.18696645 0 0 0 0 30.030228
-7.2402072 -2.1520984 4.574615 0 0 0 0 30.045067
-0.42008182 -0.10976541 0.21306136 0 0 0 0 30.054962
-0.46300697 -0.13373086 0.25515902 0 0 0 0 30.059908
-7.1770854 -2.3040502 4.5737848 0 0 0 0 30.064856
-0.39710566 -0.10278887 0.1850446 0 0 0 0 30.069803
-7.1009755 -2.4510031 4.5659313 0 0 0 0 30.084644
-0.43700454 -0.13574946 0.22618224 0 0 0 0 30.094538
-0.47493121 -0.15971282 0.26727346 0 0 0 0 30.099483
-7.0208683 -2.5959532 4.5580692 0 0 0 0 30.104431
-0.41003269 -0.12777452 0.19515912 0 0 0 0 30.109379
-6.9617414 -2.7458992 4.5632396 0 0 0 0 30.12422
-0.44293436 -0.16073309 0.23428774 0 0 0 0 30.134113
-0.4978407 -0.19269063 0.28741175 0 0 0 0 30.139061
-6.9205909 -2.9038355 4.5834436 0 0 0 0 30.144009
-0.43294895 -0.15775836 0.21129313 0 0 0 0 30.148954
-6.8474722 -3.0497758 4.5855899 0 0 0 0 30.163795
-0.47183922 -0.19671221 0.25643781 0 0 0 0 30.173691
-0.48778307 -0.21467492 0.28749245 0 0 0 0 30.178637
-6.7773495 -3.1957142 4.5907388 0 0 0 0 30.183582
-0.46085498 -0.19373819 0.23244192 0 0 0 0 30.18853
-7.0983362 -3.3520932 4.5013733 0 0 0 0 30.198425
-6.6942406 -3.335654 4.5888624 0 0 0 0 30.203373
-0.45878422 -0.21669576 0.25551182 0 0 0 0 30.213264
-7.0531664 -3.5270154 4.528595 0 0 0 0 30.218212
-6.6161256 -3.4765899 4.5919929 0 0 0 0 30.22316
-0.45079598 -0.21572077 0.23352268 0 0 0 0 30.228107
-7.3820925 -3.7423768 4.4533277 0 0 0 0 30.233053
-6.9660401 -3.6839442 4.5317383 0 0 0 0 30.238001
-6.5310192 -3.6135273 4.5911083 0 0 0 0 30.242947
-7.3329029 -3.937288 4.4855733 0 0 0 0 30.252842
-6.8649292 -3.8308735 4.5278482 0 0 0 0 30.25779
-6.4339232 -3.7444634 4.5851994 0 0 0 0 30.262735
-7.1948142 -4.0832157 4.4646354 0 0 0 0 30.272629
-6.7768011 -3.9847956 4.5349841 0 0 0 0 30.277576
-6.3597994 -3.8863909 4.5963349 0 0 0 0 30.282524
-7.3069682 -4.2236338 4.2459874 0 0 0 0 30.287472
-7.116652 -4.2631245 4.4848213 0 0 0 0 30.292418
-6.6806831 -4.1337199 4.5371022 0 0 0 0 30.297363
-6.267693 -4.0193191 4.5984344 0 0 0 0 30.302311
-7.1768532 -4.3845468 4.2380815 0 0 0 0 30.307259
-6.8267474 -4.310082 4.3715501 0 0 0 0 30.312206
-6.5895548 -4.2866378 4.5462322 0 0 0 0 30.317154
-6.1686001 -4.1452518 4.5945144 0 0 0 0 30.3221
-7.0826898 -4.5694466 4.2562547 0 0 0 0 30.327045
-6.6347308 -4.409018 4.3194757 0 0 0 0 30.331993
-6.4824457 -4.4275575 4.5463243 0 0 0 0 30.336941
-6.0874758 -4.2851715 4.6076369 0 0 0 0 30.341888
-6.9565659 -4.7323527 4.2553554 0 0 0 0 30.346834
-6.5246081 -4.5609274 4.3245802 0 0 0 0 30.351782
-6.2065687 -4.4465361 4.4270287 0 0 0 0 30.356728
-5.9903765 -4.4120989 4.6087203 0 0 0 0 30.361675
-6.8294992 -4.8942833 4.2584376 0 0 0 0 30.08696
-6.4225373 -4.7178526 4.3356657 0 0 0 0 30.091908
-6.0296268 -4.5294881 4.3778925 0 0 0 0 30.096855
-5.8923359 -4.5380187 4.6107402 0 0 0 0 30.101801
-6.7093587 -5.0601759 4.2675524 0 0 0 0 30.106749
-6.3104091 -4.8687539 4.3437681 0 0 0 0 30.111696
-5.9195228 -4.6594024 4.3789659 0 0 0 0 30.116642
-5.7103605 -4.5979772 4.5496173 0 0 0 0 30.12159
-6.5792294 -5.2180676 4.2726421 0 0 0 0 30.126537
-6.1892948 -5.0096569 4.3468437 0 0 0 0 30.131483
-5.8263907 -4.8033066 4.395082 0 0 0 0 30.136431
-5.4964433 -4.6239538 4.4614029 0 0 0 0 30.141376
-6.4440994 -5.3739533 4.2797227 0 0 0 0 30.146324
-6.0751634 -5.1595511 4.3589416 0 0 0 0 30.151272
-5.7122898 -4.9292188 4.3961439 0 0 0 0 30.156219
-5.3783751 -4.7268829 4.4504251 0 0 0 0 30.161165
-6.3059773 -5.5238404 4.2847896 0 0 0 0 30.166113
-5.9410644 -5.2894526 4.3569837 0 0 0 0 30.171059
-5.5991826 -5.0571251 4.4022098 0 0 0 0 30.176006
-5.2732863 -4.8378034 4.4514761 0 0 0 0 30.180954
-6.165853 -5.6737227 4.2918539 0 0 0 0 30.185902
-5.8139501 -5.4263463 4.3640451 0 0 0 0 30.190847
-5.4880743 -5.1840296 4.4102759 0 0 0 0 30.195795
-5.1741843 -4.9557171 4.4595442 0 0 0 0 30.200741
-6.0177379 -5.8156033 4.296896 0 0 0 0 30.205688
-5.6838417 -5.5582409 4.3690948 0 0 0 0 30.210636
-5.3699737 -5.305934 4.4153261 0 0 0 0 30.215584
-5.0770726 -5.0776243 4.4736209 0 0 0 0 30.22053
-5.8676271 -5.9534845 4.3009291 0 0 0 0 30.225475
-5.5487337 -5.6891308 4.3751369 0 0 0 0 30.230423
-5.2518706 -5.4278355 4.4223762 0 0 0 0 30.235371
-4.9729767 -5.190537 4.4806747 0 0 0 0 30.240318
-5.7274919 -6.104353 4.3179941 0 0 0 0 30.245266
-5.4146261 -5.8170185 4.3831749 0 0 0 0 30.250212
-5.1377559 -5.5557299 4.4364395 0 0 0 0 30.255157
-4.856895 -5.2934504 4.481699 0 0 0 0 30.260105
-5.5743799 -6.2382264 4.3260169 0 0 0 0 30.265053
-5.2795143 -5.9469018 4.3942151 0 0 0 0 30.27
-5.0096645 -5.6686296 4.4404635 0 0 0 0 30.274946
-4.7517934 -5.4083571 4.4927545 0 0 0 0 30.279894
-5.4222593 -6.3770933 4.3390489 0 0 0 0 30.28484
-5.1434031 -6.0737829 4.4062486 0 0 0 0 30.289787
-4.8865619 -5.7865243 4.4505 0 0 0 0 30.294735
-4.6397009 -5.516264 4.5007906 0 0 0 0 30.299683
-5.2651501 -6.5059624 4.3490591 0 0 0 0 30.304628
-4.9973054 -6.1916647 4.4132566 0 0 0 0 30.309576
-4.7544765 -5.8924217 4.4545078 0 0 0 0 30.314522
-4.5276103 -5.6221704 4.5088234 0 0 0 0 30.319469
-5.1020474 -6.628829 4.3580527 0 0 0 0 30.324417
-4.8522086 -6.3075471 4.4212627 0 0 0 0 30.329365
-4.6293697 -6.0113096 4.468544 0 0 0 0 30.334311
-4.4145169 -5.729074 4.518857 0 0 0 0 30.339256
-4.9409337 -6.7566876 4.3730564 0 0 0 0 30.344204
-4.704114 -6.4204268 4.4292607 0 0 0 0 30.349152
-4.4932866 -6.1132035 4.4735408 0 0 0 0 30.354099
-4.2924356 -5.8269777 4.5248656 0 0 0 0 30.359047
-4.7758307 -6.8755493 4.3850417 0 0 0 0 30.363993
-4.5570107 -6.5362992 4.443264 0 0 0 0 30.368938
-4.3611917 -6.2220922 4.4845524 0 0 0 0 30.373886
-4.1743498 -5.9278812 4.5328832 0 0 0 0 30.378834
-4.603735 -6.9874077 4.396008 0 0 0 0 30.383781
-4.4109025 -6.6541681 4.4602718 0 0 0 0 30.388727
-4.2241015 -6.3259788 4.4945512 0 0 0 0 30.393675
-4.0512648 -6.0257802 4.5418901 0 0 0 0 30.398621
-4.4326386 -7.0982656 4.4079742 0 0 0 0 30.403568
-4.2558098 -6.7600389 4.4722505 0 0 0 0 30.408516
-4.0870147 -6.4268661 4.5045447 0 0 0 0 30.413464
-3.9291804 -6.1226788 4.551897 0 0 0 0 30.418409
-4.2595406 -7.2081189 4.4229364 0 0 0 0 30.423357
-4.0967278 -6.857913 4.4802127 0 0 0 0 30.428303
-3.9519126 -6.5357432 4.5225534 0 0 0 0 30.43325
-3.7991097 -6.2105813 4.5558805 0 0 0 0 30.438198
-4.0944209 -7.3309631 4.447928 0 0 0 0 30.443146
-3.9406357 -6.9607806 4.4941859 0 0 0 0 30.448092
-3.8078332 -6.6286278 4.531527 0 0 0 0 30.453037
-3.6750197 -6.309473 4.5698881 0 0 0 0 30.457985
-3.9951172 -7.5797358 4.552187 0 0 0 0 30.462933
-3.7855313 -7.0696397 4.5151691 0 0 0 0 30.46788
-3.6597631 -6.7155161 4.5364866 0 0 0 0 30.472828
-3.5479379 -6.4023685 4.580883 0 0 0 0 30.477774
-3.8668644 -7.7925196 4.6363573 0 0 0 0 30.482719
-3.6204555 -7.1575079 4.5251093 0 0 0 0 30.487667
-3.5176687 -6.8153896 4.5544734 0 0 0 0 30.492615
-3.4138677 -6.4862647 4.5878563 0 0 0 0 30.497562
-3.6797721 -7.8923607 4.6542873 0 0 0 0 30.502508
-3.4543779 -7.2453737 4.5370483 0 0 0 0 30.507456
-3.3675942 -6.9012699 4.5644298 0 0 0 0 30.512402
-3.2817876 -6.5761552 4.5998406 0 0 0 0 30.517349
-3.489681 -7.9881973 4.6742082 0 0 0 0 30.522297
-3.2853057 -7.327239 4.5479755 0 0 0 0 30.527245
-3.217515 -6.9881454 4.5783873 0 0 0 0 30.53219
-3.1487107 -6.662046 4.6118183 0 0 0 0 30.537138
-3.2995889 -8.084033 4.6951289 0 0 0 0 30.542084
-3.1132379 -7.4041033 4.5588918 0 0 0 0 30.547031
-3.0664363 -7.0740199 4.5923424 0 0 0 0 30.551979
-3.0116336 -6.7469325 4.6247892 0 0 0 0 30.556927
-3.1034932 -8.1618109 4.7100229 0 0 0 0 30.316877
-2.9431603 -7.4819045 4.5717888 0 0 0 0 30.321825
-2.9173474 -7.1648259 4.6112723 0 0 0 0 30.326771
-2.8705781 -6.8207622 4.6306901 0 0 0 0 30.331718
-2.9054136 -8.241641 4.728909 0 0 0 0 30.336666
-2.7730839 -7.5607595 4.587709 0 0 0 0 30.341614
-2.7592762 -7.2406945 4.6242032 0 0 0 0 30.34656
-2.7334952 -6.906642 4.6466622 0 0 0 0 30.351505
-2.7073355 -8.31847 4.7487907 0 0 0 0 30.356453
-2.600004 -7.6396089 4.606626 0 0 0 0 30.361401
-2.6031988 -7.3205605 4.6401429 0 0 0 0 30.366348
-2.5944085 -6.9935164 4.6656342 0 0 0 0 30.371296
-2.5092547 -8.3942947 4.7716718 0 0 0 0 30.376242
-2.4398654 -7.7564282 4.6516166 0 0 0 0 30.381187
-2.4421325 -7.3904285 4.6530614 0 0 0 0 30.386135
-2.4483511 -7.0604043 4.6725669 0 0 0 0 30.391083
-2.3081758 -8.4681196 4.7945457 0 0 0 0 30.39603
-2.2737339 -7.868247 4.694592 0 0 0 0 30.400976
-2.2820613 -7.4622931 4.6689849 0 0 0 0 30.405924
-2.3022778 -7.1362805 4.6875138 0 0 0 0 30.41087
-2.1041112 -8.5279465 4.8143959 0 0 0 0 30.415817
-2.1155505 -8.0140371 4.7606287 0 0 0 0 30.420765
-2.1189909 -7.5321541 4.6859016 0 0 0 0 30.425713
-2.1552107 -7.2061586 4.7014508 0 0 0 0 30.430658
-1.8970528 -8.5807734 4.8332324 0 0 0 0 30.435606
-1.9493853 -8.1458321 4.8206348 0 0 0 0 30.440552
-1.9559203 -7.6010151 4.7038178 0 0 0 0 30.445499
-2.004149 -7.272037 4.713377 0 0 0 0 30.450447
-1.6949649 -8.6535854 4.8651056 0 0 0 0 30.455395
-1.7682773 -8.2356501 4.8585601 0 0 0 0 30.46034
-1.7858783 -7.6488876 4.7106938 0 0 0 0 30.465286
-1.8540778 -7.3429093 4.7303123 0 0 0 0 30.470234
-1.4849323 -8.683423 4.876905 0 0 0 0 30.475182
-1.5821961 -8.305481 4.8864493 0 0 0 0 30.480129
-1.6178149 -7.708746 4.728591 0 0 0 0 30.485077
-1.7030067 -7.4127793 4.7482452 0 0 0 0 30.490023
-1.2748818 -8.7232466 4.8977203 0 0 0 0 30.494968
-1.3961072 -8.3783045 4.9193435 0 0 0 0 30.499916
-1.4487622 -7.7606101 4.742475 0 0 0 0 30.504864
-1.5479412 -7.4766493 4.7651644 0 0 0 0 30.509811
-1.0312258 -8.4762878 4.7590652 0 0 0 0 30.514757
-1.2010642 -8.4171495 4.934176 0 0 0 0 30.519705
-1.2777107 -7.8094721 4.7573524 0 0 0 0 30.524651
-1.390884 -7.534523 4.7790728 0 0 0 0 30.529598
-0.82322311 -8.4771404 4.7628264 0 0 0 0 30.534546
-0.97540283 -8.182209 4.7915621 0 0 0 0 30.539494
-1.1056451 -7.8653216 4.7802401 0 0 0 0 30.544439
-1.2318228 -7.5933909 4.7959809 0 0 0 0 30.549387
-0.62116015 -8.5179567 4.7936559 0 0 0 0 30.554333
-0.78338552 -8.1980696 4.7983661 0 0 0 0 30.55928
-0.93060094 -7.9061832 4.7941022 0 0 0 0 30.564228
-1.070773 -7.6432638 4.8088732 0 0 0 0 30.569176
-0.41512227 -8.5387859 4.8154507 0 0 0 0 30.574121
-0.59631765 -8.2468987 4.8282261 0 0 0 0 30.579067
-0.75455093 -7.949039 4.8119659 0 0 0 0 30.584015
-0.90772641 -7.6891365 4.8217578 0 0 0 0 30.588963
-0.21108413 -8.5586157 4.8382473 0 0 0 0 30.59391
-0.40529025 -8.2657509 4.8420372 0 0 0 0 30.598858
-0.58047199 -8.0098763 4.8438601 0 0 0 0 30.603804
-0.74366599 -7.7429986 4.8416533 0 0 0 0 30.608749
-0.0060184449 -8.5944242 4.8750677 0 0 0 0 30.613697
-0.21423645 -8.3005838 4.8688726 0 0 0 0 30.618645
-0.40143901 -8.0377388 4.8566995 0 0 0 0 30.623592
-0.57862216 -7.7838693 4.8555288 0 0 0 0 30.628538
0.19255137 -8.2675409 4.7073569 0 0 0 0 30.633486
-0.022201693 -8.3204279 4.8886852 0 0 0 0 30.638432
-0.22138749 -8.0755863 4.8795538 0 0 0 0 30.643379
-0.41155627 -7.8397241 4.879425 0 0 0 0 30.648327
0.39056778 -8.2643843 4.7251291 0 0 0 0 30.653275
0.16873585 -8.2673311 4.8693919 0 0 0 0 30.65822
-0.041332006 -8.1144295 4.9054098 0 0 0 0 30.663168
-0.24151009 -7.8795881 4.8962941 0 0 0 0 30.668114
0.59165698 -8.3101759 4.7759724 0 0 0 0 30.673061
0.35974377 -8.2641907 4.8801737 0 0 0 0 30.678009
0.14170708 -8.1402807 4.9252434 0 0 0 0 30.682957
-0.070468836 -7.9144535 4.9121556 0 0 0 0 30.687902
0.79877734 -8.3759432 4.8418384 0 0 0 0 30.692848
0.55483395 -8.3169918 4.9280338 0 0 0 0 30.697796
0.32473943 -8.1601362 4.9430685 0 0 0 0 30.702744
0.10157941 -7.9513111 4.9330187 0 0 0 0 30.707691
1.0068785 -8.4267206 4.9006815 0 0 0 0 30.712639
0.75192797 -8.3707895 4.9788942 0 0 0 0 30.717585
0.5087865 -8.1879787 4.9689054 0 0 0 0 30.72253
0.27562487 -7.9861703 4.952878 0 0 0 0 30.727478
1.2200048 -8.4924765 4.9725418 0 0 0 0 30.732426
0.95098984 -8.397603 5.0187125 0 0 0 0 30.737373
0.6948173 -8.2028303 4.9887214 0 0 0 0 30.742321
0.4516713 -8.0210266 4.9737349 0 0 0 0 30.747267
1.4381273 -8.5522299 5.0453882 0 0 0 0 30.752213
1.1480204 -8.4014368 5.0455008 0 0 0 0 30.75716
0.88184053 -8.208683 5.007524 0 0 0 0 30.762108
0.62870121 -8.0408907 4.9895697 0 0 0 0 30.767056
1.6491729 -8.5550346 5.0861592 0 0 0 0 30.772001
1.3450357 -8.3902779 5.0682678 0 0 0 0 30.776949
1.0698786 -8.2245255 5.0333409 0 0 0 0 30.781895
0.8097527 -8.0737362 5.0164194 0 0 0 0 30.786842
1.8551466 -8.5250015 5.1129785 0 0 0 0 30.981586
1.5420268 -8.382247 5.0941267 0 0 0 0 30.986532
1.2598848 -8.2334938 5.0592308 0 0 0 0 30.99148
0.98974848 -8.0827236 5.0303192 0 0 0 0 30.996426
2.0581465 -8.488842 5.1377091 0 0 0 0 31.001373
1.7400399 -8.3670912 5.1178927 0 0 0 0 31.006321
1.4489046 -8.2323484 5.0800271 0 0 0 0 31.011269
1.1737969 -8.1115704 5.0581636 0 0 0 0 31.016214
2.2631497 -8.4516745 5.1664381 0 0 0 0 31.021162
1.9330312 -8.3329515 5.1336389 0 0 0 0 31.026108
1.6429387 -8.2391882 5.1088305 0 0 0 0 31.031055
1.3578283 -8.1254272 5.0799875 0 0 0 0 31.036003
2.4631374 -8.402523 5.1881557 0 0 0 0 31.040951
2.1350682 -8.3297739 5.1714196 0 0 0 0 31.045897
1.8329566 -8.2320404 5.1316185 0 0 0 0 31.050842
1.5418488 -8.13029 5.0977998 0 0 0 0 31.05579
2.6450467 -8.2924309 5.1768084 0 0 0 0 31.060738
2.3290644 -8.2946281 5.1921654 0 0 0 0 31.065685
2.0239689 -8.218894 5.1533985 0 0 0 0 31.070633
1.7318878 -8.1461353 5.1256213 0 0 0 0 31.075579
2.7315872 -7.9136434 4.9961867 0 0 0 0 31.080524
2.5270698 -8.2634706 5.2189131 0 0 0 0 31.085472
2.2200024 -8.218729 5.186192 0 0 0 0 31.09042
1.9229317 -8.1629753 5.157444 0 0 0 0 31.095367
2.8332477 -7.6197667 4.8706713 0 0 0 0 31.100313
2.683907 -8.1094513 5.1685328 0 0 0 0 31.105261
2.4140079 -8.1955824 5.2079558 0 0 0 0 31.110207
2.1099334 -8.1468439 5.1712255 0 0 0 0 31.115154
2.9128778 -7.3049273 4.7291532 0 0 0 0 31.120102
2.7755067 -7.7806301 5.0089803 0 0 0 0 31.12505
2.6100252 -8.1784248 5.2367272 0 0 0 0 31.129995
2.306983 -8.1646738 5.2080445 0 0 0 0 31.134943
2.9945576 -7.0250554 4.6096835 0 0 0 0 31.139889
2.8531156 -7.4578133 4.8524532 0 0 0 0 31.144836
2.7237089 -7.9195418 5.1102495 0 0 0 0 31.149784
2.5010068 -8.1605215 5.2348371 0 0 0 0 31.154732
3.0632377 -6.7471943 4.488234 0 0 0 0 31.159678
2.9327757 -7.1729631 4.7179804 0 0 0 0 31.164623
2.8153503 -7.6277018 4.9637518 0 0 0 0 31.169571
2.675946 -8.095437 5.2215652 0 0 0 0 31.174519
3.1379676 -6.5032964 4.3898268 0 0 0 0 31.179466
3.0134723 -6.9120884 4.6005416 0 0 0 0 31.184414
2.8919806 -7.326879 4.8112602 0 0 0 0 31.18936
2.7695673 -7.7946138 5.0620537 0 0 0 0 31.194305
3.1996894 -6.2544136 4.2864294 0 0 0 0 31.199253
3.0801654 -6.6492267 4.4801173 0 0 0 0 31.204201
2.9706559 -7.057025 4.679812 0 0 0 0 31.209148
2.8501906 -7.4957991 4.9015613 0 0 0 0 31.214094
3.2594328 -6.0205188 4.1920557 0 0 0 0 31.219042
3.1468897 -6.4083443 4.3737259 0 0 0 0 31.223988
3.0453575 -6.8061576 4.5593963 0 0 0 0 31.228935
2.9288454 -7.2169647 4.7561011 0 0 0 0 31.233883
3.3222098 -5.8095999 4.1137133 0 0 0 0 31.238831
3.2116306 -6.1784534 4.2743535 0 0 0 0 31.243776
3.1110597 -6.5542951 4.4389911 0 0 0 0 31.248724
3.0025237 -6.9551187 4.6206717 0 0 0 0 31.25367
3.3789909 -5.6016827 4.0363832 0 0 0 0 31.258617
3.2713847 -5.9575577 4.1810007 0 0 0 0 31.263565
3.1808007 -6.3304067 4.3356223 0 0 0 0 31.268513
3.0752277 -6.7102561 4.4972692 0 0 0 0 31.273458
3.4367971 -5.4117503 3.970078 0 0 0 0 31.278404
3.3271518 -5.7456565 4.0926657 0 0 0 0 31.283352
3.240541 -6.1045241 4.2322626 0 0 0 0 31.2883
3.1389358 -6.4673977 4.3748808 0 0 0 0 31.293247
3.0065434 -4.5028863 3.363307 0 0 0 0 31.298195
3.3839412 -5.5497408 4.0143538 0 0 0 0 31.303141
3.2942898 -5.8846407 4.1319199 0 0 0 0 31.308086
3.1966574 -6.2335339 4.258513 0 0 0 0 31.313034
3.0614147 -4.3629165 3.3230782 0 0 0 0 31.317982
3.429724 -5.3488374 3.9320488 0 0 0 0 31.322929
3.3550749 -5.6897292 4.0486059 0 0 0 0 31.327875
3.2624197 -6.0266376 4.1621761 0 0 0 0 31.332823
3.1062775 -4.21696 3.277853 0 0 0 0 31.337769
3.0205343 -4.4849181 3.351321 0 0 0 0 31.342716
3.4098649 -5.4978185 3.9673033 0 0 0 0 31.347664
3.3181779 -5.816751 4.0628471 0 0 0 0 31.352612
3.1441343 -4.0680137 3.2286322 0 0 0 0 31.357557
3.0693948 -4.3419647 3.3020961 0 0 0 0 31.362505
3.457654 -5.304913 3.8850086 0 0 0 0 31.367451
3.3809733 -5.6328344 3.9815474 0 0 0 0 31.372398
3.1830072 -3.9290552 3.1874254 0 0 0 0 31.377346
3.1052396 -4.1890311 3.2438724 0 0 0 0 31.382294
3.0414774 -4.4479909 3.3063023 0 0 0 0 31.387239
3.4337599 -5.4419312 3.8952503 0 0 0 0 31.392185
3.2198837 -3.7930965 3.1472259 0 0 0 0 31.397133
3.1501131 -4.0540719 3.2006645 0 0 0 0 31.402081
3.0903392 -4.3090396 3.2550838 0 0 0 0 31.407028
3.4775453 -5.2490354 3.8079615 0 0 0 0 31.411976
3.2577717 -3.664129 3.1130354 0 0 0 0 31.416922
3.1839762 -3.9121275 3.1514602 0 0 0 0 31.421867
3.1231802 -4.1551132 3.1928632 0 0 0 0 31.426815
3.0644021 -4.4110856 3.2432818 0 0 0 0 31.431763
3.2886565 -3.5341699 3.0758524 0 0 0 0 31.43671
3.2218556 -3.7811694 3.1102672 0 0 0 0 31.441658
3.1660492 -4.0201616 3.144659 0 0 0 0 31.446604
3.1082523 -4.2661486 3.1840622 0 0 0 0 31.45155
3.3447828 -3.4333785 3.065269 0 0 0 0 31.870419
3.2539184 -3.6484354 3.0666473 0 0 0 0 31.875366
3.2000895 -3.8804371 3.0930095 0 0 0 0 31.880314
3.1432674 -4.1184368 3.1223824 0 0 0 0 31.885262
3.5519519 -3.4830978 3.1921506 0 0 0 0 31.890207
3.2878137 -3.524473 3.0294797 0 0 0 0 31.895155
3.2339697 -3.7484875 3.045831 0 0 0 0 31.900101
3.1881471 -3.9884818 3.0741942 0 0 0 0 31.905048
3.8272126 -3.5857012 3.3780322 0 0 0 0 31.909996
3.3417459 -3.4244709 3.0133235 0 0 0 0 31.914944
3.2718611 -3.6245275 3.0046592 0 0 0 0 31.919889
3.2190115 -3.8475468 3.0170071 0 0 0 0 31.924835
3.9322157 -3.5206056 3.4118705 0 0 0 0 31.929783
3.5649323 -3.4911718 3.1482115 0 0 0 0 31.934731
3.3017492 -3.497575 2.961493 0 0 0 0 31.939678
3.2548933 -3.7185969 2.9688315 0 0 0 0 31.944626
3.9691231 -3.3946266 3.3877003 0 0 0 0 31.949572
3.8251634 -3.5818131 3.3130934 0 0 0 0 31.954517
3.3737047 -3.4155467 2.9573426 0 0 0 0 31.959465
3.2877765 -3.5896473 2.9216597 0 0 0 0 31.964413
3.995023 -3.2636607 3.3585358 0 0 0 0 31.96936
3.9341683 -3.5207171 3.3459339 0 0 0 0 31.974308
3.6008897 -3.4852505 3.0892313 0 0 0 0 31.979254
3.3166604 -3.4607 2.8744931 0 0 0 0 31.9842
4.0289392 -3.1436782 3.338378 0 0 0 0 31.989147
3.972075 -3.3977411 3.3187675 0 0 0 0 31.994095
3.8671167 -3.5778952 3.2501106 0 0 0 0 31.999043
3.4246676 -3.4166143 2.8983562 0 0 0 0 32.00399
4.0618563 -3.0236964 3.3182223 0 0 0 0 32.008934
4.005981 -3.2737687 3.2906051 0 0 0 0 32.013882
3.9540846 -3.4968448 3.2579486 0 0 0 0 32.018829
3.665859 -3.4953086 3.032243 0 0 0 0 32.023777
4.0867705 -2.9027219 3.2960742 0 0 0 0 32.028725
4.033884 -3.1478024 3.2604465 0 0 0 0 32.033669
3.9879835 -3.3708797 3.2237837 0 0 0 0 32.038616
3.9210563 -3.5729876 3.173115 0 0 0 0 32.043564
4.1116896 -2.7837436 3.2769294 0 0 0 0 32.048512
4.0688028 -3.0318203 3.239295 0 0 0 0 32.053459
4.0208864 -3.2459114 3.1926222 0 0 0 0 32.058407
3.9729731 -3.4599986 3.1489487 0 0 0 0 32.063354
4.1456232 -2.6747496 3.265789 0 0 0 0 32.068298
4.0967174 -2.9128463 3.2151473 0 0 0 0 32.073246
4.0437822 -3.1169567 3.1554658 0 0 0 0 32.078194
4.0048676 -3.3310394 3.1107831 0 0 0 0 32.083141
4.1735535 -2.5627618 3.2526517 0 0 0 0 32.088089
4.118629 -2.7918782 3.1890039 0 0 0 0 32.093033
4.0817013 -3.0019739 3.1333137 0 0 0 0 32.09798
4.0397706 -3.2080722 3.0776231 0 0 0 0 32.102928
4.1874723 -2.4437923 3.2315204 0 0 0 0 32.107876
4.158565 -2.6858807 3.1778622 0 0 0 0 32.112823
4.1166229 -2.8889916 3.1121676 0 0 0 0 32.117767
4.0686731 -3.0841095 3.0434685 0 0 0 0 32.122719
4.2304258 -2.3447769 3.233386 0 0 0 0 32.127663
4.1834884 -2.5709019 3.1587253 0 0 0 0 32.13261
4.1415343 -2.7690237 3.0840237 0 0 0 0 32.137558
4.1045866 -2.9671338 3.0163167 0 0 0 0 32.142506
4.2563639 -2.2377853 3.2242596 0 0 0 0 32.147453
4.2094164 -2.4599199 3.141593 0 0 0 0 32.152397
4.1804667 -2.6610301 3.0698817 0 0 0 0 32.157345
4.1385036 -2.8511567 2.9911692 0 0 0 0 32.162292
4.2783027 -2.1297963 3.2151363 0 0 0 0 32.16724
4.2413545 -2.3539259 3.1314616 0 0 0 0 32.172188
4.2043848 -2.545058 3.0457451 0 0 0 0 32.177132
4.1604099 -2.7281954 2.9590254 0 0 0 0 32.182079
4.3092523 -2.0277917 3.2140126 0 0 0 0 32.187027
4.2712927 -2.246933 3.1213317 0 0 0 0 32.191975
4.2323132 -2.4340758 3.027612 0 0 0 0 32.196922
4.1953349 -2.6172125 2.9378846 0 0 0 0 32.20187
4.3271918 -1.920805 3.204896 0 0 0 0 32.206818
4.2942266 -2.1389492 3.1072085 0 0 0 0 32.211761
4.2702537 -2.3300769 3.0184782 0 0 0 0 32.216709
4.2262597 -2.504231 2.9177461 0 0 0 0 32.221657
4.355144 -1.8198012 3.204778 0 0 0 0 32.226604
4.3191662 -2.0329595 3.0970864 0 0 0 0 32.231552
4.2871752 -2.2151074 2.9953523 0 0 0 0 32.236496
4.2491789 -2.3892601 2.8926139 0 0 0 0 32.241444
4.3800964 -1.7187991 3.2046635 0 0 0 0 32.246391
4.3421073 -1.9279692 3.0879683 0 0 0 0 32.251339
4.3121099 -2.1071219 2.9812281 0 0 0 0 32.256287
4.2861166 -2.2822649 2.8804786 0 0 0 0 32.26123
4.4060512 -1.6187954 3.20555 0 0 0 0 32.266182
4.3700552 -1.8249702 3.0838487 0 0 0 0 32.271126
4.3420515 -2.0021276 2.9721034 0 0 0 0 32.276073
4.3140469 -2.1732824 2.8623505 0 0 0 0 32.281021
4.4230003 -1.515802 3.2024422 0 0 0 0 32.285969
4.4010077 -1.7249657 3.0827305 0 0 0 0 32.290916
4.3689928 -1.8961362 2.9619813 0 0 0 0 32.29586
4.3399796 -2.0632987 2.8462238 0 0 0 0 32.300808
4.4539647 -1.4187858 3.211329 0 0 0 0 32.305756
4.4239559 -1.6209697 3.0786159 0 0 0 0 32.310703
4.3949347 -1.7911441 2.9528618 0 0 0 0 32.315651
4.3689175 -1.9553082 2.8340974 0 0 0 0 32.320595
4.4759221 -1.3187822 3.2142215 0 0 0 0 32.325542
4.4429026 -1.5179784 3.0725071 0 0 0 0 32.33049
4.4188786 -1.6861521 2.9447453 0 0 0 0 32.335438
4.3968563 -1.8483182 2.8219743 0 0 0 0 32.340385
4.4977007 -1.2205901 3.2185752 0 0 0 0 32.057461
4.4776835 -1.4197825 3.0788567 0 0 0 0 32.062408
4.4466453 -1.5829803 2.9401035 0 0 0 0 32.067352
4.42061 -1.7391657 2.808336 0 0 0 0 32.072304
4.5176592 -1.1215848 3.2234671 0 0 0 0 32.077248
4.4936295 -1.3167919 3.0737472 0 0 0 0 32.082195
4.4695902 -1.478986 2.9339852 0 0 0 0 32.087143
4.4515557 -1.635165 2.8032093 0 0 0 0 32.092091
4.5406227 -1.0235727 3.2323582 0 0 0 0 32.097038
4.5145822 -1.2157917 3.0736358 0 0 0 0 32.101982
4.4895344 -1.3739936 2.9278693 0 0 0 0 32.10693
4.4754963 -1.5281737 2.7940865 0 0 0 0 32.111877
4.5635867 -0.9255594 3.24225 0 0 0 0 32.116825
4.5455437 -1.1167758 3.0815179 0 0 0 0 32.121773
4.5174875 -1.2719878 2.92875 0 0 0 0 32.126717
4.4984379 -1.4221817 2.7859669 0 0 0 0 32.131664
4.587554 -0.82854319 3.2541425 0 0 0 0 32.136612
4.5695033 -1.0167665 3.0874064 0 0 0 0 32.14156
4.5414395 -1.1689857 2.9286342 0 0 0 0 32.146507
4.5283871 -1.3171781 2.7838423 0 0 0 0 32.151455
4.6085196 -0.72953016 3.2650363 0 0 0 0 32.156403
4.5924635 -0.91675812 3.0932965 0 0 0 0 32.161346
4.5683956 -1.0669781 2.9315174 0 0 0 0 32.166294
4.551333 -1.2101812 2.7797227 0 0 0 0 32.171242
4.6294875 -0.63151473 3.2779322 0 0 0 0 32.176189
4.6194272 -0.81574237 3.1031821 0 0 0 0 32.181137
4.5973535 -0.96496695 2.9363995 0 0 0 0 32.186081
4.5772834 -1.1041788 2.7786024 0 0 0 0 32.191029
4.6524591 -0.53349453 3.2938268 0 0 0 0 32.195976
4.6373868 -0.71473712 3.109077 0 0 0 0 32.200924
4.6173077 -0.86096489 2.9382885 0 0 0 0 32.205872
4.6062379 -1.0001709 2.7804821 0 0 0 0 32.210815
4.6784339 -0.43546906 3.3127189 0 0 0 0 32.215767
4.6573486 -0.61372823 3.116971 0 0 0 0 32.220711
4.6482725 -0.75894535 2.9491701 0 0 0 0 32.225658
4.6341929 -0.89516258 2.7833626 0 0 0 0 32.230606
4.6924 -0.33646068 3.3236225 0 0 0 0 32.235554
4.6863194 -0.51270431 3.1328568 0 0 0 0 32.240501
4.6672282 -0.65394282 2.9520605 0 0 0 0 32.245445
4.6531444 -0.78716332 2.7832487 0 0 0 0 32.250393
4.7183776 -0.23743181 3.3455148 0 0 0 0 32.255341
4.7072854 -0.41069016 3.1447499 0 0 0 0 32.260288
4.6891885 -0.54893255 2.9599485 0 0 0 0 32.265236
4.6871061 -0.68114305 2.7931235 0 0 0 0 32.27018
4.7343483 -0.13741638 3.3614163 0 0 0 0 32.275127
4.7182455 -0.30768937 3.1506524 0 0 0 0 32.280075
4.7161541 -0.44491446 2.9718337 0 0 0 0 32.285023
4.7140656 -0.57513064 2.8000059 0 0 0 0 32.28997
4.7523241 -0.037394997 3.3813167 0 0 0 0 32.294914
4.7562265 -0.20664839 3.1765316 0 0 0 0 32.299866
4.740118 -0.33989954 2.9827211 0 0 0 0 32.30481
4.7310195 -0.46512914 2.8028939 0 0 0 0 32.309757
4.7863092 0.06264773 3.4112024 0 0 0 0 32.314705
4.7801986 -0.10262438 3.1954215 0 0 0 0 32.319653
4.7590823 -0.23388764 2.993613 0 0 0 0 32.3246
4.7549787 -0.35611749 2.8107772 0 0 0 0 32.329544
4.8012848 0.16466819 3.4321046 0 0 0 0 32.334492
4.7991681 0.0023928939 3.2113159 0 0 0 0 32.339439
4.7900534 -0.12685917 3.0124929 0 0 0 0 32.344387
4.7849455 -0.24709398 2.825655 0 0 0 0 32.349335
4.8252659 0.26770097 3.4589975 0 0 0 0 32.354279
4.8191404 0.10741425 3.2302096 0 0 0 0 32.359226
4.8120203 -0.018840972 3.0273812 0 0 0 0 32.364174
4.8089085 -0.13607773 2.8375373 0 0 0 0 32.369122
4.8532505 0.3717407 3.4898863 0 0 0 0 32.374069
4.8491192 0.21344969 3.2560935 0 0 0 0 32.379017
4.8389926 0.089186028 3.0472651 0 0 0 0 32.383965
4.8348732 -0.025058053 2.8514185 0 0 0 0 32.388908
4.7531548 0.46459752 3.4309123 0 0 0 0 32.393856
4.8670917 0.32047072 3.2759883 0 0 0 0 32.398804
4.864965 0.19921347 3.0681484 0 0 0 0 32.403751
4.8568387 0.086960383 2.866303 0 0 0 0 32.408699
4.4669456 0.53118521 3.2371488 0 0 0 0 32.413643
4.8720584 0.4284769 3.2898955 0 0 0 0 32.418591
4.883934 0.31023309 3.0860381 0 0 0 0 32.423538
4.8778028 0.20197809 2.8811855 0 0 0 0 32.428486
4.2267714 0.59284109 3.0763464 0 0 0 0 32.433434
4.5968614 0.50509417 3.114109 0 0 0 0 32.438377
4.9069061 0.42426082 3.1089211 0 0 0 0 32.443329
4.9077744 0.31700921 2.9030602 0 0 0 0 32.448273
4.0286298 0.65155995 2.9465065 0 0 0 0 32.45322
4.3466864 0.57374805 2.9553075 0 0 0 0 32.458168
4.6577311 0.50892586 2.9590995 0 0 0 0 32.463116
4.937746 0.4350425 2.9269323 0 0 0 0 32.468063
3.8404994 0.70329428 2.8236654 0 0 0 0 32.473007
4.1225333 0.63644123 2.8154876 0 0 0 0 32.477955
4.3905544 0.57957041 2.7993114 0 0 0 0 32.482903
4.6795745 0.52271003 2.7821155 0 0 0 0 32.48785
3.6683829 0.75205344 2.7128119 0 0 0 0 32.492798
3.9063904 0.69014531 2.6796703 0 0 0 0 32.497742
4.1523995 0.64425468 2.6575022 0 0 0 0 32.502689
4.3893929 0.59433609 2.6163478 0 0 0 0 32.507637
3.5092781 0.79583192 2.6109517 0 0 0 0 32.512585
3.7302759 0.74290812 2.5728157 0 0 0 0 32.517532
3.9362633 0.70197093 2.5306802 0 0 0 0 32.52248
4.1602516 0.66304612 2.490525 0 0 0 0 32.527428
3.362968 0.83673823 2.516573 0 0 0 0 32.286713
3.5549502 0.78878444 2.4654555 0 0 0 0 32.291656
3.747931 0.75583971 2.4213188 0 0 0 0 32.296604
3.9308991 0.72087198 2.3631942 0 0 0 0 32.301552
3.2248785 0.8735413 2.4287028 0 0 0 0 32.306499
3.412859 0.83559006 2.381577 0 0 0 0 32.311447
3.570821 0.80460298 2.3194723 0 0 0 0 32.316391
3.7347813 0.77561814 2.2563589 0 0 0 0 32.321339
3.0967987 0.90936214 2.3498237 0 0 0 0 32.326286
3.2587638 0.8733775 2.2877212 0 0 0 0 32.331234
3.4077241 0.84938776 2.2276165 0 0 0 0 32.336182
3.5526762 0.82438463 2.1585171 0 0 0 0 32.341125
2.9737253 0.94019037 2.2739456 0 0 0 0 32.346077
3.1286869 0.91220295 2.2128401 0 0 0 0 32.351021
3.2546353 0.89018667 2.1417553 0 0 0 0 32.355968
3.3745773 0.86815828 2.0636768 0 0 0 0 32.360916
2.8596587 0.97003204 2.2040596 0 0 0 0 32.365864
2.9956114 0.94402397 2.1349702 0 0 0 0 32.370811
3.1155579 0.92800558 2.0648842 0 0 0 0 32.375755
3.2284973 0.91197455 1.9878051 0 0 0 0 32.380703
2.7546003 0.99788815 2.1411669 0 0 0 0 32.385651
2.8765452 0.97586483 2.0660863 0 0 0 0 32.390598
2.9814866 0.96183306 1.9920126 0 0 0 0 32.395546
3.0734181 0.94678056 1.9069526 0 0 0 0 32.40049
2.6735554 1.0327804 2.0962424 0 0 0 0 32.405437
2.7694881 1.0077243 2.0061908 0 0 0 0 32.410385
2.8544209 0.99367034 1.9231364 0 0 0 0 32.415333
2.9463546 0.9836241 1.8430704 0 0 0 0 32.42028
2.6905661 1.1028236 2.1291814 0 0 0 0 32.425224
2.693449 1.0466299 1.9692568 0 0 0 0 32.430176
2.7423658 1.024529 1.8642466 0 0 0 0 32.43512
2.8272974 1.018479 1.7841825 0 0 0 0 32.440067
2.7015729 1.1738595 2.1591256 0 0 0 0 32.445015
2.709455 1.1216701 2.000191 0 0 0 0 32.449963
2.7203526 1.0865142 1.8672329 0 0 0 0 32.45491
2.7282529 1.0553628 1.739273 0 0 0 0 32.459854
2.7115798 1.2448945 2.1890709 0 0 0 0 32.464802
2.7294631 1.1997174 2.0351183 0 0 0 0 32.469749
2.7343554 1.1645511 1.896166 0 0 0 0 32.474697
2.7382505 1.1343918 1.7632085 0 0 0 0 32.479645
2.7325928 1.3239487 2.2299964 0 0 0 0 32.484589
2.7394676 1.2757527 2.065058 0 0 0 0 32.489536
2.7433567 1.2435839 1.924103 0 0 0 0 32.494484
2.7572534 1.2194365 1.796129 0 0 0 0 32.499432
2.7466025 1.4009929 2.2659318 0 0 0 0 32.504379
2.7534742 1.3557948 2.0989897 0 0 0 0 32.509327
2.7633624 1.3286321 1.9600232 0 0 0 0 32.514275
2.7762563 1.3064822 1.8300476 0 0 0 0 32.519218
2.7656159 1.4830477 2.3088572 0 0 0 0 32.524166
2.7714829 1.4398448 2.1379135 0 0 0 0 32.529114
2.7833693 1.4166837 1.9989402 0 0 0 0 32.534061
2.7892575 1.3935218 1.8619726 0 0 0 0 32.539009
2.7846279 1.5681025 2.3517792 0 0 0 0 32.543953
2.7944942 1.5299045 2.182826 0 0 0 0 32.548901
2.7983742 1.5047296 2.0358624 0 0 0 0 32.553848
2.8092613 1.4875734 1.900883 0 0 0 0 32.558796
2.7996399 1.6531545 2.3947058 0 0 0 0 32.563744
2.8115032 1.6189569 2.224746 0 0 0 0 32.568687
2.8173814 1.5977837 2.077776 0 0 0 0 32.573639
2.8342671 1.5866333 1.9447836 0 0 0 0 32.578583
2.8125458 1.7400631 2.43785 0 0 0 0 32.58353
2.8364193 1.7158886 2.2758672 0 0 0 0 32.588478
2.8383 1.6957139 2.1238995 0 0 0 0 32.593426
2.8441854 1.6815518 1.980921 0 0 0 0 32.598373
2.8305576 1.8321203 2.4867725 0 0 0 0 32.603317
2.8524261 1.8119407 2.320787 0 0 0 0 32.608265
2.8553054 1.7947669 2.1688149 0 0 0 0 32.613213
2.8781927 1.7956269 2.0368047 0 0 0 0 32.61816
2.8455682 1.9271755 2.5356951 0 0 0 0 32.623108
2.8674347 1.9089952 2.3687072 0 0 0 0 32.628052
2.8813138 1.9048356 2.2237105 0 0 0 0 32.632999
2.9001968 1.9056883 2.086704 0 0 0 0 32.637947
2.8605793 2.0242324 2.586616 0 0 0 0 32.642895
2.8894451 2.0150611 2.4236119 0 0 0 0 32.647842
2.8993194 2.0118942 2.273618 0 0 0 0 32.652786
2.9202008 2.0187492 2.1376026 0 0 0 0 32.657738
2.8835936 2.1303039 2.6465204 0 0 0 0 32.662682
2.914458 2.1281359 2.4855068 0 0 0 0 32.667629
2.9193273 2.1249599 2.3295174 0 0 0 0 32.672577
2.9462066 2.1408222 2.1964867 0 0 0 0 32.677525
2.9056091 2.2393775 2.7094231 0 0 0 0 32.682472
2.924464 2.2341888 2.5354235 0 0 0 0 32.687416
2.9463367 2.2480381 2.3934 0 0 0 0 32.692364
2.9642112 2.262888 2.2533786 0 0 0 0 32.697311
2.9256234 2.3524506 2.7733238 0 0 0 0 32.702259
2.9554787 2.3602774 2.6073 0 0 0 0 32.707207
2.9663451 2.3721111 2.4562886 0 0 0 0 32.712151
2.9902172 2.3969679 2.3192513 0 0 0 0 32.717098
2.9456382 2.4695268 2.8402207 0 0 0 0 32.722046
2.9764907 2.4853556 2.6751876 0 0 0 0 32.726994
2.9913549 2.5051942 2.5261636 0 0 0 0 32.731941
3.0172243 2.5370531 2.3901172 0 0 0 0 32.736889
2.9666536 2.5936081 2.9121101 0 0 0 0 32.741837
2.9955025 2.6134341 2.7450743 0 0 0 0 32.74678
3.019366 2.6472857 2.6030273 0 0 0 0 32.751728
3.0442312 2.6861436 2.4659739 0 0 0 0 32.756676
2.9857974 2.718616 2.9843254 0 0 0 0 32.897629
3.0176473 2.7504518 2.821275 0 0 0 0 32.902573
3.0445108 2.7933104 2.6812172 0 0 0 0 32.90752
3.0713766 2.8421755 2.5471528 0 0 0 0 32.912468
3.011817 2.8587129 3.0701978 0 0 0 0 32.917416
3.0416615 2.8945434 2.9031451 0 0 0 0 32.922363
3.0685222 2.9474044 2.7650766 0 0 0 0 32.927311
3.1033854 3.0102794 2.6359906 0 0 0 0 32.932259
3.0318336 2.9978013 3.1520774 0 0 0 0 32.937202
3.0676773 3.0496442 2.9930027 0 0 0 0 32.94215
3.1055377 3.118521 2.8639078 0 0 0 0 32.947098
3.1373947 3.1893916 2.7318163 0 0 0 0 32.952045
3.0558515 3.1479001 3.2419426 0 0 0 0 32.956993
3.1036956 3.2207634 3.0958357 0 0 0 0 32.961937
3.13255 3.2926292 2.9607456 0 0 0 0 32.966885
3.1684051 3.3765075 2.833637 0 0 0 0 32.971832
3.0918744 3.3190246 3.3507762 0 0 0 0 32.97678
3.1317127 3.3948777 3.1986732 0 0 0 0 32.981728
3.1665659 3.4827557 3.0715613 0 0 0 0 32.986671
3.2094176 3.5876465 2.9524248 0 0 0 0 32.991623
3.1188962 3.4881406 3.4566209 0 0 0 0 32.996567
3.1607313 3.5790005 3.3095005 0 0 0 0 33.001514
3.2065823 3.6918969 3.1943531 0 0 0 0 33.006462
3.2454295 3.804785 3.0742118 0 0 0 0 33.01141
3.1539211 3.6782782 3.5794375 0 0 0 0 33.016357
3.2027533 3.7881494 3.4392912 0 0 0 0 33.021301
3.2415996 3.9080405 3.3221431 0 0 0 0 33.026249
3.2904427 4.0479455 3.2129653 0 0 0 0 33.031197
3.1879456 3.8754175 3.7052488 0 0 0 0 33.036144
3.2407753 4.0053005 3.5740786 0 0 0 0 33.041092
3.2786167 4.1391935 3.4589167 0 0 0 0 33.046036
3.3334572 4.3051143 3.361707 0 0 0 0 33.050983
3.2189698 4.0805597 3.8360555 0 0 0 0 33.055931
3.2697957 4.2264462 3.7088706 0 0 0 0 33.060879
3.3256371 4.3993726 3.616653 0 0 0 0 33.065826
3.3874733 4.5943103 3.5314074 0 0 0 0 33.07077
3.2529967 4.3037171 3.9808421 0 0 0 0 33.075722
3.3158214 4.4826293 3.871613 0 0 0 0 33.080666
3.3776598 4.6855741 3.7933593 0 0 0 0 33.085613
3.4384899 4.9025154 3.7130923 0 0 0 0 33.090561
3.309031 4.569922 4.1605663 0 0 0 0 33.095509
3.3698509 4.7678385 4.0563197 0 0 0 0 33.100456
3.4306843 4.9937897 3.9850435 0 0 0 0 33.1054
3.503509 5.253758 3.9237223 0 0 0 0 33.110348
3.3500621 4.8331118 4.3343081 0 0 0 0 33.115295
3.4188793 5.0670509 4.2480178 0 0 0 0 33.120243
3.4917102 5.3380337 4.2006855 0 0 0 0 33.125191
3.5785325 5.6510377 4.1672978 0 0 0 0 33.130135
3.3990977 5.1283302 4.5330119 0 0 0 0 33.135082
3.4769125 5.4042974 4.4686708 0 0 0 0 33.14003
3.5517383 5.7102952 4.4353018 0 0 0 0 33.144978
3.5225332 5.8661065 4.2731757 0 0 0 0 33.149925
3.4501345 5.4435635 4.7456946 0 0 0 0 33.154873
3.4909341 5.6924734 4.6454139 0 0 0 0 33.159821
3.4477298 5.8342695 4.4753146 0 0 0 0 33.164764
3.3645182 5.9149981 4.2593122 0 0 0 0 33.169712
3.4401531 5.6856937 4.8915062 0 0 0 0 33.17466
3.3469124 5.7333589 4.6195469 0 0 0 0 33.179607
3.3077161 5.8981814 4.4724202 0 0 0 0 33.184555
3.2065067 5.9628935 4.2484493 0 0 0 0 33.189499
3.2991247 5.7155657 4.8516479 0 0 0 0 33.194447
3.2779148 5.9073963 4.7034793 0 0 0 0 33.199394
3.1667039 5.9590931 4.4695296 0 0 0 0 33.204342
3.0484967 6.0027866 4.2345943 0 0 0 0 33.20929
3.2381287 5.8876071 4.9365759 0 0 0 0 33.214233
3.131896 5.9432812 4.6776185 0 0 0 0 33.219185
3.0156908 5.9999857 4.4526672 0 0 0 0 33.224129
3.10811 5.9385095 4.9206862 0 0 0 0 33.234024
2.9898806 5.9871778 4.6607451 0 0 0 0 33.238972
2.9670887 5.9683905 4.8888268 0 0 0 0 33.253811
2.8980966 6.1484375 4.9827542 0 0 0 0 33.273598
2.0306334 6.8401074 4.9803843 0 0 0 0 33.153656
0.24762496 7.2600718 4.9569688 0 0 0 0 33.356483
-1.0052437 6.9872408 4.7905612 0 0 0 0 33.480156
-0.88916564 7.0874271 4.9304099 0 0 0 0 33.494999
-1.1632013 6.9361534 4.7867861 0 0 0 0 33.499947
-1.0311383 6.9412713 4.8507166 0 0 0 0 33.514786
-1.3331507 6.9481096 4.8319564 0 0 0 0 33.519733
-0.91707605 7.0594468 4.9815497 0 0 0 0 33.529625
-1.191098 6.9302049 4.8689022 0 0 0 0 33.534573
-1.4871055 6.8780184 4.8211946 0 0 0 0 33.53952
-1.0600513 6.9353008 4.9118342 0 0 0 0 33.549416
-1.3480568 6.8951283 4.8741083 0 0 0 0 33.554359
-1.6670479 6.9159951 4.8913455 0 0 0 0 33.559311
-0.93199456 7.0594783 5.0396519 0 0 0 0 33.564255
-1.2160174 6.9272304 4.9240131 0 0 0 0 33.569202
-1.5070138 6.8710589 4.8883038 0 0 0 0 33.57415
-1.8539873 6.9749856 4.9784799 0 0 0 0 33.579098
-1.0669795 6.9223175 4.9499416 0 0 0 0 33.584045
-1.3639861 6.8751354 4.9062276 0 0 0 0 33.588989
-1.6819623 6.9160357 4.9554429 0 0 0 0 33.593937
-2.037926 7.0019603 5.0476432 0 0 0 0 33.598885
-1.2205037 6.9190326 4.9591942 0 0 0 0 34.027084
-1.5234994 6.873877 4.9314628 0 0 0 0 34.032032
-1.859465 6.9598165 5.0236354 0 0 0 0 34.03698
-2.2244196 7.0347524 5.1248388 0 0 0 0 34.041927
-1.3634795 6.8609357 4.9293985 0 0 0 0 34.046875
-1.6914582 6.9068408 4.9796014 0 0 0 0 34.051819
-2.0404122 6.9967923 5.0907793 0 0 0 0 34.056767
-2.4223549 7.0817418 5.2149849 0 0 0 0 34.061714
-1.5204477 6.8668776 4.948554 0 0 0 0 34.066662
-1.8664129 6.9478116 5.0387373 0 0 0 0 34.071609
-2.2283561 7.0417743 5.1679196 0 0 0 0 34.076553
-2.619288 7.1117268 5.2991443 0 0 0 0 34.081505
-1.6894108 6.9078403 4.9956856 0 0 0 0 34.086449
-2.0463645 6.9927864 5.1048727 0 0 0 0 34.091396
-2.4172983 7.0757523 5.2410703 0 0 0 0 34.096344
-2.8242183 7.153718 5.3942981 0 0 0 0 34.101292
-1.8613718 6.9498048 5.0468178 0 0 0 0 34.106239
-2.2303154 7.0337596 5.1700134 0 0 0 0 34.111183
-2.6052399 7.0957246 5.3072319 0 0 0 0 34.116131
-3.0461409 7.2197256 5.5154414 0 0 0 0 34.121078
-2.034332 6.9817653 5.0929594 0 0 0 0 34.126026
-2.4142647 7.0657301 5.2321615 0 0 0 0 34.130974
-2.8101754 7.1457143 5.4003787 0 0 0 0 34.135918
-3.2140772 7.1516671 5.5376658 0 0 0 0 34.140865
-2.2162881 7.0287356 5.1540928 0 0 0 0 34.145813
-2.6022117 7.0967011 5.2973127 0 0 0 0 34.150761
-3.024107 7.2077112 5.5065193 0 0 0 0 34.155708
-3.3520212 7.0165772 5.5099282 0 0 0 0 34.160656
-2.4012437 7.0697031 5.213233 0 0 0 0 34.165604
-2.7991552 7.1336775 5.3714643 0 0 0 0 34.170547
-3.2040472 7.1766634 5.5457187 0 0 0 0 34.175495
-3.4899638 6.8904948 5.4901805 0 0 0 0 34.180443
-2.5861967 7.0966663 5.267385 0 0 0 0 34.18539
-3.0120931 7.2006702 5.4715996 0 0 0 0 34.190338
-3.3489945 7.064579 5.5269637 0 0 0 0 34.195282
-3.6179063 6.7524114 5.4634352 0 0 0 0 34.20023
-2.780148 7.1286316 5.327539 0 0 0 0 34.205177
-3.2100329 7.2116385 5.5367732 0 0 0 0 34.210125
-3.4839425 6.9344902 5.4972162 0 0 0 0 34.215073
-3.7368488 6.596323 5.4266977 0 0 0 0 34.220016
-2.9860942 7.1866121 5.4106765 0 0 0 0 34.224968
-3.360986 7.1165538 5.5200067 0 0 0 0 34.229912
-3.6158905 6.807404 5.4694633 0 0 0 0 34.234859
-3.8837824 6.5012679 5.4399247 0 0 0 0 34.239807
-3.2030365 7.2485952 5.5018177 0 0 0 0 34.244755
-3.5089374 7.0184717 5.5042391 0 0 0 0 34.249702
-3.7418389 6.672317 5.4367113 0 0 0 0 34.254646
-4.1196895 6.5502849 5.577086 0 0 0 0 34.259594
-3.3869867 7.2305422 5.5350056 0 0 0 0 34.264542
-3.6528873 6.9133906 5.486474 0 0 0 0 34.269489
-3.8697848 6.5482392 5.4149499 0 0 0 0 34.274437
-4.2476263 6.4192162 5.5653286 0 0 0 0 34.279381
-3.5369444 7.1324525 5.5102386 0 0 0 0 34.284328
-3.7848396 6.7893028 5.4547153 0 0 0 0 34.289276
-4.0657096 6.5362191 5.4901357 0 0 0 0 34.294224
-4.3575664 6.2671404 5.5365763 0 0 0 0 34.299171
-3.6859 7.0343661 5.4884696 0 0 0 0 34.304115
-3.9067931 6.6532125 5.414959 0 0 0 0 34.309067
-4.2726312 6.5352054 5.5783181 0 0 0 0 34.314011
-4.4705038 6.124073 5.5178165 0 0 0 0 34.318958
-3.8238564 6.9182754 5.4557076 0 0 0 0 34.323906
