# .PCD v0.7 - Point Cloud Data file format
VERSION 0.7
FIELDS x y z normal_x normal_y normal_z intensity curvature
SIZE 4 4 4 4 4 4 4 4
TYPE F F F F F F F F
COUNT 1 1 1 1 1 1 1 1
WIDTH 954
HEIGHT 1
VIEWPOINT 0 0 0 1 0 0 0
POINTS 954
DATA ascii
-0.37735349 0.090112701 0.018365866 0 0 0 0 24.024475
-0.34285668 0.06619022 0.030028243 0 0 0 0 24.034369
-0.3409344 0.064194329 0.023011036 0 0 0 0 24.04921
-0.34019843 0.050077416 0.036912825 0 0 0 0 24.059103
-0.35106573 0.065445952 0.015941661 0 0 0 0 23.766888
-0.34336206 0.050154779 0.029797487 0 0 0 0 23.776783
-0.34641457 0.049281452 0.022813389 0 0 0 0 23.791622
-0.34764796 0.03619685 0.038730934 0 0 0 0 23.801517
-0.35246602 0.048481513 0.015845064 0 0 0 0 23.806465
-0.34573129 0.034208123 0.030713608 0 0 0 0 23.816359
-0.3408154 0.032145858 0.022680568 0 0 0 0 23.8312
-0.3469972 0.02118336 0.038638767 0 0 0 0 23.841093
-0.34589618 0.030328527 0.014700091 0 0 0 0 23.846039
-0.348079 0.019268014 0.03063735 0 0 0 0 23.855934
-0.34218729 0.016181743 0.022592237 0 0 0 0 23.870775
-0.3473686 0.0051946957 0.038545411 0 0 0 0 23.880669
-0.34726748 0.014363892 0.014611849 0 0 0 0 23.885616
-0.34645042 0.0032303156 0.03053366 0 0 0 0 23.89551
-0.3425574 0.00019306499 0.022499254 0 0 0 0 23.910351
-0.34868377 -0.0087774349 0.039471835 0 0 0 0 23.920246
-0.34866107 -0.002600611 0.014517187 0 0 0 0 23.925192
-0.34978876 -0.011692947 0.031463686 0 0 0 0 23.935085
-0.34390077 -0.014771681 0.022419075 0 0 0 0 23.949928
-0.35002142 -0.023749389 0.040391784 0 0 0 0 23.95982
-0.34802869 -0.018614195 0.014419686 0 0 0 0 23.964767
-0.34813172 -0.026730862 0.031368185 0 0 0 0 23.974663
-0.34226733 -0.030809024 0.022316843 0 0 0 0 23.989502
-0.35035744 -0.038745712 0.041307069 0 0 0 0 23.999397
-0.34440023 -0.034693278 0.013307239 0 0 0 0 24.004345
-0.34749165 -0.042751122 0.032271497 0 0 0 0 24.014238
-0.33860821 -0.045894835 0.022211818 0 0 0 0 24.029079
-0.36073184 -0.05550687 0.043260928 0 0 0 0 24.038973
-0.3447825 -0.051689126 0.014209235 0 0 0 0 24.043921
-0.35686558 -0.059536643 0.034220353 0 0 0 0 24.053814
-0.35302818 -0.06455899 0.024172978 0 0 0 0 24.068655
-0.35808888 -0.071575835 0.044154797 0 0 0 0 24.078548
-0.36020625 -0.070323057 0.015175724 0 0 0 0 24.083496
-0.35622627 -0.075550273 0.034124855 0 0 0 0 24.093391
-0.35038868 -0.080620646 0.024067391 0 0 0 0 24.108231
-0.35944268 -0.087548308 0.045070011 0 0 0 0 24.118126
-0.35459083 -0.087457038 0.015047889 0 0 0 0 24.123074
-0.35460424 -0.092594549 0.035017885 0 0 0 0 24.132965
-0.35478798 -0.09852048 0.024984784 0 0 0 0 24.147808
-0.37087739 -0.10729404 0.048009772 0 0 0 0 24.157701
-0.37814638 -0.11190707 0.017015232 0 0 0 0 24.162647
-0.37410754 -0.11514796 0.037978482 0 0 0 0 24.172543
-0.37029141 -0.12117022 0.027924972 0 0 0 0 24.187382
-0.3662335 -0.12340384 0.047895256 0 0 0 0 24.197277
-0.37152627 -0.12906538 0.016883619 0 0 0 0 24.202225
-0.35737556 -0.12753882 0.036829986 0 0 0 0 24.212118
-0.34954092 -0.13264933 0.025763135 0 0 0 0 24.226959
-0.35554162 -0.13765666 0.04776435 0 0 0 0 24.236855
-0.39134994 -0.15663189 0.018673303 0 0 0 0 23.991806
-0.40642482 -0.16544911 0.044693194 0 0 0 0 24.001699
-0.39255515 -0.16869406 0.031608205 0 0 0 0 24.016541
-0.40560609 -0.17656024 0.057624705 0 0 0 0 24.026434
-0.39591706 -0.18153147 0.019542212 0 0 0 0 24.031382
-0.39578313 -0.18170743 0.04454682 0 0 0 0 24.041275
-0.44867918 -0.21739732 0.038568623 0 0 0 0 24.056116
-0.4262909 -0.20710072 0.062535442 0 0 0 0 24.06601
-0.45514467 -0.23414883 0.024490871 0 0 0 0 24.070957
-0.44382957 -0.22761358 0.052486923 0 0 0 0 24.080853
-0.43103465 -0.23382604 0.038387123 0 0 0 0 24.095692
-0.44906259 -0.24160141 0.068429552 0 0 0 0 24.105587
-0.44156951 -0.2534807 0.024309773 0 0 0 0 24.110533
-0.44033805 -0.25071648 0.054329962 0 0 0 0 24.120426
-0.43266574 -0.26179969 0.039221987 0 0 0 0 24.135269
-0.46181381 -0.27533805 0.073279776 0 0 0 0 24.145163
-4.6765823 -2.9470396 0.37461057 0 0 0 0 24.150108
-4.7318912 -2.9559407 0.54783446 0 0 0 0 24.155056
-4.7893262 -2.9687507 0.71504122 0 0 0 0 24.160004
-4.8427515 -2.9827058 0.88922006 0 0 0 0 24.164951
-4.5248857 -3.0067935 0.36945033 0 0 0 0 24.169897
-4.5822282 -3.0166316 0.54067779 0 0 0 0 24.174843
-4.6386065 -3.0264447 0.70490032 0 0 0 0 24.17979
-4.6909132 -3.034389 0.87411565 0 0 0 0 24.184738
-4.3903852 -3.0751421 0.36631855 0 0 0 0 24.189686
-4.4029002 -3.0489798 0.52857411 0 0 0 0 24.194633
-4.4876771 -3.0751171 0.69282407 0 0 0 0 24.199579
-4.547102 -3.0878918 0.86204123 0 0 0 0 24.204525
-4.3025689 -3.1723955 0.36622021 0 0 0 0 24.209473
-4.2498531 -3.0937197 0.52051735 0 0 0 0 24.21442
-4.3244667 -3.1120634 0.67977113 0 0 0 0 24.219368
-4.416326 -3.1430819 0.85102248 0 0 0 0 24.224314
-4.2350841 -3.2841823 0.36912456 0 0 0 0 24.229261
-4.1313219 -3.16066 0.51648021 0 0 0 0 24.234207
-4.2017603 -3.1710808 0.67276835 0 0 0 0 24.239155
-4.2651472 -3.1807108 0.83502698 0 0 0 0 24.244102
-4.1391091 -3.3756239 0.37003186 0 0 0 0 24.24905
-4.0044842 -3.2147803 0.51149344 0 0 0 0 24.253996
-4.064755 -3.2174134 0.66378516 0 0 0 0 24.258944
-4.1372156 -3.2298207 0.82506955 0 0 0 0 24.263889
-4.0011888 -3.427012 0.36601216 0 0 0 0 24.268837
-3.8694355 -3.2600782 0.5055297 0 0 0 0 24.273785
-3.9469631 -3.2733033 0.6578334 0 0 0 0 24.278732
-4.008214 -3.2759404 0.81412983 0 0 0 0 24.283678
-3.8631647 -3.4743996 0.36302221 0 0 0 0 24.288624
-3.7516065 -3.3149745 0.50158703 0 0 0 0 24.293571
-3.8168726 -3.3164606 0.64991122 0 0 0 0 24.298519
-3.8841796 -3.32094 0.80422479 0 0 0 0 24.303467
-3.7301786 -3.5236657 0.36104658 0 0 0 0 24.308414
-3.6387916 -3.3707514 0.49866545 0 0 0 0 24.31336
-3.6927772 -3.3594673 0.64202207 0 0 0 0 24.318306
-3.7590473 -3.3619571 0.79434419 0 0 0 0 24.323254
-3.4342458 -3.4046164 0.34143221 0 0 0 0 24.328201
-3.4952188 -3.3942134 0.49181762 0 0 0 0 24.333149
-3.5767612 -3.4062891 0.63614869 0 0 0 0 24.338095
-3.6460409 -3.408694 0.78648609 0 0 0 0 24.343042
-3.3182251 -3.4524651 0.34055427 0 0 0 0 24.347988
-3.3894191 -3.450809 0.48892942 0 0 0 0 24.352936
-3.4626944 -3.451057 0.63030124 0 0 0 0 24.357883
-3.5299189 -3.450489 0.77764881 0 0 0 0 24.362831
-3.1991076 -3.4963784 0.33969036 0 0 0 0 24.367777
-3.2763338 -3.4955666 0.48608926 0 0 0 0 24.372725
-3.3475728 -3.4938486 0.62546438 0 0 0 0 24.37767
-3.4218764 -3.4961007 0.77082717 0 0 0 0 24.382618
-3.0859616 -3.5391426 0.33886594 0 0 0 0 24.387566
-3.1570394 -3.5314538 0.48228163 0 0 0 0 24.392513
-3.2374468 -3.5365148 0.620655 0 0 0 0 24.397459
-3.3086958 -3.5358181 0.76302284 0 0 0 0 24.402405
-2.9686542 -3.5749888 0.33707067 0 0 0 0 24.407352
-3.0520358 -3.5800138 0.48045918 0 0 0 0 24.4123
-3.126271 -3.5771983 0.61585611 0 0 0 0 24.417248
-3.1974175 -3.5714824 0.75525773 0 0 0 0 24.422195
-2.8605671 -3.6206264 0.33725542 0 0 0 0 24.427141
-3.017045 -3.6158278 0.61108291 0 0 0 0 24.437035
-3.093313 -3.6149864 0.74947602 0 0 0 0 24.441982
-2.7523596 -3.6612585 0.33747604 0 0 0 0 24.44693
-2.6975448 -3.4832938 0.45344028 0 0 0 0 24.451876
-2.7872405 -3.4980657 0.58079159 0 0 0 0 24.456823
-2.990135 -3.6554611 0.74372154 0 0 0 0 24.461769
-2.6450958 -3.7039173 0.33871353 0 0 0 0 24.48118
-2.7303014 -3.6998522 0.47517216 0 0 0 0 24.486126
-2.7951686 -3.6791863 0.60064411 0 0 0 0 24.491074
-2.8857486 -3.6910009 0.73701996 0 0 0 0 24.496021
-2.5398576 -3.7434626 0.33896071 0 0 0 0 24.500969
-2.62398 -3.7354093 0.47344097 0 0 0 0 24.505915
-2.7022142 -3.7304413 0.59987074 0 0 0 0 24.510862
-2.7845354 -3.7304201 0.73228675 0 0 0 0 24.515808
-2.4366114 -3.7829611 0.34021989 0 0 0 0 24.520756
-2.5176518 -3.7709661 0.47271159 0 0 0 0 24.525703
-2.6009417 -3.7678676 0.59715307 0 0 0 0 24.530651
-2.6863656 -3.7717624 0.72755718 0 0 0 0 24.535597
-2.3302281 -3.8165181 0.34050605 0 0 0 0 24.540545
-2.4164131 -3.8103981 0.47198251 0 0 0 0 24.54549
-2.5017076 -3.8072469 0.59543377 0 0 0 0 24.550438
-2.5819194 -3.8012347 0.72187966 0 0 0 0 24.555386
-2.2331753 -3.8648741 0.34373891 0 0 0 0 24.560333
-2.3171427 -3.848784 0.47227201 0 0 0 0 24.565279
-2.3962495 -3.8367491 0.59175318 0 0 0 0 24.570225
-2.4815819 -3.8356125 0.7171905 0 0 0 0 24.575172
-2.1287353 -3.8963778 0.34505227 0 0 0 0 24.58012
-2.2137132 -3.8802519 0.47159004 0 0 0 0 24.585068
-2.3031669 -3.8829803 0.591021 0 0 0 0 24.590015
-2.3853288 -3.8738966 0.71349645 0 0 0 0 24.594961
-2.0263808 -3.931834 0.34735066 0 0 0 0 24.599907
-2.1175253 -3.9225605 0.47287154 0 0 0 0 24.604855
-2.2027626 -3.9153655 0.58934897 0 0 0 0 24.609802
-2.2868929 -3.9042161 0.70884758 0 0 0 0 24.61475
-1.9291803 -3.9741724 0.35062933 0 0 0 0 24.619698
-2.0233576 -3.9658163 0.47415829 0 0 0 0 24.624643
-2.1032913 -3.944715 0.58670366 0 0 0 0 24.629589
-2.1905842 -3.9404948 0.70617044 0 0 0 0 24.634537
-1.8319305 -4.0145049 0.35392317 0 0 0 0 24.639484
-1.924003 -4.001184 0.47547507 0 0 0 0 24.644432
-2.0090802 -3.9859595 0.5870052 0 0 0 0 24.649378
-2.0941846 -3.9727621 0.70252162 0 0 0 0 24.654325
-1.7336322 -4.0528541 0.35722715 0 0 0 0 24.659271
-1.8297787 -4.0424347 0.47777879 0 0 0 0 24.664219
-1.9148663 -4.0271974 0.58730865 0 0 0 0 24.669167
-1.9998291 -4.0069761 0.69887131 0 0 0 0 24.674114
-1.6343086 -4.0902205 0.36053461 0 0 0 0 24.67906
-1.7303315 -4.0737834 0.47812572 0 0 0 0 24.684006
-1.8195162 -4.0624471 0.5866487 0 0 0 0 24.688953
-1.9076178 -4.0481558 0.6981861 0 0 0 0 24.693901
-1.5370463 -4.1305404 0.36483395 0 0 0 0 24.698849
-1.6298316 -4.1031566 0.47948265 0 0 0 0 24.703796
-1.7262508 -4.1016502 0.58697397 0 0 0 0 24.708742
-1.8121654 -4.0783815 0.69456071 0 0 0 0 24.713688
-1.4290837 -4.1400723 0.36629051 0 0 0 0 24.718636
-1.5377097 -4.1493473 0.4827686 0 0 0 0 24.723583
-1.6309322 -4.1389003 0.58830416 0 0 0 0 24.728531
-1.7156832 -4.1076312 0.69193852 0 0 0 0 24.733479
-0.8224895 -2.5756879 0.22491468 0 0 0 0 24.738424
-1.1460072 -3.3255029 0.38345233 0 0 0 0 24.74337
-1.5345062 -4.1711555 0.58766431 0 0 0 0 24.748318
-1.625487 -4.1497464 0.69126201 0 0 0 0 24.753265
-0.56998754 -1.9389402 0.16700022 0 0 0 0 24.758213
-0.78004539 -2.442991 0.27864215 0 0 0 0 24.763159
-1.0838587 -3.1642814 0.44028273 0 0 0 0 24.768106
-1.532128 -4.1849265 0.69061846 0 0 0 0 24.773052
-0.50448555 -1.8763961 0.16213059 0 0 0 0 24.778
-0.55437839 -1.8825761 0.21133818 0 0 0 0 24.782948
-0.73793286 -2.3211925 0.31829506 0 0 0 0 24.787895
-0.98945332 -2.8985901 0.47065333 0 0 0 0 24.792841
-0.46295676 -1.9013789 0.16579036 0 0 0 0 24.797789
-0.50838345 -1.8866373 0.21211624 0 0 0 0 24.802734
-0.5520137 -1.879913 0.25437948 0 0 0 0 24.807682
-0.70863438 -2.2340982 0.35677519 0 0 0 0 24.81263
-0.41811612 -1.9124181 0.16752826 0 0 0 0 24.817577
-0.46572611 -1.9056294 0.21381117 0 0 0 0 24.822523
-0.51036119 -1.8988762 0.25507921 0 0 0 0 24.827469
-0.55176854 -1.8821949 0.29639789 0 0 0 0 24.832417
-0.37447077 -1.9324425 0.17121267 0 0 0 0 24.837364
-0.42295322 -1.91962 0.21553977 0 0 0 0 24.842312
-0.4675706 -1.9118611 0.25581419 0 0 0 0 24.84726
-0.51116085 -1.9031326 0.29709002 0 0 0 0 24.852205
-0.33085176 -1.953457 0.17389144 0 0 0 0 24.857151
-0.38140267 -1.9435889 0.21820851 0 0 0 0 24.862099
-0.42486563 -1.9288487 0.25752366 0 0 0 0 24.867046
-0.46939713 -1.9170856 0.29682392 0 0 0 0 24.871994
-0.28609481 -1.9684931 0.1766054 0 0 0 0 24.87694
-0.33662337 -1.9576259 0.22092874 0 0 0 0 24.881887
-0.38318688 -1.9468038 0.25823233 0 0 0 0 24.886833
-0.42763251 -1.931036 0.29655853 0 0 0 0 24.891781
-0.2413549 -1.9845325 0.18031362 0 0 0 0 24.896729
-0.29398403 -1.9776063 0.22262046 0 0 0 0 24.901676
-0.34043416 -1.9617865 0.25995645 0 0 0 0 24.906622
-0.38601664 -1.9519949 0.29824808 0 0 0 0 24.91157
-0.19579619 -2.0085893 0.18396546 0 0 0 0 24.916515
-0.24927098 -1.9946368 0.22532271 0 0 0 0 24.921463
-0.29672623 -1.9787885 0.26166335 0 0 0 0 24.926411
-0.34435877 -1.970945 0.29895163 0 0 0 0 24.931358
-0.15009966 -2.0266447 0.18765739 0 0 0 0 24.936304
-0.20342091 -2.0056884 0.22805993 0 0 0 0 24.94125
-0.25303987 -1.9967871 0.26336458 0 0 0 0 24.946198
-0.30054617 -1.982933 0.29869172 0 0 0 0 24.951145
-0.099992812 -2.0343878 0.1922704 0 0 0 0 25.519888
-0.15551887 -2.0214198 0.23161803 0 0 0 0 25.524836
-0.20615649 -2.0125282 0.26591688 0 0 0 0 25.529781
-0.25458229 -1.9936767 0.29926839 0 0 0 0 25.534729
-0.052447584 -2.060441 0.19691671 0 0 0 0 25.539677
-0.10861881 -2.0304375 0.23337477 0 0 0 0 25.544624
-0.16032167 -2.0245245 0.2676594 0 0 0 0 25.54957
-0.20987803 -2.0116508 0.30097798 0 0 0 0 25.554516
-0.0057533598 -2.0794649 0.2006124 0 0 0 0 25.559464
-0.063159086 -2.0604444 0.23800626 0 0 0 0 25.564411
-0.11446903 -2.035512 0.26840892 0 0 0 0 25.569359
-0.16740564 -2.0405824 0.30362952 0 0 0 0 25.574306
0.043054398 -2.0935364 0.20533051 0 0 0 0 25.579252
-0.01642107 -2.0774667 0.24171486 0 0 0 0 25.584198
-0.069133267 -2.0715215 0.27400383 0 0 0 0 25.589146
-0.1215136 -2.0495617 0.30339202 0 0 0 0 25.594093
0.093651071 -2.1176515 0.2109779 0 0 0 0 25.599041
0.031339381 -2.0935078 0.24542575 0 0 0 0 25.603987
-0.023316987 -2.0845084 0.27574262 0 0 0 0 25.608934
-0.075806022 -2.0675488 0.30509943 0 0 0 0 25.61388
0.14435253 -2.1367581 0.21565732 0 0 0 0 25.618828
0.080992535 -2.1145873 0.24909708 0 0 0 0 25.623775
0.024504222 -2.0975418 0.27847269 0 0 0 0 25.628723
-0.030011082 -2.0815334 0.3068324 0 0 0 0 25.633669
0.195206 -2.1488628 0.22038095 0 0 0 0 25.638617
0.13154829 -2.1406963 0.25473368 0 0 0 0 25.643562
0.074007481 -2.1256175 0.28210133 0 0 0 0 25.64851
0.017616719 -2.1035626 0.30950728 0 0 0 0 25.653458
0.24971968 -2.177053 0.22598769 0 0 0 0 25.658405
0.18226855 -2.1587915 0.25842077 0 0 0 0 25.663351
0.12372746 -2.1436923 0.2857928 0 0 0 0 25.668297
0.065408647 -2.117578 0.31023249 0 0 0 0 25.673244
0.30439007 -2.198247 0.2326387 0 0 0 0 25.678192
0.23503697 -2.174933 0.26311168 0 0 0 0 25.68314
0.1735682 -2.1557531 0.28752217 0 0 0 0 25.688087
0.11500023 -2.1416495 0.31388745 0 0 0 0 25.693033
0.35910004 -2.2174315 0.23830305 0 0 0 0 25.697979
0.28861785 -2.2000961 0.26874331 0 0 0 0 25.702927
0.22616561 -2.1798902 0.29216433 0 0 0 0 25.707874
0.16471271 -2.1597064 0.31558037 0 0 0 0 25.712822
0.41493949 -2.2306354 0.24400057 0 0 0 0 25.717768
0.34425944 -2.2222931 0.27338511 0 0 0 0 25.722715
0.27888829 -2.198019 0.29584441 0 0 0 0 25.727661
0.21647322 -2.1758094 0.31827703 0 0 0 0 25.732609
0.47538146 -2.2629499 0.25155881 0 0 0 0 25.737556
0.3991164 -2.2344673 0.27809399 0 0 0 0 25.742504
0.33442834 -2.2252188 0.30145609 0 0 0 0 25.74745
0.26912779 -2.1969292 0.32093927 0 0 0 0 25.752398
0.53880799 -2.2963302 0.26009813 0 0 0 0 25.757343
0.45766219 -2.2617319 0.28469303 0 0 0 0 25.762291
0.38921714 -2.2403836 0.30514714 0 0 0 0 25.767239
0.3237451 -2.2200937 0.32458079 0 0 0 0 25.772186
0.60230058 -2.3267071 0.26865715 0 0 0 0 25.777132
0.52008545 -2.2950826 0.29223779 0 0 0 0 25.782078
0.44690424 -2.2606139 0.30979443 0 0 0 0 25.787025
0.3784278 -2.2402556 0.32824174 0 0 0 0 25.791973
0.66698629 -2.348103 0.27726778 0 0 0 0 25.796921
0.58169806 -2.3194034 0.29884356 0 0 0 0 25.801868
0.50832444 -2.2939343 0.31634465 0 0 0 0 25.806814
0.43783879 -2.2735229 0.33280095 0 0 0 0 25.81176
0.73362583 -2.3715303 0.28485799 0 0 0 0 25.816708
0.64629471 -2.3447897 0.30643031 0 0 0 0 25.821655
0.56899261 -2.3152199 0.32097408 0 0 0 0 25.826603
0.49650231 -2.2947617 0.33643928 0 0 0 0 25.831549
0.80316913 -2.4000278 0.29440489 0 0 0 0 25.836496
0.71282881 -2.3732133 0.31399071 0 0 0 0 25.841442
0.63260686 -2.3395767 0.32757226 0 0 0 0 25.84639
0.55898464 -2.3250911 0.34200522 0 0 0 0 25.851337
0.87571806 -2.4285901 0.30493909 0 0 0 0 25.856285
0.77859336 -2.3906078 0.3206239 0 0 0 0 25.861231
0.69817537 -2.3659649 0.33315021 0 0 0 0 25.866179
0.62075615 -2.3413866 0.34566215 0 0 0 0 25.871124
0.94834876 -2.4531422 0.31449899 0 0 0 0 25.876072
0.85107493 -2.4221609 0.33014056 0 0 0 0 25.88102
0.76479203 -2.3903763 0.33973682 0 0 0 0 25.885967
0.68630451 -2.3687718 0.35123476 0 0 0 0 25.890913
1.0268574 -2.4838207 0.32499585 0 0 0 0 25.895859
0.92461705 -2.4507244 0.33867219 0 0 0 0 25.900806
0.83539277 -2.4158733 0.34729996 0 0 0 0 25.905754
0.75103563 -2.3871214 0.35486779 0 0 0 0 25.910702
1.1064565 -2.5105219 0.33651376 0 0 0 0 25.915649
0.99830848 -2.4722846 0.34724754 0 0 0 0 25.920595
0.90795249 -2.4434073 0.35484302 0 0 0 0 25.925541
0.8215695 -2.4156089 0.36141354 0 0 0 0 25.930489
1.196685 -2.5554569 0.34987319 0 0 0 0 25.935436
1.0816547 -2.5110648 0.35867497 0 0 0 0 25.940384
0.98065662 -2.4639318 0.36142969 0 0 0 0 25.945332
0.89320099 -2.4391017 0.3659862 0 0 0 0 25.950277
1.2813122 -2.5812585 0.3623769 0 0 0 0 25.955223
1.1680237 -2.548902 0.37009624 0 0 0 0 25.960171
1.0649364 -2.5057228 0.37183532 0 0 0 0 25.965118
0.96872067 -2.4686906 0.37350535 0 0 0 0 25.970066
1.3786324 -2.6223352 0.37673154 0 0 0 0 25.975012
1.2535585 -2.5787082 0.38057202 0 0 0 0 25.979959
1.1522179 -2.5475705 0.38222882 0 0 0 0 25.984905
1.0462791 -2.4963105 0.38002872 0 0 0 0 25.989853
1.4739261 -2.6581907 0.39158395 0 0 0 0 25.755722
1.3487147 -2.6215098 0.39439413 0 0 0 0 25.760668
1.2356858 -2.5750518 0.39120895 0 0 0 0 25.765615
1.1334236 -2.5398333 0.38890433 0 0 0 0 25.770561
1.581136 -2.7045183 0.40785345 0 0 0 0 25.775509
1.4451257 -2.6575906 0.40777561 0 0 0 0 25.780457
1.328083 -2.6110315 0.40160841 0 0 0 0 25.785404
1.2189144 -2.5706496 0.39636648 0 0 0 0 25.79035
1.673977 -2.7205086 0.42137861 0 0 0 0 25.795298
1.5474524 -2.6977909 0.4211064 0 0 0 0 25.800243
1.4254218 -2.6501169 0.41296786 0 0 0 0 25.805191
1.3093466 -2.6045713 0.40478849 0 0 0 0 25.810139
1.4003838 -2.1670008 0.34209621 0 0 0 0 25.815086
1.6509347 -2.7310138 0.43547705 0 0 0 0 25.820032
1.526788 -2.6882865 0.42531651 0 0 0 0 25.824978
1.4057416 -2.6406205 0.41417193 0 0 0 0 25.829926
1.497733 -2.2061102 0.35845307 0 0 0 0 25.834873
1.3765093 -2.1674688 0.35125184 0 0 0 0 25.839821
1.6321603 -2.7265403 0.43864837 0 0 0 0 25.844769
1.505164 -2.6757326 0.42454922 0 0 0 0 25.849714
1.6039855 -2.2504144 0.37673935 0 0 0 0 25.85466
1.4641149 -2.1933358 0.36273548 0 0 0 0 25.859608
1.3616976 -2.1630747 0.35139585 0 0 0 0 25.864555
1.6144215 -2.7190535 0.43583307 0 0 0 0 25.869503
1.7181755 -2.2978797 0.39497223 0 0 0 0 25.874449
1.568398 -2.2355762 0.37804425 0 0 0 0 25.879396
1.4492996 -2.1889319 0.3618803 0 0 0 0 25.884342
1.3429906 -2.1525679 0.34659472 0 0 0 0 25.88929
1.8451935 -2.3546336 0.41709217 0 0 0 0 25.894238
1.6854664 -2.2891054 0.39722779 0 0 0 0 25.899185
1.5535327 -2.2331557 0.37517816 0 0 0 0 25.904131
1.4344822 -2.1834991 0.35603106 0 0 0 0 25.909079
1.979239 -2.4105325 0.44018811 0 0 0 0 25.914024
1.8065959 -2.3397055 0.41541332 0 0 0 0 25.918972
1.6706153 -2.2856684 0.39236915 0 0 0 0 25.92392
1.5367763 -2.2246714 0.36835748 0 0 0 0 25.928867
2.1222525 -2.4686232 0.46523273 0 0 0 0 25.933813
1.9415706 -2.398608 0.43648779 0 0 0 0 25.938759
1.7848986 -2.3280942 0.40663686 0 0 0 0 25.943707
1.6489655 -2.2710454 0.38060927 0 0 0 0 25.948654
2.2762086 -2.5299406 0.49121097 0 0 0 0 25.953602
2.0865135 -2.459723 0.45950651 0 0 0 0 25.958549
1.9149679 -2.3818698 0.42476615 0 0 0 0 25.963495
1.7720214 -2.3246596 0.39577004 0 0 0 0 25.968441
2.4489975 -2.6006737 0.52204984 0 0 0 0 25.973389
2.2365055 -2.5189393 0.4835169 0 0 0 0 25.978336
2.0608826 -2.4439878 0.44577569 0 0 0 0 25.983284
1.9030625 -2.3794382 0.41189018 0 0 0 0 25.98823
2.650434 -2.6900344 0.5586496 0 0 0 0 25.993177
2.4073005 -2.5886004 0.51037288 0 0 0 0 25.998123
2.2138247 -2.5052488 0.4677617 0 0 0 0 26.003071
2.0392106 -2.4293141 0.42801979 0 0 0 0 26.008018
2.8678229 -2.782733 0.59816134 0 0 0 0 26.012966
2.5939882 -2.6646068 0.54112214 0 0 0 0 26.017912
2.3748109 -2.5646665 0.48972571 0 0 0 0 26.02286
2.1950572 -2.4946127 0.4469696 0 0 0 0 26.027805
3.1071005 -2.8818922 0.64053982 0 0 0 0 26.032753
2.8142822 -2.7613413 0.57759821 0 0 0 0 26.037701
2.5693023 -2.6498187 0.51838607 0 0 0 0 26.042648
2.3570151 -2.555033 0.4669247 0 0 0 0 26.047594
3.3722429 -2.9896173 0.68975508 0 0 0 0 26.05254
3.0505297 -2.8614116 0.61698693 0 0 0 0 26.057487
2.7837038 -2.740391 0.54992819 0 0 0 0 26.062435
2.5446558 -2.6320035 0.4906674 0 0 0 0 26.067383
4.1552434 -3.5178277 0.84310925 0 0 0 0 26.07233
3.3146698 -2.9680703 0.66021556 0 0 0 0 26.077276
3.0209365 -2.8404486 0.58531493 0 0 0 0 26.082222
2.7649415 -2.7276731 0.51915449 0 0 0 0 26.08717
4.2057333 -3.404705 0.84563756 0 0 0 0 26.092117
4.1368752 -3.5360761 0.81416464 0 0 0 0 26.097065
3.2801418 -2.9429643 0.62359321 0 0 0 0 26.102011
3.0012221 -2.8246772 0.55056638 0 0 0 0 26.106958
4.2522993 -3.2874966 0.8482064 0 0 0 0 26.111904
4.2150111 -3.4405403 0.81846231 0 0 0 0 26.116852
4.1397505 -3.5407045 0.77520764 0 0 0 0 26.121799
3.2633922 -2.9282203 0.5848279 0 0 0 0 26.126747
4.3678312 -3.2238123 0.86514318 0 0 0 0 26.131693
4.2537398 -3.3141363 0.8161208 0 0 0 0 26.136641
4.2179103 -3.4431479 0.77651674 0 0 0 0 26.141586
3.5081503 -3.0023499 0.61434919 0 0 0 0 26.146534
4.4538193 -3.1364756 0.87735403 0 0 0 0 26.151482
4.3446493 -3.2298815 0.82429123 0 0 0 0 26.156429
4.2438588 -3.3044407 0.76830488 0 0 0 0 26.161375
4.2277441 -3.4468403 0.72453362 0 0 0 0 26.166321
4.4375782 -3.1446681 0.83345783 0 0 0 0 26.176216
4.3574705 -3.2346539 0.77628678 0 0 0 0 26.181164
4.2606392 -3.3102701 0.71527666 0 0 0 0 26.186111
4.4287152 -3.1319396 0.77765429 0 0 0 0 26.200951
4.3536139 -3.2210088 0.71646696 0 0 0 0 26.205898
4.4278364 -3.1183298 0.71381998 0 0 0 0 26.225685
5.3930979 -2.377425 1.0285107 0 0 0 0 26.07412
5.4069133 -2.3739927 0.95054692 0 0 0 0 26.098854
5.5875955 -2.304687 0.97822487 0 0 0 0 26.118643
5.4271851 -2.3466363 0.86369902 0 0 0 0 26.12359
5.6274157 -2.1732943 0.98190522 0 0 0 0 26.138432
5.5960221 -2.2680349 0.88448584 0 0 0 0 26.143379
5.4634418 -2.3185689 0.76978356 0 0 0 0 26.148325
5.6303935 -2.2328844 0.78462148 0 0 0 0 26.168114
3.7273619 -1.3806067 0.51225412 0 0 0 0 26.187901
3.5803154 -1.2322509 0.48684156 0 0 0 0 26.207689
3.4520013 -1.0973108 0.46426117 0 0 0 0 26.227478
3.4767449 -1.0146695 0.46468729 0 0 0 0 26.247265
3.662745 -0.97446591 0.48614645 0 0 0 0 26.267054
3.582988 -0.86258644 0.47220644 0 0 0 0 26.286842
6.1419587 -0.80967158 1.1933676 0 0 0 0 26.331364
6.0608416 -0.66569144 1.181631 0 0 0 0 26.351152
6.1755848 -0.75333536 1.0696162 0 0 0 0 26.356098
6.0888896 -0.65742296 0.92462575 0 0 0 0 26.380835
4.6025052 -0.53824198 0.59485424 0 0 0 0 26.38578
6.3151479 -0.27955449 0.8160249 0 0 0 0 26.445145
6.3551645 -0.13143462 0.82070696 0 0 0 0 26.438522
6.3752475 0.020407803 0.82356 0 0 0 0 26.458309
6.4033685 0.17407842 0.82838595 0 0 0 0 26.478096
6.4094954 0.32920447 0.83131367 0 0 0 0 26.497885
5.8785892 0.50480294 1.2076756 0 0 0 0 26.502832
5.9825673 0.48252794 1.0750984 0 0 0 0 26.507778
6.0778093 0.47343189 0.94263697 0 0 0 0 26.512726
6.1339431 0.46219566 0.79733306 0 0 0 0 26.517673
5.8621278 0.63135135 1.2125263 0 0 0 0 26.522621
5.9100661 0.61027092 1.0682 0 0 0 0 26.527567
5.9813757 0.60567939 0.93186897 0 0 0 0 26.532515
6.0125418 0.59696054 0.78368819 0 0 0 0 26.53746
5.8607368 0.76056868 1.2223247 0 0 0 0 26.542408
5.8916926 0.74186319 1.072086 0 0 0 0 26.547356
5.896904 0.73566324 0.92403233 0 0 0 0 26.552303
5.968308 0.73710626 0.7817362 0 0 0 0 26.557249
5.8994832 0.89493883 1.2399769 0 0 0 0 26.562195
5.9104533 0.87867308 1.0828389 0 0 0 0 26.567142
5.9328251 0.88012516 0.93575525 0 0 0 0 26.57209
5.9501567 0.88070595 0.78368825 0 0 0 0 26.577038
5.936285 1.0323453 1.2586529 0 0 0 0 26.581985
5.9835253 1.0283347 1.1054293 0 0 0 0 26.586931
6.0009117 1.0319209 0.95237935 0 0 0 0 26.591877
6.0213685 1.0394576 0.79733902 0 0 0 0 26.596825
6.0173516 1.1808172 1.2871997 0 0 0 0 26.601772
6.0416017 1.1793116 1.12609 0 0 0 0 26.60672
6.0600939 1.1888937 0.97006977 0 0 0 0 26.611666
6.0856514 1.2023525 0.81104147 0 0 0 0 26.616613
6.0472517 1.3243744 1.3049369 0 0 0 0 26.621559
6.0735912 1.3278391 1.1418468 0 0 0 0 26.626507
6.1012163 1.3442461 0.98482645 0 0 0 0 26.631454
6.1469684 1.3673054 0.82576632 0 0 0 0 26.636402
6.1093731 1.4772444 1.3315868 0 0 0 0 26.641348
6.1337667 1.4847826 1.1625283 0 0 0 0 26.646296
6.1705828 1.5110146 1.0045248 0 0 0 0 26.651241
6.2114162 1.5391957 0.84151524 0 0 0 0 26.656189
6.1534548 1.6294932 1.3553085 0 0 0 0 26.661137
6.1991053 1.6496065 1.1872309 0 0 0 0 26.666084
6.2359982 1.6808666 1.0242558 0 0 0 0 26.67103
6.2759714 1.7170893 0.85729587 0 0 0 0 26.675976
6.220737 1.791265 1.3829829 0 0 0 0 26.680923
6.2574663 1.8165846 1.2099735 0 0 0 0 26.685871
6.2964869 1.8548155 1.0450289 0 0 0 0 26.690819
6.3466411 1.900856 0.8750813 0 0 0 0 26.695766
6.2790737 1.9562131 1.4117118 0 0 0 0 26.700712
6.3229456 1.9894104 1.2357166 0 0 0 0 26.705658
6.4064469 2.0507448 1.0747137 0 0 0 0 26.710606
6.4657822 2.1066239 0.90178269 0 0 0 0 26.715553
6.3566546 2.1327598 1.4454224 0 0 0 0 26.720501
6.4157495 2.1776705 1.2674288 0 0 0 0 26.725447
6.4600902 2.2338402 1.0955635 0 0 0 0 26.730394
6.3865623 2.2524607 0.89998722 0 0 0 0 26.73534
6.3778868 2.2954867 1.4672923 0 0 0 0 26.740288
6.4694047 2.3607409 1.2932763 0 0 0 0 26.745235
6.5622864 2.4429321 1.1263517 0 0 0 0 26.750183
6.5745425 2.4988239 0.93862104 0 0 0 0 26.755129
6.4405169 2.4763482 1.4990864 0 0 0 0 26.760077
6.4363823 2.5146089 1.3023241 0 0 0 0 26.765022
6.4870191 2.5866745 1.1275215 0 0 0 0 26.76997
6.6941667 2.7305896 0.96846098 0 0 0 0 26.774918
6.5719252 2.6927693 1.5487875 0 0 0 0 26.779865
7.5050006 3.1989536 1.3226995 0 0 0 0 26.789757
7.5387678 3.2875981 1.1060621 0 0 0 0 26.794704
7.6224632 3.3170087 1.819896 0 0 0 0 26.799652
7.5716949 3.4367976 1.3527956 0 0 0 0 26.809547
7.6601849 3.5613604 1.1391287 0 0 0 0 26.814493
7.6769319 3.7008469 1.3918731 0 0 0 0 26.829334
5.4573836 2.6983144 0.82261044 0 0 0 0 26.834282
5.864325 2.9961462 1.0775907 0 0 0 0 26.849121
7.8764548 4.1334095 1.2095026 0 0 0 0 26.854069
7.3246131 3.9624474 1.3698932 0 0 0 0 26.86891
7.2508893 4.0322938 1.1326008 0 0 0 0 26.873857
7.2621431 4.1489038 1.3812299 0 0 0 0 26.888699
7.213892 4.2422366 1.146961 0 0 0 0 26.893646
8.3758745 4.9217629 1.8772706 0 0 0 0 27.680836
8.1192856 4.9080772 1.5732282 0 0 0 0 27.685783
5.8280821 3.6287501 0.94468814 0 0 0 0 27.690729
8.2668409 4.9755406 2.153007 0 0 0 0 27.695675
8.221262 5.2353239 1.6225539 0 0 0 0 27.70557
5.832643 3.827816 0.96372843 0 0 0 0 27.710518
5.3535395 3.5850189 1.0743827 0 0 0 0 27.725357
4.7629848 3.2911007 0.80220389 0 0 0 0 27.730305
6.3879709 4.4954991 1.3080283 0 0 0 0 27.745146
4.6748366 3.3998709 0.80513507 0 0 0 0 27.750093
5.136024 3.794385 1.0713655 0 0 0 0 27.764935
4.5775127 3.499809 0.80605358 0 0 0 0 27.769882
5.1570454 3.8681738 1.2626743 0 0 0 0 27.779776
8.8643389 6.8808231 1.8956281 0 0 0 0 27.784721
4.5360436 3.6446879 0.81798106 0 0 0 0 27.789669
8.8145924 6.7077165 2.501931 0 0 0 0 27.794617
9.8582945 7.7514081 2.4692144 0 0 0 0 27.799564
4.9408407 4.0212727 1.0783381 0 0 0 0 27.80451
4.4641595 3.7681265 0.82591474 0 0 0 0 27.809456
9.8491821 7.8368931 2.8496983 0 0 0 0 27.814404
4.8935184 4.0263877 1.2475573 0 0 0 0 27.819351
9.2518578 7.8977909 2.0713792 0 0 0 0 27.824299
4.5855122 4.0629444 0.86996895 0 0 0 0 27.829247
9.8952942 8.2331324 2.9205716 0 0 0 0 27.834192
4.6935349 4.0422816 1.2224365 0 0 0 0 27.839138
4.5898814 4.1040802 1.0491676 0 0 0 0 27.844086
4.7132936 4.3816338 0.91911751 0 0 0 0 27.849033
8.9274178 7.7579017 2.6869354 0 0 0 0 27.853981
4.5697069 4.1177092 1.2173202 0 0 0 0 27.858927
4.8367171 4.5294886 1.1333957 0 0 0 0 27.863874
4.6825371 4.567286 0.93920028 0 0 0 0 27.86882
8.5774565 7.7897334 2.6364777 0 0 0 0 27.873768
4.5935044 4.3303156 1.252327 0 0 0 0 27.878716
4.6714873 4.5846686 1.1243331 0 0 0 0 27.883663
7.432313 7.6049509 1.5380349 0 0 0 0 27.888609
8.6509218 8.2053995 2.7173259 0 0 0 0 27.893557
8.8410873 8.7224226 2.47524 0 0 0 0 27.898502
7.4921947 7.7044778 1.8563036 0 0 0 0 27.90345
7.3228054 7.8670735 1.5648062 0 0 0 0 27.908398
8.7799606 8.7049694 2.8233812 0 0 0 0 27.913345
7.544754 7.7881808 2.1665182 0 0 0 0 27.918291
7.3089967 7.8769927 1.8639002 0 0 0 0 27.923237
7.3930917 8.3338385 1.6299171 0 0 0 0 27.928185
9.0174913 9.3374529 2.9676857 0 0 0 0 27.933132
7.3470969 7.9369841 2.167047 0 0 0 0 27.93808
7.2912264 8.2323761 1.9147815 0 0 0 0 27.943027
6.4874511 7.6777997 1.479086 0 0 0 0 27.947973
9.1985598 9.9490004 3.1020963 0 0 0 0 27.952919
7.6725111 8.6718168 2.3255255 0 0 0 0 27.957867
6.4229026 7.5987897 1.7379193 0 0 0 0 27.962814
6.3602304 7.9022079 1.501718 0 0 0 0 27.967762
10.954233 12.382236 3.7906621 0 0 0 0 27.972708
11.815958 13.975917 3.6864424 0 0 0 0 27.977655
7.2649255 9.0139112 2.0318503 0 0 0 0 27.982603
6.934072 9.0495176 1.6973237 0 0 0 0 27.987549
11.780537 13.91533 4.184237 0 0 0 0 27.992496
12.608904 15.612794 4.0516682 0 0 0 0 27.997442
7.3087087 9.5110769 2.1131954 0 0 0 0 28.00239
7.2235794 9.9131012 1.8385777 0 0 0 0 28.007338
12.571051 15.521072 4.5883055 0 0 0 0 28.012283
12.111905 15.713201 4.01407 0 0 0 0 28.017231
7.3982363 10.104357 2.214844 0 0 0 0 28.022179
12.464814 17.990185 3.3042886 0 0 0 0 28.027124
12.112516 15.6478 4.5506883 0 0 0 0 28.032072
11.368342 15.461269 3.8926299 0 0 0 0 28.03702
12.480355 17.914318 3.8817809 0 0 0 0 28.041965
11.970738 18.195311 3.3081858 0 0 0 0 28.046913
11.259724 15.228092 4.3598185 0 0 0 0 28.051861
12.48213 17.803892 4.4201512 0 0 0 0 28.056807
11.992792 18.094376 3.8745215 0 0 0 0 28.061754
11.512607 18.451715 3.3251944 0 0 0 0 28.066702
11.629073 16.467827 4.642622 0 0 0 0 28.071648
12.014721 17.993614 4.4088593 0 0 0 0 28.076595
11.516354 18.281187 3.8712442 0 0 0 0 28.081543
11.075897 18.731693 3.3482289 0 0 0 0 28.086489
12.055681 17.888391 4.9701028 0 0 0 0 28.091436
11.552132 18.174229 4.395494 0 0 0 0 28.096384
11.123451 18.606382 3.8983355 0 0 0 0 28.10133
10.576119 18.898813 3.3529267 0 0 0 0 28.106277
11.601822 18.055899 4.9466343 0 0 0 0 28.111223
11.168809 18.477282 4.4154325 0 0 0 0 28.116171
10.646821 18.783119 3.8979893 0 0 0 0 28.121119
10.006721 18.922213 3.3331583 0 0 0 0 28.126064
11.185102 18.284636 4.9433231 0 0 0 0 28.131012
10.717435 18.6696 4.4110646 0 0 0 0 28.13596
10.10587 18.833048 3.8732431 0 0 0 0 28.140905
8.6079378 17.269154 3.0251279 0 0 0 0 28.145853
10.804738 18.544693 4.9513569 0 0 0 0 27.907387
10.220031 18.761103 4.3867583 0 0 0 0 27.912334
9.6459522 19.000029 3.8782334 0 0 0 0 27.917282
8.1657124 17.397417 3.0357678 0 0 0 0 27.92223
10.356218 18.727144 4.9399691 0 0 0 0 27.927177
9.7219362 18.857437 4.3661165 0 0 0 0 27.932123
9.1754284 19.178717 3.8859012 0 0 0 0 27.937069
8.5729513 19.452105 3.3786573 0 0 0 0 27.942017
9.8345757 18.744049 4.8860083 0 0 0 0 27.946964
9.2672138 19.026886 4.3646722 0 0 0 0 27.951912
8.6971464 19.316536 3.8873808 0 0 0 0 27.95686
8.0954609 19.630791 3.3993375 0 0 0 0 27.961805
9.3915234 18.898363 4.8694382 0 0 0 0 27.966753
8.8195353 19.199175 4.3642073 0 0 0 0 27.971699
8.24086 19.50787 3.9030411 0 0 0 0 27.976646
7.6229415 19.808357 3.4199841 0 0 0 0 27.981594
8.9464798 19.052656 4.8578691 0 0 0 0 27.98654
8.3842764 19.394184 4.3708014 0 0 0 0 27.991488
7.7905955 19.701071 3.9186785 0 0 0 0 27.996433
7.164042 20.019611 3.4497414 0 0 0 0 28.001381
8.5168362 19.228624 4.8523421 0 0 0 0 28.006329
7.9199934 19.533707 4.3692179 0 0 0 0 28.011274
7.3203783 19.842621 3.9271212 0 0 0 0 28.016222
6.6737704 20.156433 3.4682314 0 0 0 0 28.02117
8.0819244 19.390667 4.8437567 0 0 0 0 28.026115
7.4721603 19.697884 4.3736873 0 0 0 0 28.031063
6.8556609 20.011 3.9446716 0 0 0 0 28.036011
6.2001514 20.328896 3.4948306 0 0 0 0 28.040956
7.6441131 19.557703 4.8412008 0 0 0 0 28.045904
7.0351167 19.904787 4.3903246 0 0 0 0 28.050852
6.3973227 20.200211 3.9682956 0 0 0 0 28.055798
5.7205019 20.499413 3.5254352 0 0 0 0 28.060745
7.2063165 19.725698 4.8406415 0 0 0 0 28.065693
6.5746732 20.036137 4.3916602 0 0 0 0 28.070639
5.9323506 20.355537 3.9847639 0 0 0 0 28.075586
5.2463222 20.69577 3.5631416 0 0 0 0 28.080534
6.7641263 19.872761 4.8359852 0 0 0 0 28.08548
6.1219487 20.206266 4.4051552 0 0 0 0 28.090427
5.4686184 20.523785 4.0072851 0 0 0 0 28.095375
4.7666001 20.86322 3.5947137 0 0 0 0 28.100321
6.3303504 20.042618 4.8374038 0 0 0 0 28.105268
5.6732688 20.37929 4.4196405 0 0 0 0 28.110214
5.0010738 20.70204 4.0358639 0 0 0 0 28.115162
4.2870817 21.041607 3.6323323 0 0 0 0 28.12011
5.8885627 20.211569 4.8428411 0 0 0 0 28.125055
5.215426 20.543438 4.4351091 0 0 0 0 28.130003
4.531136 20.859324 4.0603375 0 0 0 0 28.134951
3.7963526 21.208149 3.671926 0 0 0 0 28.139896
5.4497499 20.379431 4.8492541 0 0 0 0 28.144844
4.7606869 20.71349 4.4535875 0 0 0 0 28.149792
4.063684 21.043503 4.091929 0 0 0 0 28.154737
3.3097849 21.384584 3.7115448 0 0 0 0 28.159685
5.000772 20.538441 4.8556528 0 0 0 0 28.164633
4.3029976 20.886553 4.4740844 0 0 0 0 28.169579
3.5860724 21.218815 4.1255074 0 0 0 0 28.174526
2.818264 21.563046 3.7571847 0 0 0 0 28.179474
4.5530801 20.713375 4.8671203 0 0 0 0 28.18442
3.8362055 21.053726 4.4975786 0 0 0 0 28.189367
3.1023023 21.385193 4.1610556 0 0 0 0 28.194315
2.3128042 21.744694 3.8078864 0 0 0 0 28.199261
4.1021819 20.87734 4.8775358 0 0 0 0 28.204208
3.3653684 21.218941 4.5210705 0 0 0 0 28.209156
2.6218045 21.567474 4.1986628 0 0 0 0 28.214102
1.8103142 21.925255 3.858562 0 0 0 0 28.219049
3.6493545 21.045294 4.8909717 0 0 0 0 28.223995
2.8956525 21.39109 4.5475845 0 0 0 0 28.228943
2.1280799 21.73694 4.2382488 0 0 0 0 28.233891
1.3040826 22.120836 3.9123185 0 0 0 0 28.238836
3.1875596 21.215363 4.9064441 0 0 0 0 28.243784
2.4198475 21.558304 4.5760894 0 0 0 0 28.248732
1.6344968 21.914354 4.2818651 0 0 0 0 28.253677
0.78336215 22.288628 3.9669828 0 0 0 0 28.258625
2.7248547 21.390398 4.9259372 0 0 0 0 28.263573
1.9352925 21.739611 4.6096897 0 0 0 0 28.268518
1.1299835 22.095909 4.328536 0 0 0 0 28.273466
0.26300976 22.477356 4.0267415 0 0 0 0 28.278414
2.2531302 21.564548 4.9474521 0 0 0 0 28.28336
1.4486779 21.917919 4.6442747 0 0 0 0 28.288307
0.62328303 22.267473 4.374156 0 0 0 0 28.293255
-0.27236825 22.664284 4.0915403 0 0 0 0 28.298201
1.7797047 21.755674 4.97405 0 0 0 0 28.303148
0.950158 22.101377 4.6839228 0 0 0 0 28.308096
0.10598344 22.461143 4.4289184 0 0 0 0 28.313042
-0.81641769 22.870308 4.1604581 0 0 0 0 28.317989
1.2940249 21.932981 4.9996176 0 0 0 0 28.322937
0.44362134 22.283924 4.7265882 0 0 0 0 28.327883
-0.42226121 22.657949 4.48773 0 0 0 0 28.33283
-1.3656436 23.066374 4.2313366 0 0 0 0 28.337778
0.80140108 22.113356 5.0292182 0 0 0 0 28.342724
-0.063952416 22.465464 4.7672439 0 0 0 0 28.347672
-0.95378983 22.839794 4.54247 0 0 0 0 28.352617
-1.9256958 23.272572 4.3062973 0 0 0 0 28.357565
0.30551556 22.279766 5.0557537 0 0 0 0 28.362513
-0.58733523 22.657202 4.8160014 0 0 0 0 28.367458
-1.4968487 23.047756 4.6073742 0 0 0 0 28.372406
-2.5017445 23.478987 4.3853102 0 0 0 0 28.377354
-0.19034487 22.46756 5.0930147 0 0 0 0 28.129847
-1.1051521 22.837681 4.8664088 0 0 0 0 28.134792
-2.0410864 23.249973 4.6770968 0 0 0 0 28.13974
-3.0730028 23.669016 4.4681883 0 0 0 0 28.144688
-0.7038002 22.654381 5.1277595 0 0 0 0 28.149633
-1.6433201 23.037806 4.9193087 0 0 0 0 28.154581
-2.6120503 23.458534 4.7491565 0 0 0 0 28.159529
-3.6726155 23.894953 4.5574374 0 0 0 0 28.164474
-1.2329015 22.860395 5.1716528 0 0 0 0 28.169422
-2.194303 23.248089 4.9782996 0 0 0 0 28.17437
-3.1865158 23.640142 4.8160839 0 0 0 0 28.179316
-4.2884297 24.109104 4.6516795 0 0 0 0 28.184263
-1.766722 23.027493 5.2073588 0 0 0 0 28.189211
-2.7639456 23.421663 5.0351677 0 0 0 0 28.194157
-3.7834382 23.85104 4.8962369 0 0 0 0 28.199104
-4.9220161 24.336504 4.7500463 0 0 0 0 28.204052
-2.3255086 23.250898 5.2624369 0 0 0 0 28.208998
-3.3398387 23.63727 5.1012626 0 0 0 0 28.213945
-4.3970861 24.077158 4.983521 0 0 0 0 28.218893
-5.564816 24.552011 4.850378 0 0 0 0 28.223839
-2.8856823 23.454327 5.3104091 0 0 0 0 28.228786
-3.9365652 23.862169 5.1734748 0 0 0 0 28.233732
-5.019887 24.295391 5.0707893 0 0 0 0 28.23868
-6.230442 24.776834 4.9588342 0 0 0 0 28.243628
-3.4597797 23.661932 5.3634462 0 0 0 0 28.248573
-4.5434051 24.081202 5.2466855 0 0 0 0 28.253521
-5.6664176 24.528965 5.164216 0 0 0 0 28.258469
-6.5118656 23.563219 4.7765841 0 0 0 0 28.263414
-4.051569 23.886772 5.4236288 0 0 0 0 28.268362
-5.1643186 24.296425 5.3219213 0 0 0 0 28.27331
-6.3212647 24.744627 5.2595739 0 0 0 0 28.278255
-6.9138498 22.928164 4.7117138 0 0 0 0 28.283203
-4.6605906 24.098864 5.4848027 0 0 0 0 28.288151
-5.8040843 24.519903 5.4032602 0 0 0 0 28.293097
-6.5994501 23.546053 5.0544038 0 0 0 0 28.298044
-7.2807016 22.24151 4.6384578 0 0 0 0 28.302992
-5.2870831 24.341185 5.553185 0 0 0 0 28.307938
-6.4564948 24.707571 5.4804587 0 0 0 0 28.312885
-6.966238 22.812561 4.9479127 0 0 0 0 28.317833
-5.9291959 24.548737 5.619442 0 0 0 0 28.327726
-6.7049975 23.436655 5.2348304 0 0 0 0 28.332674
-7.3544807 22.218275 4.8732076 0 0 0 0 28.33762
-6.5796156 24.739391 5.6846371 0 0 0 0 28.347515
-7.0612683 22.677065 5.1061788 0 0 0 0 28.352461
-6.7863312 23.345989 5.3852582 0 0 0 0 28.367302
-7.4604058 22.146978 5.0258403 0 0 0 0 28.37225
-7.1565948 22.644655 5.249958 0 0 0 0 28.387091
-9.1309633 19.784353 4.4692035 0 0 0 0 28.401932
-7.5508857 22.107544 5.1525707 0 0 0 0 28.406878
-9.171978 19.700899 4.6105528 0 0 0 0 28.43656
-9.2570343 16.853405 4.0266004 0 0 0 0 28.461296
-9.2669516 19.634665 4.6881928 0 0 0 0 28.471189
-9.4337053 16.267317 3.9661999 0 0 0 0 28.481083
-9.3235493 16.857561 4.1305242 0 0 0 0 28.495924
-9.664958 15.817019 3.9336812 0 0 0 0 28.500872
-9.4653082 16.21101 4.0407028 0 0 0 0 28.515713
-9.8267097 15.279629 3.8804791 0 0 0 0 28.520658
-9.3930674 16.760122 4.1569614 0 0 0 0 28.530554
-9.6967134 15.752758 3.9961514 0 0 0 0 28.5355
-10.093257 14.921781 3.8745587 0 0 0 0 28.540447
-9.6915159 18.069693 4.4523253 0 0 0 0 28.545395
-9.5317345 16.119572 4.0541673 0 0 0 0 28.550341
-9.8710756 15.238609 3.935118 0 0 0 0 28.555288
-10.4259 14.6709 3.8964136 0 0 0 0 28.560236
-9.4184732 16.619156 4.1370206 0 0 0 0 28.565182
-9.7475929 15.636124 3.9924402 0 0 0 0 28.570129
-10.121955 14.863568 3.9110582 0 0 0 0 28.575077
-9.5805054 16.015003 4.0315022 0 0 0 0 28.58497
-9.9365683 15.144228 3.9275777 0 0 0 0 28.589916
-10.454673 14.609723 3.9219005 0 0 0 0 28.594864
-9.7685843 15.509501 3.9528599 0 0 0 0 28.367388
-10.185537 14.77169 3.8947589 0 0 0 0 28.372335
-11.400185 13.915662 3.9730961 0 0 0 0 28.382229
-10.0074 15.094493 3.8955321 0 0 0 0 28.387177
-10.524183 14.529098 3.896673 0 0 0 0 28.392122
-10.260651 14.708662 3.8494091 0 0 0 0 28.406963
-11.282943 13.961002 3.8250844 0 0 0 0 28.466328
-11.785829 10.434862 3.626483 0 0 0 0 28.520744
-11.947888 10.099229 3.6262641 0 0 0 0 28.540533
-12.073271 9.7450066 3.6168234 0 0 0 0 28.560322
-12.6738 10.592451 3.7400818 0 0 0 0 28.575163
-12.209419 9.4019299 3.6134825 0 0 0 0 28.580109
-12.089987 9.6401777 3.5121036 0 0 0 0 28.59495
-12.304908 9.0391989 3.6009009 0 0 0 0 28.599897
-12.226213 9.2931376 3.499748 0 0 0 0 28.614738
-12.449601 8.7192259 3.6037147 0 0 0 0 28.619684
-12.322762 8.9274673 3.4771621 0 0 0 0 28.634525
-12.61502 8.41255 3.6156733 0 0 0 0 28.639473
-12.283769 9.1461887 3.3509784 0 0 0 0 28.649366
-12.49824 8.6189976 3.4811485 0 0 0 0 28.654314
-12.756575 8.0974865 3.6225076 0 0 0 0 28.659262
-12.375456 8.7724657 3.3203413 0 0 0 0 28.669155
-12.640965 8.2959995 3.4779487 0 0 0 0 28.674103
-12.861526 7.7588315 3.6220984 0 0 0 0 28.679049
-12.260464 8.941123 3.1486349 0 0 0 0 28.683996
-12.540157 8.4518595 3.3122337 0 0 0 0 28.688944
-12.726284 7.9391007 3.4593801 0 0 0 0 28.69389
-12.99106 7.4425511 3.6288927 0 0 0 0 28.698837
-12.423366 8.6105318 3.1304727 0 0 0 0 28.703785
-12.686952 8.1249571 3.3010347 0 0 0 0 28.708731
-12.882734 7.6282792 3.464299 0 0 0 0 28.713678
-12.564415 8.2705832 3.1081905 0 0 0 0 28.723572
-12.851528 7.8083053 3.2979543 0 0 0 0 28.728519
-13.042056 7.3234878 3.471261 0 0 0 0 28.733467
-0.43609333 0.21323487 0.11219943 0 0 0 0 28.738413
-12.630194 7.8884435 3.0694366 0 0 0 0 28.743361
-12.920962 7.4431634 3.2712996 0 0 0 0 28.748306
-12.906626 7.6355581 3.0860739 0 0 0 0 28.763147
-0.43519565 0.20825458 0.10518436 0 0 0 0 28.773043
-0.43945488 0.19129476 0.11111972 0 0 0 0 28.777988
-0.44404003 0.21842226 0.10127045 0 0 0 0 28.787884
-0.43558908 0.18426487 0.10408458 0 0 0 0 28.812618
-0.43983057 0.16830473 0.110025 0 0 0 0 28.817566
-0.44219536 0.21042997 0.093237482 0 0 0 0 28.822512
-0.4414871 0.19138761 0.099145345 0 0 0 0 28.827459
-0.44492143 0.16441105 0.1050135 0 0 0 0 28.788532
-0.41635907 0.1379395 0.10378512 0 0 0 0 28.79348
-0.43767545 0.18236504 0.090077415 0 0 0 0 28.798426
-0.45182219 0.17155522 0.099078171 0 0 0 0 28.803373
-0.38269183 0.12046024 0.087593995 0 0 0 0 28.828108
-0.37194532 0.10426731 0.090479873 0 0 0 0 28.833055
-0.4529742 0.16361193 0.091056913 0 0 0 0 28.838001
-0.47207934 0.1548738 0.10208545 0 0 0 0 28.842949
-0.37105325 0.098285414 0.084462769 0 0 0 0 28.867683
-0.37222728 0.086275622 0.090411767 0 0 0 0 28.872631
-0.4275223 0.13122819 0.082825996 0 0 0 0 28.877579
-0.36706039 0.099259906 0.076459423 0 0 0 0 28.882524
-0.36835411 0.079249419 0.083379462 0 0 0 0 28.907261
-0.3605521 0.066101991 0.087291323 0 0 0 0 28.912207
-0.36420748 0.091255069 0.068425961 0 0 0 0 28.917154
-0.36834028 0.081284598 0.076395512 0 0 0 0 28.922102
-0.36364004 0.061185695 0.081294388 0 0 0 0 28.946836
-0.36079666 0.050110638 0.087234087 0 0 0 0 28.951782
-0.36748549 0.073312327 0.068369754 0 0 0 0 28.95673
-0.36762175 0.063281283 0.075325012 0 0 0 0 28.961678
-0.3589201 0.043117762 0.080210075 0 0 0 0 28.986412
-0.36303535 0.034147017 0.088184655 0 0 0 0 28.99136
-0.35878974 0.054188609 0.065266199 0 0 0 0 28.996305
-0.36690083 0.045278005 0.074255198 0 0 0 0 29.001253
-0.36016101 0.02714253 0.080157444 0 0 0 0 29.025988
-0.36427215 0.018166959 0.089132152 0 0 0 0 29.030935
-0.35906345 0.0361972 0.065200545 0 0 0 0 29.035883
-0.36316186 0.028226137 0.073179923 0 0 0 0 29.040829
-0.35840032 0.011118758 0.080094613 0 0 0 0 29.065565
-0.36550695 0.0021867738 0.090080217 0 0 0 0 29.070511
-0.36032212 0.019226406 0.064143777 0 0 0 0 29.075459
-0.36341661 0.011234432 0.0731197 0 0 0 0 29.080404
-0.36462948 -0.0047856332 0.082060985 0 0 0 0 29.105141
-0.36572379 -0.012809735 0.09102989 0 0 0 0 29.110086
-0.36159119 0.0012508805 0.064082988 0 0 0 0 29.115034
-0.36564937 -0.0047300402 0.074071832 0 0 0 0 29.119982
-0.35687253 -0.020896135 0.079977982 0 0 0 0 29.144716
-0.36094633 -0.027876901 0.089962326 0 0 0 0 29.149664
-0.35982633 -0.014773043 0.064021327 0 0 0 0 29.15461
-0.35490829 -0.021888375 0.071973681 0 0 0 0 29.159557
-0.36309415 -0.036805797 0.082945392 0 0 0 0 29.184292
-0.37319171 -0.045700099 0.094941974 0 0 0 0 29.18924
-0.35707551 -0.03181253 0.063952193 0 0 0 0 29.194185
-0.36214867 -0.038777515 0.073940217 0 0 0 0 29.199133
-0.36433735 -0.053786144 0.083891027 0 0 0 0 29.223867
-0.38443846 -0.063535936 0.09891846 0 0 0 0 29.228815
-0.36934185 -0.050627388 0.066927634 0 0 0 0 29.233763
-0.37541097 -0.057581369 0.077919267 0 0 0 0 29.238708
-0.37636432 -0.072557814 0.088051163 0 0 0 0 29.625616
-0.37843069 -0.079574488 0.099029735 0 0 0 0 29.630562
-0.37637579 -0.069472894 0.069069594 0 0 0 0 29.635509
-0.38044184 -0.076459184 0.080055006 0 0 0 0 29.640455
-0.37460881 -0.090585016 0.088986084 0 0 0 0 29.665192
-0.38166746 -0.097534642 0.10198179 0 0 0 0 29.670137
-0.37062711 -0.08755219 0.067990988 0 0 0 0 29.675085
-0.3746894 -0.094542898 0.079976521 0 0 0 0 29.680033
-0.37985867 -0.10951493 0.091941096 0 0 0 0 29.704767
-0.38793188 -0.11744958 0.10493592 0 0 0 0 29.709715
-0.38393274 -0.11036555 0.0719558 0 0 0 0 29.714661
-0.38899109 -0.11734569 0.084944822 0 0 0 0 29.719608
-0.37609881 -0.1275721 0.092870615 0 0 0 0 29.744343
-0.37711883 -0.13160394 0.10385921 0 0 0 0 29.74929
-0.37114993 -0.12654996 0.070863679 0 0 0 0 29.754236
-0.37318146 -0.13157101 0.082851343 0 0 0 0 29.759184
-0.37633291 -0.14557323 0.09481436 0 0 0 0 29.783918
-0.4054994 -0.16122366 0.11484553 0 0 0 0 29.788866
-0.405581 -0.15907134 0.07985732 0 0 0 0 29.793814
-0.41968727 -0.16992983 0.095859587 0 0 0 0 29.798759
-0.42184502 -0.18495719 0.10981525 0 0 0 0 29.823496
-0.42789531 -0.19193155 0.12480789 0 0 0 0 29.828442
-0.41393813 -0.18596302 0.083789982 0 0 0 0 29.833389
-0.41797698 -0.19196296 0.097780243 0 0 0 0 29.838337
-0.40807 -0.20215589 0.1087177 0 0 0 0 29.863071
-0.41410503 -0.20813036 0.12371472 0 0 0 0 29.868019
-0.44446597 -0.22554943 0.092741415 0 0 0 0 29.872965
-0.44748631 -0.23056884 0.1077327 0 0 0 0 29.877913
-0.45571512 -0.25152472 0.1256838 0 0 0 0 29.902647
-0.4637396 -0.25748298 0.14368752 0 0 0 0 29.907595
-0.45088658 -0.25747752 0.097647771 0 0 0 0 29.91254
-0.45791429 -0.26344633 0.1146482 0 0 0 0 29.917488
-4.9664598 -2.986474 1.3327047 0 0 0 0 29.937277
-4.9923649 -3.0198474 1.5026513 0 0 0 0 29.942223
-5.0263515 -3.0611489 1.6835907 0 0 0 0 29.94717
-4.8046269 -3.0301702 1.1459972 0 0 0 0 29.952118
-4.8214183 -3.055671 1.3149482 0 0 0 0 29.957064
-4.8391967 -3.0791354 1.4789112 0 0 0 0 29.962011
-4.8590193 -3.1076078 1.6518596 0 0 0 0 29.966959
-4.6414285 -3.0886168 1.12623 0 0 0 0 29.971905
-4.6672626 -3.1169832 1.2951988 0 0 0 0 29.976852
-4.6920137 -3.138339 1.4581938 0 0 0 0 29.9818
-4.7087464 -3.159837 1.6271623 0 0 0 0 29.986746
-4.4872155 -3.1469347 1.1094956 0 0 0 0 29.991693
-4.5149999 -3.1712575 1.2754883 0 0 0 0 29.996639
-4.5447536 -3.192534 1.4375002 0 0 0 0 30.001587
-4.5745397 -3.2178438 1.6074952 0 0 0 0 30.006535
-4.330914 -3.1992686 1.0917828 0 0 0 0 30.01148
-4.3677006 -3.223454 1.2568055 0 0 0 0 30.016428
-4.3984199 -3.2417018 1.4158337 0 0 0 0 30.021376
-4.4221063 -3.2590771 1.5808429 0 0 0 0 30.026321
-4.1775179 -3.2455542 1.0751078 0 0 0 0 30.031269
-4.2294421 -3.2795267 1.2421383 0 0 0 0 30.036217
-4.2570615 -3.2897966 1.3961904 0 0 0 0 30.041162
-4.280673 -3.3011537 1.5572251 0 0 0 0 30.04611
-4.0382209 -3.2996426 1.0624479 0 0 0 0 30.051058
-4.0799613 -3.319736 1.2235044 0 0 0 0 30.056004
-4.1136122 -3.3319123 1.3765682 0 0 0 0 30.060951
-4.157372 -3.3539889 1.5406228 0 0 0 0 30.065899
-3.9038985 -3.3526585 1.0518113 0 0 0 0 30.070845
-3.9395394 -3.3648174 1.2078818 0 0 0 0 30.075792
-3.9872761 -3.3827887 1.3609667 0 0 0 0 30.08074
-4.0279732 -3.3998954 1.5220326 0 0 0 0 30.085686
-3.7719314 -3.3994246 1.0389436 0 0 0 0 29.841681
-3.8145945 -3.4134817 1.1950305 0 0 0 0 29.846626
-3.8622885 -3.428443 1.3461298 0 0 0 0 29.851574
-3.9009047 -3.439564 1.503216 0 0 0 0 29.856522
-3.6415465 -3.447422 1.0293304 0 0 0 0 29.861467
-3.6871746 -3.4584208 1.1824403 0 0 0 0 29.866415
-3.730793 -3.4674239 1.3295522 0 0 0 0 29.871363
-3.7764268 -3.4794357 1.4856575 0 0 0 0 29.876308
-3.5161543 -3.4953413 1.0207363 0 0 0 0 29.881256
-3.5587072 -3.5003672 1.1698619 0 0 0 0 29.886204
-3.6103547 -3.5112507 1.3169919 0 0 0 0 29.89115
-3.6589947 -3.5232084 1.4711076 0 0 0 0 29.896097
-3.3896737 -3.5372641 1.0111668 0 0 0 0 29.901045
-3.440285 -3.5461705 1.160302 0 0 0 0 29.905991
-3.4898987 -3.55407 1.3044384 0 0 0 0 29.910938
-3.5425155 -3.5639598 1.4565758 0 0 0 0 29.915886
-3.2702682 -3.5850878 1.0045973 0 0 0 0 29.920832
-3.3197899 -3.5869918 1.1497592 0 0 0 0 29.925779
-3.3744061 -3.5948129 1.292912 0 0 0 0 29.930727
-3.4290557 -3.6066682 1.4440477 0 0 0 0 29.935673
-3.1568675 -3.6338241 1.0000459 0 0 0 0 29.94062
-3.2022998 -3.6287701 1.141224 0 0 0 0 29.945568
-3.2619338 -3.6375129 1.2833893 0 0 0 0 29.950514
-3.3165231 -3.644351 1.4305463 0 0 0 0 29.955462
-3.0342712 -3.6686702 0.99152607 0 0 0 0 29.960407
-3.0969245 -3.6793811 1.1366929 0 0 0 0 29.965355
-3.1504436 -3.6791914 1.2738762 0 0 0 0 29.970303
-3.2100503 -3.6869512 1.4200455 0 0 0 0 29.975248
-2.9238577 -3.7173567 0.98898894 0 0 0 0 29.980196
-2.9844069 -3.7200804 1.1301829 0 0 0 0 29.985144
-3.040921 -3.7188334 1.2643803 0 0 0 0 29.990089
-3.1035459 -3.727545 1.4095553 0 0 0 0 29.995037
-2.8133709 -3.7610323 0.98547506 0 0 0 0 29.999985
-2.8728719 -3.7597582 1.1236825 0 0 0 0 30.00493
-2.9374702 -3.7643979 1.258881 0 0 0 0 30.009878
-2.9969947 -3.7651327 1.3990797 0 0 0 0 30.014826
-2.6987827 -3.797756 0.9809795 0 0 0 0 30.019772
-2.7653418 -3.800379 1.119193 0 0 0 0 30.024719
