# .PCD v0.7 - Point Cloud Data file format
VERSION 0.7
FIELDS x y z normal_x normal_y normal_z intensity curvature
SIZE 4 4 4 4 4 4 4 4
TYPE F F F F F F F F
COUNT 1 1 1 1 1 1 1 1
WIDTH 981
HEIGHT 1
VIEWPOINT 0 0 0 1 0 0 0
POINTS 981
DATA ascii
-5.0636239 -1.6881704 4.7404227 0 0 0 0 57.332924
-4.8048143 -1.4497523 4.7896118 0 0 0 0 57.337875
-4.5379305 -1.2004374 4.8429303 0 0 0 0 57.342819
-5.2975492 -2.0597737 4.6872134 0 0 0 0 57.347771
-5.0306377 -1.8045013 4.7455826 0 0 0 0 57.352715
-4.7747059 -1.5559936 4.7868443 0 0 0 0 57.357666
-4.5348859 -1.3046029 4.8580594 0 0 0 0 57.36261
-5.244586 -2.1812305 4.687418 0 0 0 0 57.367554
-4.9926357 -1.9198586 4.7487717 0 0 0 0 57.372505
-4.7476478 -1.6642683 4.7910457 0 0 0 0 57.377449
-4.5147395 -1.4047873 4.8582988 0 0 0 0 57.382401
-5.2037134 -2.3066864 4.699532 0 0 0 0 57.387344
-4.9606891 -2.0372324 4.7599154 0 0 0 0 57.392288
-4.7206087 -1.7735602 4.7972369 0 0 0 0 57.39724
-4.4875555 -1.5029895 4.8535857 0 0 0 0 57.402184
-5.1618824 -2.4341936 4.7166328 0 0 0 0 57.407135
-4.9136386 -2.148634 4.7591772 0 0 0 0 57.412079
-4.6774392 -1.8758545 4.7875595 0 0 0 0 57.417023
-4.4744968 -1.6072072 4.8647566 0 0 0 0 57.421974
-5.1049185 -2.5527201 4.7208767 0 0 0 0 57.426918
-4.8706474 -2.2630608 4.7653937 0 0 0 0 57.43187
-4.662528 -1.9901962 4.8116508 0 0 0 0 57.436813
-4.4503732 -1.7084432 4.867002 0 0 0 0 57.441765
-5.0499902 -2.6732643 4.7290931 0 0 0 0 57.446709
-4.8316936 -2.3785045 4.7775826 0 0 0 0 57.451653
-4.6294851 -2.0985408 4.8178735 0 0 0 0 57.456604
-4.4222331 -1.8086969 4.8672729 0 0 0 0 57.461548
-4.9900346 -2.7908435 4.7363567 0 0 0 0 57.466499
-4.7867107 -2.4919748 4.7868142 0 0 0 0 57.471443
-4.5904183 -2.2049201 4.8221397 0 0 0 0 57.476387
-4.3991437 -1.9109672 4.8745027 0 0 0 0 57.481339
-4.929081 -2.9074492 4.7456322 0 0 0 0 57.486282
-4.7377167 -2.6044719 4.7950711 0 0 0 0 57.491234
-4.1194072 -2.0931199 4.374227 0 0 0 0 57.496178
-4.3680024 -2.0102558 4.875793 0 0 0 0 57.501129
-4.8639293 -3.0220506 4.7532535 0 0 0 0 57.262115
-4.2473845 -2.4618886 4.3587432 0 0 0 0 57.267067
-4.0831747 -2.1894374 4.3807712 0 0 0 0 57.272011
-3.9270303 -1.9140867 4.4227891 0 0 0 0 57.276962
-4.3302813 -2.8327527 4.3032432 0 0 0 0 57.281906
-4.1901832 -2.5563674 4.3571963 0 0 0 0 57.28685
-4.0480514 -2.2868316 4.3911018 0 0 0 0 57.291801
-3.9079239 -2.0103972 4.4390574 0 0 0 0 57.296745
-4.2914371 -2.9503698 4.3364167 0 0 0 0 57.301697
-4.139071 -2.6558795 4.3655791 0 0 0 0 57.306641
-4.0644684 -2.4162865 4.459928 0 0 0 0 57.311592
-3.854507 -2.0896876 4.4186234 0 0 0 0 57.316536
-4.2121758 -3.039994 4.330008 0 0 0 0 57.32148
-4.1293979 -2.7824287 4.4195461 0 0 0 0 57.326431
-4.37395 -2.7310276 4.8548651 0 0 0 0 57.331375
-4.2364721 -2.416523 4.8971314 0 0 0 0 57.336327
-4.1531525 -3.1446495 4.3473806 0 0 0 0 57.34127
-4.3270097 -3.0561416 4.6993322 0 0 0 0 57.346214
-4.3208365 -2.8325179 4.8582377 0 0 0 0 57.351166
-4.1943264 -2.5149131 4.8994813 0 0 0 0 57.35611
-4.0820088 -3.2403247 4.3548822 0 0 0 0 57.361061
-4.3731546 -3.2388427 4.8265681 0 0 0 0 57.366005
-4.2738128 -2.9390416 4.8715391 0 0 0 0 57.370949
-4.155221 -2.6163034 4.9047914 0 0 0 0 57.3759
-4.0108538 -3.3340094 4.3634009 0 0 0 0 57.380844
-4.3232613 -3.3535001 4.8528113 0 0 0 0 57.385796
-4.2227726 -3.0445833 4.8828654 0 0 0 0 57.390739
-4.1151485 -2.7187445 4.9150963 0 0 0 0 57.395691
-3.9417748 -3.4327369 4.3788662 0 0 0 0 57.400635
-4.2602563 -3.4601858 4.8691812 0 0 0 0 57.405579
-4.1626301 -3.1421359 4.8863006 0 0 0 0 57.41053
-4.0720506 -2.8201783 4.9214225 0 0 0 0 57.415474
-3.8797855 -3.5364895 4.4042568 0 0 0 0 57.420425
-4.185122 -3.557874 4.8736811 0 0 0 0 57.425369
-4.1146641 -3.2507377 4.9075856 0 0 0 0 57.430313
-4.0219021 -2.917639 4.9238133 0 0 0 0 57.435265
-3.7955315 -3.6212385 4.406908 0 0 0 0 57.440208
-4.120121 -3.6635957 4.892066 0 0 0 0 57.44516
-4.0485063 -3.347326 4.9090548 0 0 0 0 57.450104
-3.9748082 -3.0181248 4.9321637 0 0 0 0 57.455055
-3.726481 -3.719028 4.4293795 0 0 0 0 57.459999
-4.0358949 -3.7533131 4.8906727 0 0 0 0 57.464943
-3.98843 -3.4479482 4.9204612 0 0 0 0 57.469894
-3.9247158 -3.1186376 4.940527 0 0 0 0 57.474838
-3.6483316 -3.8088374 4.4449592 0 0 0 0 57.47979
-3.9455996 -3.8370492 4.8853574 0 0 0 0 57.484734
-3.9273732 -3.5495968 4.9338622 0 0 0 0 57.489677
-3.8736291 -3.2191677 4.949894 0 0 0 0 57.494629
-3.5560043 -3.8856416 4.445713 0 0 0 0 57.499573
-3.687891 -3.7504263 4.6712465 0 0 0 0 57.504524
-3.8531775 -3.6412568 4.9354072 0 0 0 0 57.509468
-3.8205574 -3.320724 4.9602599 0 0 0 0 57.514412
-3.4626312 -3.9574478 4.4455132 0 0 0 0 57.519363
-3.4899182 -3.7128873 4.5264497 0 0 0 0 57.524307
-3.784054 -3.7369421 4.9448943 0 0 0 0 57.529259
-3.7644653 -3.4202988 4.969656 0 0 0 0 57.534203
-3.7565329 -4.4893107 4.95365 0 0 0 0 57.539154
-3.392359 -3.772578 4.5083723 0 0 0 0 57.544098
-3.7220592 -3.8416612 4.9652719 0 0 0 0 57.549042
-3.7023094 -3.5148838 4.9741211 0 0 0 0 57.553993
-3.6583681 -4.57728 4.9673314 0 0 0 0 57.558937
-3.3110647 -3.8503349 4.5140676 0 0 0 0 57.563889
-3.643856 -3.9303839 4.9698577 0 0 0 0 57.568832
-3.6412072 -3.6134944 4.9825468 0 0 0 0 57.573776
-3.5612183 -4.6652675 4.9840074 0 0 0 0 57.578728
-3.2247143 -3.9240932 4.5148196 0 0 0 0 57.583672
-3.5514565 -4.0050845 4.9576278 0 0 0 0 57.588623
-3.5781205 -3.7121487 4.9939804 0 0 0 0 57.593567
-3.4651186 -4.7562909 5.0056534 0 0 0 0 57.598511
-3.4965765 -4.447186 5.0271196 0 0 0 0 57.603462
-3.1946914 -3.7708499 4.5732298 0 0 0 0 57.608406
-3.5150399 -3.8108125 5.006413 0 0 0 0 57.613358
-3.3608766 -4.8353081 5.0184374 0 0 0 0 57.618301
-3.4013298 -4.5290756 5.0338392 0 0 0 0 57.623253
-3.0878832 -3.8124456 4.5343485 0 0 0 0 57.628197
-3.4448857 -3.9044781 5.01192 0 0 0 0 57.633141
-3.2658339 -4.9283934 5.0480595 0 0 0 0 57.638092
-3.3173096 -4.6260495 5.061379 0 0 0 0 57.643036
-3.0177193 -3.8992054 4.5509157 0 0 0 0 57.647987
-3.3697028 -3.9951797 5.0164742 0 0 0 0 57.652931
-3.1585732 -5.0044489 5.061883 0 0 0 0 57.657875
-3.2149653 -4.6989598 5.0632067 0 0 0 0 57.662827
-3.2746494 -4.4244933 5.0702529 0 0 0 0 57.66777
-3.0400841 -3.7747808 4.6398425 0 0 0 0 57.672722
-3.0533853 -5.0845566 5.0836616 0 0 0 0 57.677666
-3.1218517 -4.7879634 5.0848556 0 0 0 0 57.682617
-3.1742318 -4.4943027 5.062099 0 0 0 0 57.687561
-2.925041 -3.8012533 4.5781283 0 0 0 0 57.692505
-2.9461768 -5.1626744 5.104466 0 0 0 0 57.697456
-3.0195377 -4.8609276 5.0926824 0 0 0 0 57.7024
-3.0891113 -4.5851965 5.0786948 0 0 0 0 57.707352
-2.8517849 -3.8829486 4.5837522 0 0 0 0 57.712296
-2.8276973 -5.2187371 5.1075101 0 0 0 0 57.717239
-2.9213436 -4.942935 5.1094127 0 0 0 0 57.722191
-3.0040371 -4.6781416 5.1012735 0 0 0 0 57.727135
-3.086623 -4.4003577 5.0942459 0 0 0 0 57.732086
-2.6774256 -5.212584 5.0532217 0 0 0 0 57.742783
-2.8293326 -5.0360417 5.1430116 0 0 0 0 57.747734
-2.9149365 -4.7690945 5.1198778 0 0 0 0 57.752678
-3.0014427 -4.4881816 5.10186 0 0 0 0 57.757629
-2.524991 -5.1933689 4.9900646 0 0 0 0 57.762573
-2.7250504 -5.1090794 5.1568465 0 0 0 0 57.767517
-2.8207426 -4.8520532 5.134582 0 0 0 0 57.772469
-2.9193673 -4.5840526 5.1183987 0 0 0 0 57.777412
-2.4064355 -5.240437 4.9931874 0 0 0 0 57.782364
-2.6197917 -5.1831532 5.1736765 0 0 0 0 57.787308
-2.7296519 -4.9420638 5.1582117 0 0 0 0 57.792259
-2.8342631 -4.6769423 5.1339769 0 0 0 0 57.797203
-2.2930136 -5.2965651 5.0082097 0 0 0 0 57.802147
-2.4970973 -5.2231126 5.1598787 0 0 0 0 57.807098
-2.6324966 -5.0270853 5.1769118 0 0 0 0 57.812042
-2.7482181 -4.7738838 5.1545238 0 0 0 0 57.816994
-2.1816289 -5.354712 5.0272055 0 0 0 0 57.821938
-2.3445144 -5.1947737 5.0818028 0 0 0 0 57.826881
-2.5291972 -5.1000838 5.1867423 0 0 0 0 57.831833
-2.6591573 -4.8688536 5.1751018 0 0 0 0 57.836777
-2.0682456 -5.4118948 5.0482187 0 0 0 0 57.841728
-2.212414 -5.2015934 5.0423326 0 0 0 0 57.846672
-2.4310896 -5.1871686 5.2114286 0 0 0 0 57.851616
-2.5639832 -4.9548087 5.1877842 0 0 0 0 57.856567
-1.9559309 -5.4731307 5.0761924 0 0 0 0 57.861511
-2.1009614 -5.2566662 5.0523558 0 0 0 0 57.866463
-2.3114123 -5.2300887 5.1955924 0 0 0 0 57.871407
-2.4668152 -5.040791 5.2014751 0 0 0 0 57.876358
-1.9947007 -5.3258247 5.0772338 0 0 0 0 57.886246
-2.1566398 -5.1896167 5.0996327 0 0 0 0 57.891197
-2.3738358 -5.1398768 5.2310352 0 0 0 0 57.896141
-1.8832774 -5.3819351 5.091248 0 0 0 0 57.906036
-2.0358572 -5.2225137 5.0798888 0 0 0 0 57.91098
-2.269618 -5.2209063 5.2428012 0 0 0 0 57.915932
-1.9264266 -5.2815475 5.0868688 0 0 0 0 57.930771
-2.1230989 -5.2034678 5.1586075 0 0 0 0 57.935715
-1.492332 -5.6841145 5.1764479 0 0 0 0 57.940666
-1.3013901 -4.3359442 4.0498729 0 0 0 0 57.94561
-1.8150512 -5.3436513 5.0998316 0 0 0 0 57.950562
-1.9857675 -5.1981053 5.0922689 0 0 0 0 57.955505
-1.3686388 -5.7112947 5.1857677 0 0 0 0 57.960457
-1.8774557 -5.2691565 5.1021399 0 0 0 0 57.975296
-1.2481245 -5.7515697 5.2089615 0 0 0 0 57.98024
-1.4298412 -5.6157713 5.1832623 0 0 0 0 57.985191
-1.7702211 -5.3452616 5.1189637 0 0 0 0 57.995079
-1.1265486 -5.7868214 5.2282028 0 0 0 0 58.000031
-1.3134304 -5.6680117 5.2063336 0 0 0 0 58.004974
-1.4874375 -5.5643053 5.1833954 0 0 0 0 58.009926
-1.3175842 -4.3233089 4.0998335 0 0 0 0 58.01487
-1.005006 -5.8231182 5.2524362 0 0 0 0 58.019821
-1.193923 -5.7122293 5.2234893 0 0 0 0 58.024765
-1.3679214 -5.6124434 5.1915164 0 0 0 0 58.029709
-0.88020593 -5.8383064 5.2608666 0 0 0 0 58.039604
-1.0744928 -5.761508 5.2476006 0 0 0 0 58.044556
-1.2516608 -5.6797194 5.2184582 0 0 0 0 58.0495
-1.4346089 -5.5758276 5.1834784 0 0 0 0 58.054443
-0.75881273 -5.8847184 5.2980142 0 0 0 0 58.059395
-0.95093477 -5.7997646 5.2648273 0 0 0 0 58.064339
-1.1301749 -5.7279305 5.2325888 0 0 0 0 58.06929
-1.3194616 -5.6560946 5.2103028 0 0 0 0 58.074234
-0.63518894 -5.9120307 5.3213358 0 0 0 0 58.079178
-0.82841384 -5.8400478 5.2860322 0 0 0 0 58.084129
-1.0098461 -5.7882285 5.2576103 0 0 0 0 58.089073
-1.1992186 -5.7273741 5.2332282 0 0 0 0 58.094025
-0.50947726 -5.9313283 5.3407378 0 0 0 0 58.098969
-0.70597506 -5.8854027 5.3151937 0 0 0 0 58.10392
-0.88647026 -5.8435469 5.2816887 0 0 0 0 58.108864
-1.0748115 -5.7855954 5.245286 0 0 0 0 58.113808
-0.38590041 -5.9606957 5.3700438 0 0 0 0 58.118759
-0.58038527 -5.9186997 5.3344736 0 0 0 0 58.123703
-0.7598992 -5.8827906 5.2939215 0 0 0 0 58.128654
-0.9495272 -5.851922 5.2682791 0 0 0 0 58.133598
-0.26011914 -5.9729805 5.3875074 0 0 0 0 58.138542
-0.45484602 -5.9550419 5.3587279 0 0 0 0 58.143494
-0.63458931 -5.9411988 5.325984 0 0 0 0 58.148438
-0.82324886 -5.9182682 5.2922759 0 0 0 0 58.153389
-0.13337472 -5.9873104 5.4089589 0 0 0 0 58.158333
-0.32723218 -5.9843783 5.3800535 0 0 0 0 58.163277
-0.50516409 -5.9905763 5.3501439 0 0 0 0 58.168228
-0.694013 -5.9866858 5.3212695 0 0 0 0 58.173172
-0.0087479297 -6.0097108 5.4403324 0 0 0 0 58.178123
-0.19858801 -6.0107164 5.4004102 0 0 0 0 58.183067
-0.37457946 -6.0258956 5.3664308 0 0 0 0 58.188019
-0.56169343 -6.0480895 5.3453383 0 0 0 0 58.192963
0.1179854 -6.0230794 5.4657941 0 0 0 0 58.197906
-0.069994375 -6.0401006 5.4257412 0 0 0 0 58.202858
-0.24215755 -6.073338 5.3946233 0 0 0 0 58.207802
-0.42629957 -6.1024957 5.3664823 0 0 0 0 58.212753
0.24390912 -6.0214658 5.4786472 0 0 0 0 58.76049
0.059621885 -6.0665836 5.4503407 0 0 0 0 58.765442
-0.10968726 -6.1158085 5.4190693 0 0 0 0 58.770386
-0.28995216 -6.1589522 5.3897986 0 0 0 0 58.775337
0.36974564 -6.0248222 5.5002055 0 0 0 0 58.780281
0.19031517 -6.0859828 5.4717789 0 0 0 0 58.785225
0.024917109 -6.1462235 5.4384279 0 0 0 0 58.790176
-0.1507348 -6.2235594 5.4258761 0 0 0 0 58.79512
0.49746653 -6.0362787 5.5307026 0 0 0 0 58.800072
0.32201609 -6.1034107 5.4952407 0 0 0 0 58.805016
0.1622583 -6.1958356 5.4766312 0 0 0 0 58.809967
-0.0092984112 -6.2710638 5.4481158 0 0 0 0 58.814911
0.62342536 -6.0285964 5.5473604 0 0 0 0 58.819855
0.45649529 -6.1370091 5.5345736 0 0 0 0 58.824806
0.30011737 -6.2051592 5.4821939 0 0 0 0 58.82975
0.13516384 -6.315598 5.470397 0 0 0 0 58.834702
0.75024086 -6.0310216 5.574935 0 0 0 0 58.839645
0.59026754 -6.1474428 5.556109 0 0 0 0 58.844589
0.44240469 -6.2568831 5.5274034 0 0 0 0 58.849541
0.28256413 -6.3632236 5.4996662 0 0 0 0 58.854485
0.87717092 -6.0243874 5.5955911 0 0 0 0 58.859436
0.72406143 -6.1548872 5.5786719 0 0 0 0 58.86438
0.58491576 -6.290494 5.5597749 0 0 0 0 58.869324
0.43195856 -6.4108782 5.5299444 0 0 0 0 58.874275
1.0068872 -6.0319409 5.6341362 0 0 0 0 58.879219
0.85982233 -6.1643782 5.6042275 0 0 0 0 58.884171
0.72673422 -6.2999315 5.5733585 0 0 0 0 58.889114
0.58345228 -6.4495182 5.5563145 0 0 0 0 58.894066
1.1338292 -6.0223379 5.6578212 0 0 0 0 58.89901
0.99372983 -6.1617827 5.621882 0 0 0 0 58.903954
0.87140393 -6.3195043 5.5988669 0 0 0 0 58.908905
0.73697209 -6.4851789 5.5827217 0 0 0 0 58.913849
1.2607981 -6.009737 5.6815338 0 0 0 0 58.9188
1.1315162 -6.1673145 5.6494851 0 0 0 0 58.923744
1.0189471 -6.3472037 5.6353188 0 0 0 0 58.928688
0.8924666 -6.5209045 5.6141386 0 0 0 0 58.93364
1.3849329 -5.9840231 5.6953502 0 0 0 0 58.938583
1.2702368 -6.1769109 5.6830573 0 0 0 0 58.943535
1.1657203 -6.3567734 5.6579285 0 0 0 0 58.948479
1.0501122 -6.5445714 5.6366739 0 0 0 0 58.95343
1.5118494 -5.9734883 5.7260475 0 0 0 0 58.958374
1.4052197 -6.1653404 5.7018003 0 0 0 0 58.963318
1.3144692 -6.3673902 5.6835399 0 0 0 0 58.968269
1.2106591 -6.574348 5.6681709 0 0 0 0 58.973213
1.636946 -5.9488406 5.7458615 0 0 0 0 58.978165
1.5412066 -6.1527905 5.7215586 0 0 0 0 58.983109
1.4661237 -6.3831248 5.719121 0 0 0 0 58.988052
1.3732969 -6.5961099 5.6957498 0 0 0 0 58.993004
1.7620378 -5.9242034 5.7666779 0 0 0 0 58.997948
1.6849239 -6.159493 5.7611847 0 0 0 0 59.002899
1.622638 -6.4089966 5.764637 0 0 0 0 59.007843
1.5379055 -6.618928 5.7273307 0 0 0 0 59.012787
1.8880732 -5.9026308 5.7934718 0 0 0 0 59.017738
1.8219695 -6.1409478 5.7800045 0 0 0 0 59.022682
1.7678185 -6.3833899 5.7685571 0 0 0 0 59.027634
1.7035862 -6.6347408 5.7569799 0 0 0 0 59.032578
2.0122194 -5.8719893 5.8143401 0 0 0 0 59.037529
1.9599447 -6.1264758 5.8057933 0 0 0 0 59.042473
1.9206733 -6.3810711 5.7963095 0 0 0 0 59.047417
1.8731909 -6.6546636 5.7946134 0 0 0 0 59.052368
2.134388 -5.8383412 5.836226 0 0 0 0 59.057312
2.098937 -6.1090336 5.8336158 0 0 0 0 59.062263
2.0754802 -6.3808265 5.8300533 0 0 0 0 59.067207
2.0438919 -6.666554 5.8273249 0 0 0 0 59.072151
2.2633662 -5.8188739 5.8710203 0 0 0 0 59.077103
2.2369943 -6.0865498 5.8574791 0 0 0 0 59.082047
2.2294538 -6.3674865 5.8539119 0 0 0 0 59.086998
2.2156045 -6.6754832 5.8630695 0 0 0 0 59.091942
2.3816884 -5.7731128 5.8839989 0 0 0 0 59.096886
2.3770647 -6.0620947 5.8823724 0 0 0 0 59.101837
2.3834212 -6.3531761 5.8807802 0 0 0 0 59.106781
2.3874929 -6.6703272 5.8889422 0 0 0 0 59.111732
2.5019543 -5.7304258 5.9029603 0 0 0 0 59.116676
2.5171154 -6.0376778 5.9112663 0 0 0 0 59.121628
2.5413549 -6.3399491 5.9126606 0 0 0 0 59.126572
2.5633099 -6.6692724 5.9217992 0 0 0 0 59.131516
2.6290004 -5.7029562 5.9388218 0 0 0 0 59.136467
2.6562405 -6.0072188 5.9362116 0 0 0 0 59.141411
2.6983716 -6.3196802 5.9406009 0 0 0 0 59.146362
2.7372603 -6.6561575 5.9497566 0 0 0 0 59.151306
2.7434714 -5.6441116 5.9459033 0 0 0 0 59.15625
2.7924631 -5.9686904 5.9562163 0 0 0 0 59.161201
2.8563826 -6.2984505 5.9715557 0 0 0 0 59.166145
2.9141815 -6.6441092 5.9817204 0 0 0 0 59.171097
2.8666475 -5.605556 5.9758472 0 0 0 0 59.176041
2.9316378 -5.9322448 5.9822183 0 0 0 0 59.180992
3.0154021 -6.27525 6.0045357 0 0 0 0 59.185936
3.0901339 -6.6280642 6.0147176 0 0 0 0 59.19088
2.9868844 -5.5619493 6.0028238 0 0 0 0 59.195831
3.0697982 -5.8958197 6.0112176 0 0 0 0 59.200775
3.1715417 -6.2419715 6.0315933 0 0 0 0 59.205727
3.2720757 -6.6111126 6.0517545 0 0 0 0 59.21067
3.1061819 -5.513308 6.0268431 0 0 0 0 59.215614
3.2080472 -5.8523521 6.0352817 0 0 0 0 59.220566
3.3316388 -6.2107773 6.0636535 0 0 0 0 59.22551
3.4530723 -6.5891371 6.0868335 0 0 0 0 59.230461
3.220078 -5.451715 6.0400991 0 0 0 0 58.98941
3.3506439 -5.8152084 6.0704837 0 0 0 0 58.994354
3.4932499 -6.1757841 6.0979533 0 0 0 0 58.999306
3.6268435 -6.5461349 6.1092882 0 0 0 0 59.00425
3.3374097 -5.3990474 6.0641379 0 0 0 0 59.009201
3.4840469 -5.7576342 6.0886436 0 0 0 0 59.014145
3.6514966 -6.130517 6.1251235 0 0 0 0 59.019089
3.8138645 -6.5182562 6.1504436 0 0 0 0 59.02404
3.4528158 -5.3403292 6.0842228 0 0 0 0 59.028984
3.6203618 -5.7061515 6.1137652 0 0 0 0 59.033936
3.8067851 -6.0812168 6.1513171 0 0 0 0 59.038879
3.9920943 -6.4741831 6.1787014 0 0 0 0 59.043831
3.5691748 -5.2836747 6.1102958 0 0 0 0 59.048775
3.7557502 -5.647644 6.1369467 0 0 0 0 59.053719
3.967021 -6.0340266 6.1845188 0 0 0 0 59.05867
4.1723361 -6.4271579 6.2099981 0 0 0 0 59.063614
3.7031693 -5.2514534 6.1662397 0 0 0 0 59.068565
3.8989425 -5.602354 6.1760507 0 0 0 0 59.073509
4.1272802 -5.9838486 6.218749 0 0 0 0 59.078453
4.3692794 -6.4005041 6.2651973 0 0 0 0 59.083405
3.8518949 -5.2355943 6.2471113 0 0 0 0 59.088348
4.0264807 -5.5317078 6.1913061 0 0 0 0 59.0933
4.2846498 -5.924593 6.2470479 0 0 0 0 59.098244
4.5466723 -6.3384318 6.2936187 0 0 0 0 59.103195
4.0340281 -5.2584934 6.3778038 0 0 0 0 59.108139
4.1549993 -5.4611082 6.210568 0 0 0 0 59.113083
4.4361358 -5.8552403 6.2704105 0 0 0 0 59.118034
4.7231355 -6.2703276 6.3190923 0 0 0 0 59.122978
4.1612716 -5.2051105 6.4219079 0 0 0 0 59.12793
4.2894473 -5.3946285 6.2368236 0 0 0 0 59.132874
4.5896168 -5.784936 6.2967939 0 0 0 0 59.137817
4.907485 -6.2084055 6.3565516 0 0 0 0 59.142769
4.2699094 -5.1252713 6.4341588 0 0 0 0 59.147713
4.4189801 -5.3210697 6.2591214 0 0 0 0 59.152664
4.7421398 -5.7106156 6.3222103 0 0 0 0 59.157608
5.0859561 -6.1363788 6.3880754 0 0 0 0 59.162552
4.3844104 -5.0526233 6.4613767 0 0 0 0 59.167503
4.5701599 -5.2699909 6.3123264 0 0 0 0 59.172447
4.902535 -5.6434879 6.3606043 0 0 0 0 59.177399
5.2733359 -6.0685353 6.4306078 0 0 0 0 59.182343
4.4900765 -4.9687786 6.4756527 0 0 0 0 59.187294
4.7587271 -5.2587271 6.4173622 0 0 0 0 59.192238
5.0482302 -5.5540471 6.379128 0 0 0 0 59.197182
5.4489269 -5.9844704 6.4602299 0 0 0 0 59.202133
4.6026063 -4.8931155 6.5028911 0 0 0 0 59.207077
4.9463944 -5.2384219 6.5184765 0 0 0 0 59.212029
5.2017612 -5.4748163 6.412601 0 0 0 0 59.216972
5.6304789 -5.9005346 6.4978838 0 0 0 0 59.221916
4.7131972 -4.8124104 6.5271673 0 0 0 0 59.226868
5.1144509 -5.1896973 6.5927515 0 0 0 0 59.231812
5.349452 -5.3834438 6.4361567 0 0 0 0 59.236763
5.80021 -5.8033853 6.5236001 0 0 0 0 59.241707
4.8218079 -4.7296882 6.5514545 0 0 0 0 59.246651
5.2411771 -5.0961075 6.613225 0 0 0 0 59.251602
5.5069861 -5.3003178 6.4766898 0 0 0 0 59.256546
5.9788775 -5.7074199 6.5603538 0 0 0 0 59.261497
4.9235277 -4.639823 6.5667729 0 0 0 0 59.266441
5.3747997 -5.0086737 6.6436806 0 0 0 0 59.271393
5.7247252 -5.268363 6.5850649 0 0 0 0 59.276337
6.1545877 -5.6074209 6.5961313 0 0 0 0 59.281281
5.0351191 -4.5561862 6.5970869 0 0 0 0 59.286232
5.5035262 -4.9121609 6.6701956 0 0 0 0 59.291176
5.9898925 -5.2703385 6.7473731 0 0 0 0 59.296127
6.3303494 -5.5024166 6.6309571 0 0 0 0 59.301071
5.1348581 -4.4633245 6.6144271 0 0 0 0 59.306015
5.627295 -4.8125777 6.693716 0 0 0 0 59.310966
6.166369 -5.1845512 6.8050323 0 0 0 0 59.31591
6.5011859 -5.38937 6.665834 0 0 0 0 59.320862
5.234621 -4.3674736 6.6327963 0 0 0 0 59.325806
5.7501025 -4.7089877 6.7172699 0 0 0 0 59.330757
6.3033433 -5.0650496 6.823801 0 0 0 0 59.335701
6.6927848 -5.2907166 6.7226877 0 0 0 0 59.340645
5.32548 -4.26547 6.6431789 0 0 0 0 59.345596
5.8640046 -4.5982628 6.7348471 0 0 0 0 59.35054
6.4403453 -4.9415684 6.8446088 0 0 0 0 59.355492
6.9852467 -5.2629128 6.8804092 0 0 0 0 59.360435
5.4400392 -4.1809497 6.6825247 0 0 0 0 59.365379
5.9878359 -4.4907136 6.7614474 0 0 0 0 59.370331
6.5674624 -4.809926 6.8574438 0 0 0 0 59.375275
7.2412691 -5.1944246 6.9993191 0 0 0 0 59.380226
5.5289321 -4.0749402 6.6939378 0 0 0 0 59.38517
6.1066918 -4.3811111 6.7870436 0 0 0 0 59.390114
6.7242413 -4.6978593 6.9032531 0 0 0 0 59.395065
7.3964615 -5.049139 7.0224218 0 0 0 0 59.400009
5.623764 -3.9720507 6.7123551 0 0 0 0 59.404961
6.2166944 -4.2603469 6.8036995 0 0 0 0 59.409904
6.8573151 -4.5653758 6.9271317 0 0 0 0 59.414856
7.5506964 -4.8988562 7.0465684 0 0 0 0 59.4198
5.7195673 -3.8702078 6.7347693 0 0 0 0 59.424744
5.7442555 -3.7574949 6.1938925 0 0 0 0 59.429695
6.3205652 -4.0046344 6.2845292 0 0 0 0 59.434639
7.7157974 -4.7548218 7.0867167 0 0 0 0 59.43959
5.7995772 -3.7550659 6.7402277 0 0 0 0 59.444534
5.8174534 -3.6301494 6.1844277 0 0 0 0 59.449478
6.4603357 -3.8944099 6.3302455 0 0 0 0 59.45443
7.865118 -4.5954981 7.1109276 0 0 0 0 59.459373
5.3923397 -3.3383131 6.1888313 0 0 0 0 59.211037
6.5321465 -3.8867676 6.855567 0 0 0 0 59.215981
6.6608558 -3.814141 6.435842 0 0 0 0 59.220932
8.0227327 -4.4400558 7.1499815 0 0 0 0 59.225876
5.4375615 -3.2155693 6.1641746 0 0 0 0 59.23082
6.636209 -3.7579634 6.8742599 0 0 0 0 59.235771
7.2612877 -3.9451249 6.923676 0 0 0 0 59.240715
8.1641216 -4.2716589 7.175221 0 0 0 0 59.245667
5.4807463 -3.0948436 6.1434917 0 0 0 0 59.25061
6.7432146 -3.6312606 6.9009514 0 0 0 0 59.255562
7.4627237 -3.840971 7.0256376 0 0 0 0 59.260506
8.3064976 -4.1023192 7.2054772 0 0 0 0 59.26545
5.561564 -2.9928348 6.1638308 0 0 0 0 59.270401
6.830431 -3.4912148 6.909667 0 0 0 0 59.275345
7.5621285 -3.6800425 7.0346045 0 0 0 0 59.280296
8.4528685 -3.9310634 7.2407742 0 0 0 0 59.28524
6.2423582 -3.199338 6.8463955 0 0 0 0 59.290184
6.9226055 -3.353261 6.9233913 0 0 0 0 59.295135
7.6823711 -3.5264881 7.0636125 0 0 0 0 59.300079
8.5665026 -3.7433012 7.2530603 0 0 0 0 59.305031
6.3054972 -3.0729873 6.84587 0 0 0 0 59.309975
7.019742 -3.2154272 6.9451423 0 0 0 0 59.314926
7.75598 -3.3531625 7.0545683 0 0 0 0 59.31987
8.6930418 -3.5587864 7.2793856 0 0 0 0 59.324814
6.3735943 -2.9477468 6.8523617 0 0 0 0 59.329765
7.1158738 -3.0766132 6.9698997 0 0 0 0 59.334709
7.8325515 -3.1799378 7.0535417 0 0 0 0 59.339661
8.8195591 -3.3743188 7.3107133 0 0 0 0 59.344604
6.46349 -2.8319259 6.8828797 0 0 0 0 59.349548
7.2040558 -2.9346912 6.9906483 0 0 0 0 59.3545
7.423914 -2.8213341 6.6207595 0 0 0 0 59.359444
8.9103794 -3.1712801 7.3150349 0 0 0 0 59.364395
6.5385113 -2.7088609 6.901392 0 0 0 0 59.369339
7.2823572 -2.7845979 7.0024242 0 0 0 0 59.374283
7.4517059 -2.6423566 6.586545 0 0 0 0 59.379234
9.026988 -2.9777164 7.3454032 0 0 0 0 59.384178
6.5947213 -2.5754507 6.9009051 0 0 0 0 59.38913
7.3834667 -2.6429346 7.0382409 0 0 0 0 59.394073
7.4417577 -2.4517491 6.5212488 0 0 0 0 59.399025
9.1157866 -2.773726 7.35673 0 0 0 0 59.403969
6.6727343 -2.4504697 6.9254537 0 0 0 0 59.408913
7.4478726 -2.486634 7.0410085 0 0 0 0 59.413864
7.5092249 -2.2875011 6.5271063 0 0 0 0 59.418808
9.2105675 -2.5678649 7.3761077 0 0 0 0 59.423759
6.7329078 -2.3171711 6.9329906 0 0 0 0 59.428703
7.5202017 -2.3325171 7.055799 0 0 0 0 59.433647
8.4000807 -2.3553672 7.2500072 0 0 0 0 59.438599
9.3073092 -2.3630781 7.4014893 0 0 0 0 59.443542
6.8089409 -2.1891932 6.9595618 0 0 0 0 59.448494
7.0047646 -2.0070043 6.5241842 0 0 0 0 59.453438
8.4379015 -2.1636662 7.234972 0 0 0 0 59.458382
9.3971109 -2.1532111 7.4248862 0 0 0 0 59.463333
6.2290192 -1.8641137 6.3226132 0 0 0 0 59.468277
6.9637241 -1.834977 6.4445701 0 0 0 0 59.473228
8.5015583 -1.9774239 7.2440214 0 0 0 0 59.478172
9.4620237 -1.9389877 7.4342008 0 0 0 0 59.483124
6.2741628 -1.737625 6.3250179 0 0 0 0 59.488068
7.7749343 -1.8719888 7.1513619 0 0 0 0 59.493011
8.5771275 -1.7934204 7.2671127 0 0 0 0 59.497963
9.5150251 -1.7186007 7.4375148 0 0 0 0 59.502907
6.3629642 -1.6229796 6.3755383 0 0 0 0 59.507858
7.790659 -1.6979698 7.1240587 0 0 0 0 59.512802
8.6536932 -1.6074734 7.2952309 0 0 0 0 59.517746
9.5769453 -1.5013978 7.4518485 0 0 0 0 59.522697
7.0218048 -1.6377916 6.9937677 0 0 0 0 59.527641
7.8282099 -1.5303725 7.1208105 0 0 0 0 59.532593
8.6934814 -1.4129221 7.2942443 0 0 0 0 59.537537
9.6448555 -1.2813245 7.4742427 0 0 0 0 59.542488
7.0710382 -1.4974251 7.0043283 0 0 0 0 59.547432
7.8757067 -1.3629686 7.1286135 0 0 0 0 59.552376
8.7432022 -1.2195733 7.3053007 0 0 0 0 59.557327
9.7087545 -1.0612431 7.49962 0 0 0 0 59.562271
7.1113458 -1.3529123 7.0078835 0 0 0 0 59.567223
7.9251704 -1.1956478 7.1434288 0 0 0 0 59.572166
8.7859459 -1.0251423 7.3143344 0 0 0 0 59.57711
9.7208948 -0.83435315 7.4888015 0 0 0 0 59.582062
7.1784763 -1.2129059 7.0395365 0 0 0 0 59.587006
7.9686894 -1.0252271 7.1532445 0 0 0 0 59.591957
8.8296509 -0.83079475 7.3313756 0 0 0 0 59.596901
9.768856 -0.61008918 7.5101438 0 0 0 0 59.601845
7.2038617 -1.0651736 7.0340505 0 0 0 0 59.606796
7.9992414 -0.85463166 7.1569991 0 0 0 0 59.61174
8.8694067 -0.63337451 7.3444285 0 0 0 0 59.616692
9.3985319 -0.36805221 7.2145295 0 0 0 0 59.621635
7.2541118 -0.91890246 7.0536799 0 0 0 0 59.626587
8.0307903 -0.6830737 7.1637707 0 0 0 0 59.631531
8.6244116 -0.42221585 7.1281629 0 0 0 0 59.636475
9.4344406 -0.15066433 7.2347536 0 0 0 0 59.641426
7.2785096 -0.76918042 7.0502119 0 0 0 0 59.64637
8.0215607 -0.50582469 7.1363888 0 0 0 0 59.651321
8.599371 -0.22678709 7.0968733 0 0 0 0 59.656265
9.505228 0.070104249 7.287189 0 0 0 0 59.661209
7.3108664 -0.6176433 7.0588031 0 0 0 0 59.666161
7.8182149 -0.32321498 6.9390707 0 0 0 0 59.671104
8.6250944 -0.033243868 7.1108265 0 0 0 0 59.676056
9.4484606 0.28892234 7.2449622 0 0 0 0 59.681
7.1999564 -0.45796829 6.9299173 0 0 0 0 59.778992
7.8586612 -0.15337265 6.9630761 0 0 0 0 59.783943
8.6358681 0.16101359 7.1159344 0 0 0 0 59.788887
9.4285364 0.50656837 7.2351599 0 0 0 0 59.793831
7.112896 -0.30329862 6.8279362 0 0 0 0 59.798782
7.8652534 0.016501533 6.9607201 0 0 0 0 59.803726
8.6227179 0.35413969 7.1056986 0 0 0 0 59.808678
9.4843788 0.73246062 7.2885857 0 0 0 0 59.813622
7.145196 -0.15483466 6.8445106 0 0 0 0 59.818573
7.8758264 0.18728279 6.9643955 0 0 0 0 59.823517
8.627491 0.5489226 7.114572 0 0 0 0 59.828461
9.4474621 0.94882953 7.2754521 0 0 0 0 59.833412
7.1705284 -0.0062505426 6.8550534 0 0 0 0 59.838356
7.8874092 0.36101726 6.9721065 0 0 0 0 59.843307
8.6192961 0.743882 7.117384 0 0 0 0 59.848251
9.3676567 1.1608784 7.2320623 0 0 0 0 59.853195
7.1889024 0.14443523 6.8615818 0 0 0 0 59.858147
7.89499 0.53379822 6.9787903 0 0 0 0 59.863091
8.6021175 0.9369812 7.1141357 0 0 0 0 59.868042
9.3676081 1.38157 7.2551637 0 0 0 0 59.872986
7.1943426 0.29732525 6.8590674 0 0 0 0 59.87793
7.8746619 0.70601648 6.9663286 0 0 0 0 59.882881
8.577961 1.1311646 7.1088634 0 0 0 0 59.887825
9.283741 1.5896032 7.217721 0 0 0 0 59.892776
7.1977811 0.45022461 6.8575439 0 0 0 0 59.89772
7.8742623 0.8798812 6.9719868 0 0 0 0 59.902672
8.5497932 1.3243763 7.1045651 0 0 0 0 59.907616
9.2078304 1.7974799 7.1893201 0 0 0 0 59.91256
7.212183 0.6049189 6.8670969 0 0 0 0 59.917511
7.8549137 1.0520445 6.9645338 0 0 0 0 59.922455
8.5116358 1.5157288 7.0952005 0 0 0 0 59.927406
9.5012169 2.0851786 7.4555597 0 0 0 0 59.93235
7.2156129 0.75976223 6.8715963 0 0 0 0 59.937294
7.8415494 1.2270679 6.9661407 0 0 0 0 59.942245
8.4614744 1.7032504 7.079741 0 0 0 0 59.947189
9.4432678 2.3016522 7.4523382 0 0 0 0 59.952141
7.2080822 0.91379219 6.8670344 0 0 0 0 59.957085
7.8151855 1.3982788 6.9606485 0 0 0 0 59.962036
8.4412308 1.8972214 7.0934982 0 0 0 0 59.96698
9.3653326 2.5124352 7.4359641 0 0 0 0 59.971924
7.2105145 1.0706073 6.8755517 0 0 0 0 59.976875
7.7918234 1.5714246 6.9591918 0 0 0 0 59.981819
8.689497 2.1605351 7.3382859 0 0 0 0 59.986771
9.3063631 2.7298546 7.4397511 0 0 0 0 59.991714
7.1880345 1.2248619 6.8619194 0 0 0 0 59.996658
7.744504 1.7399545 6.9405708 0 0 0 0 60.00161
8.6323681 2.3540645 7.3288555 0 0 0 0 60.006554
9.2113953 2.9338467 7.4182305 0 0 0 0 60.011505
7.187489 1.3846864 6.8724542 0 0 0 0 60.016449
7.7710032 1.9261372 6.992497 0 0 0 0 60.021393
8.5792112 2.5484822 7.327457 0 0 0 0 60.026344
9.1363878 3.1444561 7.4178777 0 0 0 0 60.031288
7.161993 1.5389324 6.8628106 0 0 0 0 60.03624
7.9721999 2.1641982 7.2038121 0 0 0 0 60.041183
8.5140648 2.7400794 7.3189721 0 0 0 0 60.046135
9.0353689 3.3434889 7.3982844 0 0 0 0 60.051079
7.1315284 1.6952443 6.8511624 0 0 0 0 60.056023
7.9199085 2.3387077 7.1922293 0 0 0 0 60.060974
8.4398994 2.9277902 7.3074069 0 0 0 0 60.065918
8.9803171 3.5616879 7.4221096 0 0 0 0 60.070869
7.1050353 1.8514633 6.8455353 0 0 0 0 60.075813
7.8686128 2.5141804 7.1836629 0 0 0 0 60.080757
8.3617001 3.1115401 7.2957859 0 0 0 0 60.085709
8.823245 3.7345984 7.3649879 0 0 0 0 60.090652
7.3639178 2.0893877 7.1201525 0 0 0 0 60.095604
7.8162904 2.6886263 7.1790838 0 0 0 0 60.100548
8.2815161 3.2973006 7.2851758 0 0 0 0 60.105499
8.7201405 3.9295523 7.3563523 0 0 0 0 60.110443
7.3165188 2.248913 7.1024542 0 0 0 0 60.115387
7.7579718 2.8611667 7.1704583 0 0 0 0 60.120338
8.2042942 3.4819782 7.2805729 0 0 0 0 60.125282
8.6220264 4.1273856 7.355772 0 0 0 0 60.130234
7.2711062 2.409374 7.0897775 0 0 0 0 60.135178
7.6956601 3.0347366 7.1628242 0 0 0 0 60.140121
8.0930653 3.6522124 7.2506614 0 0 0 0 60.145073
8.494854 4.3076925 7.333879 0 0 0 0 60.150017
7.2406688 2.5755436 7.0932336 0 0 0 0 60.154968
7.6233306 3.203449 7.150094 0 0 0 0 60.159912
7.9978161 3.8291378 7.2378964 0 0 0 0 60.164856
8.3626528 4.4850388 7.3129344 0 0 0 0 60.169807
7.1872616 2.7351003 7.0785112 0 0 0 0 60.174751
7.5540009 3.3740962 7.1413999 0 0 0 0 60.179703
7.8835292 3.9943764 7.2109251 0 0 0 0 60.184647
8.2324429 4.6623492 7.2940006 0 0 0 0 60.189598
7.1458211 2.899394 7.0798969 0 0 0 0 60.194542
7.4786458 3.5418017 7.1326485 0 0 0 0 60.199486
7.7812476 4.1673713 7.1980906 0 0 0 0 60.204437
8.083148 4.8239555 7.2628226 0 0 0 0 60.209381
7.097394 3.0627918 7.0772405 0 0 0 0 60.214333
7.3982806 3.706584 7.1208458 0 0 0 0 60.219276
7.6658926 4.3285575 7.1780791 0 0 0 0 60.22422
7.9398422 4.9884324 7.2397037 0 0 0 0 60.229172
7.0339899 3.2214546 7.0614629 0 0 0 0 60.234116
7.310895 3.8684433 7.1079812 0 0 0 0 60.239067
7.5495582 4.491755 7.158083 0 0 0 0 60.244011
7.7834725 5.1421008 7.2094169 0 0 0 0 60.248955
6.9720545 3.3786824 7.0542202 0 0 0 0 60.738907
7.220099 4.0259523 7.0947289 0 0 0 0 60.743858
7.4318614 4.6475039 7.1418042 0 0 0 0 60.748802
7.6338863 5.2951674 7.1870809 0 0 0 0 60.753754
6.9146466 3.5411682 7.052536 0 0 0 0 60.758698
7.1197309 4.1820335 7.0737629 0 0 0 0 60.763649
7.3044705 4.8008437 7.1206751 0 0 0 0 60.768593
7.4774747 5.4438243 7.1617599 0 0 0 0 60.773537
6.8352456 3.6950305 7.0336547 0 0 0 0 60.778488
7.0223475 4.3400202 7.0598316 0 0 0 0 60.783432
7.1830783 4.9570699 7.1056066 0 0 0 0 60.788383
7.3170276 5.5875416 7.1343703 0 0 0 0 60.793327
6.7578349 3.8498366 7.018795 0 0 0 0 60.798271
6.9229207 4.4949985 7.0488629 0 0 0 0 60.803223
7.041615 5.0976362 7.0752826 0 0 0 0 60.808167
7.1545253 5.7252812 7.1069136 0 0 0 0 60.813118
6.6884251 4.0104604 7.0150347 0 0 0 0 60.818062
6.8114734 4.6421909 7.0277576 0 0 0 0 60.823006
6.9031219 5.2381182 7.0509748 0 0 0 0 60.827957
6.987977 5.8580627 7.0793891 0 0 0 0 60.832901
6.5969691 4.1574526 6.995029 0 0 0 0 60.837852
6.6960049 4.7864342 7.0056038 0 0 0 0 60.842796
6.7746191 5.3843808 7.0397768 0 0 0 0 60.847748
6.7912869 5.9604177 7.0224123 0 0 0 0 60.852692
6.510541 4.3103399 6.9811077 0 0 0 0 60.857635
6.5895314 4.9374566 6.9975638 0 0 0 0 60.862587
6.6200547 5.5111284 7.0042534 0 0 0 0 60.867531
6.5052328 5.9755297 6.8721213 0 0 0 0 60.872482
6.4240932 4.4631901 6.9711871 0 0 0 0 60.877426
6.4680285 5.0777617 6.9753428 0 0 0 0 60.88237
6.4754663 5.6416664 6.9808207 0 0 0 0 60.887321
6.2371621 5.9973183 6.7379875 0 0 0 0 60.892265
6.0872707 4.4340467 6.6911821 0 0 0 0 60.897217
6.0979042 5.0110478 6.6838036 0 0 0 0 60.902161
6.0870805 5.5491014 6.6919403 0 0 0 0 60.907112
6.0513077 6.0874844 6.6909494 0 0 0 0 60.912056
5.992743 4.5760198 6.677115 0 0 0 0 60.917
5.9782915 5.142293 6.6665049 0 0 0 0 60.921951
5.9383631 5.6637263 6.664331 0 0 0 0 60.926895
5.8854966 6.1942368 6.6671786 0 0 0 0 60.931847
5.9122224 4.7286754 6.6822271 0 0 0 0 60.93679
5.8687077 5.2842984 6.6643648 0 0 0 0 60.941734
5.7966313 5.7831697 6.6488066 0 0 0 0 60.946686
5.7136354 6.2940793 6.6403084 0 0 0 0 60.95163
5.8026505 4.8608842 6.6589885 0 0 0 0 60.956581
5.7380304 5.4047227 6.639905 0 0 0 0 60.961525
5.6528778 5.8996439 6.6322432 0 0 0 0 60.966469
5.5407233 6.3879442 6.6123753 0 0 0 0 60.97142
5.6880474 4.9891539 6.6346869 0 0 0 0 60.976364
5.6063395 5.5251298 6.6184402 0 0 0 0 60.981316
5.4980536 6.0033255 6.6054974 0 0 0 0 60.986259
5.3657551 6.475832 6.584374 0 0 0 0 60.991211
5.5834737 5.1272016 6.6235337 0 0 0 0 60.996155
5.4615793 5.6317825 6.5847735 0 0 0 0 61.001099
5.3351722 6.0971556 6.5716143 0 0 0 0 61.00605
5.1806922 6.5479279 6.5451655 0 0 0 0 61.010994
5.4688435 5.2554169 6.6052332 0 0 0 0 61.015945
5.3248343 5.746243 6.5632257 0 0 0 0 61.020889
5.1692214 6.1820469 6.5346279 0 0 0 0 61.025833
4.9976101 6.6189871 6.507957 0 0 0 0 61.030785
5.3411627 5.3718767 6.5747499 0 0 0 0 61.035728
5.1840334 5.8537645 6.5395899 0 0 0 0 61.04068
5.018333 6.2855711 6.5209031 0 0 0 0 61.045624
4.8204951 6.6918945 6.4807987 0 0 0 0 61.050575
5.2144756 5.491262 6.5513015 0 0 0 0 61.055519
5.0311646 5.9465418 6.5017471 0 0 0 0 61.060463
4.8472996 6.3595562 6.4797845 0 0 0 0 61.065414
4.640326 6.7558928 6.4475374 0 0 0 0 61.070358
5.0827594 5.603766 6.5207601 0 0 0 0 61.07531
4.8782654 6.0392642 6.4699044 0 0 0 0 61.080254
4.6883063 6.4482322 6.4588728 0 0 0 0 61.085197
4.4560828 6.8099728 6.4101577 0 0 0 0 61.090149
4.9801598 5.7515597 6.534718 0 0 0 0 61.095093
4.7394257 6.147676 6.4562893 0 0 0 0 61.100044
4.5242443 6.527009 6.432838 0 0 0 0 61.104988
4.2718115 6.8610559 6.3727479 0 0 0 0 61.109932
4.9378581 5.9749484 6.6337361 0 0 0 0 61.114883
4.5915198 6.2442665 6.4335113 0 0 0 0 61.119827
4.3500934 6.5890226 6.3925853 0 0 0 0 61.124779
4.0753798 6.886426 6.3180227 0 0 0 0 61.129723
4.7066264 5.9705787 6.4835272 0 0 0 0 61.134674
4.4375453 6.3309674 6.4056048 0 0 0 0 61.139618
4.1879792 6.6637564 6.3695216 0 0 0 0 61.144562
3.8788691 6.9008498 6.2581892 0 0 0 0 61.149513
4.5426745 6.0436692 6.4254322 0 0 0 0 61.154457
4.2825603 6.4186411 6.3817029 0 0 0 0 61.159409
4.0167637 6.7226787 6.3362546 0 0 0 0 61.164352
3.6762476 6.8974533 6.1861482 0 0 0 0 61.169296
4.4088907 6.1580286 6.4129014 0 0 0 0 61.174248
4.1275339 6.5013275 6.3567519 0 0 0 0 61.179192
3.8505597 6.787467 6.3120718 0 0 0 0 61.184143
3.4715185 6.8791499 6.1069489 0 0 0 0 61.189087
4.2559752 6.2458115 6.3760095 0 0 0 0 61.194031
3.963412 6.568213 6.3205986 0 0 0 0 61.198982
3.6762514 6.8344646 6.2746716 0 0 0 0 61.203926
3.2707448 6.856801 6.0287299 0 0 0 0 61.208878
4.104517 6.3364072 6.3452563 0 0 0 0 60.968285
3.806793 6.649745 6.2987185 0 0 0 0 60.973236
3.498302 6.8733721 6.2322574 0 0 0 0 60.97818
3.0875261 6.8657684 5.9800143 0 0 0 0 60.983124
3.9575875 6.4319658 6.324472 0 0 0 0 60.988075
3.6416109 6.7135801 6.2675314 0 0 0 0 60.993019
3.312772 6.887651 6.1754837 0 0 0 0 60.997971
2.9169674 6.8936057 5.9544511 0 0 0 0 61.002914
3.8046229 6.5216246 6.2995982 0 0 0 0 61.007858
3.4774008 6.7744093 6.2363205 0 0 0 0 61.01281
3.1190979 6.8762064 6.0984154 0 0 0 0 61.017754
2.727092 6.8650608 5.8842363 0 0 0 0 61.022705
3.6586919 6.6220808 6.2888675 0 0 0 0 61.027649
3.3152115 6.8421335 6.2141871 0 0 0 0 61.032593
2.9385085 6.886405 6.0456262 0 0 0 0 61.037544
2.5544078 6.8750124 5.8494859 0 0 0 0 61.042488
3.4945726 6.6879888 6.2497044 0 0 0 0 61.04744
3.1367919 6.8693199 6.1605735 0 0 0 0 61.052383
2.7588675 6.8906074 5.9917822 0 0 0 0 61.057335
2.3887436 6.8918104 5.8238382 0 0 0 0 61.062279
3.3284304 6.7519097 6.2115116 0 0 0 0 61.067223
2.9563072 6.8875685 6.1028609 0 0 0 0 61.072174
2.5741117 6.875989 5.924727 0 0 0 0 61.077118
2.2138906 6.8788857 5.778852 0 0 0 0 61.082069
3.1663079 6.8236861 6.1844158 0 0 0 0 61.087013
2.7787874 6.9037619 6.0481434 0 0 0 0 61.091957
2.403465 6.8859925 5.8829856 0 0 0 0 61.096909
2.0430365 6.8669047 5.7358942 0 0 0 0 61.101852
2.9930272 6.8677793 6.1359921 0 0 0 0 61.106804
2.5901 6.8902912 5.9700766 0 0 0 0 61.111748
2.2266757 6.8732057 5.8259883 0 0 0 0 61.116699
1.88331 6.882556 5.7202644 0 0 0 0 61.121643
2.8156633 6.8999734 6.0814295 0 0 0 0 61.126587
2.4114485 6.8895612 5.9091859 0 0 0 0 61.131538
2.0559237 6.8712363 5.7821269 0 0 0 0 61.136482
1.7276442 6.913013 5.7207994 0 0 0 0 61.141434
2.6118915 6.858994 5.9680119 0 0 0 0 61.146378
2.2327454 6.8818631 5.8452263 0 0 0 0 61.151321
1.8902063 6.8781228 5.7483778 0 0 0 0 61.156273
1.5586283 6.8810816 5.6716537 0 0 0 0 61.161217
2.4343956 6.8742552 5.9072819 0 0 0 0 61.166168
2.0529711 6.8652086 5.7781725 0 0 0 0 61.171112
1.7326038 6.9096985 5.7389126 0 0 0 0 61.176056
1.4028316 6.892642 5.6620021 0 0 0 0 61.181007
2.250761 6.8677163 5.832305 0 0 0 0 61.185951
1.8852922 6.8712049 5.7354021 0 0 0 0 61.190903
1.5626631 6.8828268 5.6848097 0 0 0 0 61.195847
1.2439284 6.8873429 5.6411681 0 0 0 0 61.200798
2.0670264 6.8492107 5.7542095 0 0 0 0 61.205742
1.7268308 6.9177814 5.7270775 0 0 0 0 61.210686
1.4008383 6.8796635 5.6529803 0 0 0 0 61.215637
1.0828727 6.8572335 5.6030793 0 0 0 0 61.220581
1.8944732 6.8643255 5.7045007 0 0 0 0 61.225533
1.5509167 6.8861079 5.6588936 0 0 0 0 61.230476
1.2390028 6.8764839 5.6231494 0 0 0 0 61.23542
0.93001509 6.8657146 5.5994101 0 0 0 0 61.240372
1.7330837 6.9149914 5.6901989 0 0 0 0 61.245316
1.3841174 6.8791132 5.6149983 0 0 0 0 61.250267
1.0781046 6.8663068 5.5922542 0 0 0 0 61.255211
0.7781927 6.8821082 5.6038227 0 0 0 0 61.260155
1.552196 6.8785067 5.6079397 0 0 0 0 61.265106
1.2183208 6.8750629 5.5761361 0 0 0 0 61.27005
0.92023724 6.8630342 5.5684419 0 0 0 0 61.275002
0.62740386 6.9083767 5.6203375 0 0 0 0 61.279945
1.377429 6.8667407 5.5489531 0 0 0 0 61.284897
1.0545173 6.8729472 5.5423026 0 0 0 0 61.289841
0.76550859 6.8884687 5.5719266 0 0 0 0 61.294792
0.4755224 6.919755 5.6266999 0 0 0 0 61.299736
1.210759 6.8766818 5.5122218 0 0 0 0 61.30468
0.89061999 6.8569126 5.5003314 0 0 0 0 61.309631
0.61071801 6.9059348 5.5723319 0 0 0 0 61.314575
0.32250637 6.9092941 5.6178403 0 0 0 0 61.319527
1.0388716 6.8509231 5.4501109 0 0 0 0 61.324471
0.73299599 6.8914075 5.5008879 0 0 0 0 61.329422
0.45382157 6.9055514 5.5595498 0 0 0 0 61.334366
0.17048298 6.9007764 5.6140046 0 0 0 0 61.33931
0.87322503 6.8707228 5.4274802 0 0 0 0 61.344261
0.57431728 6.921885 5.5043993 0 0 0 0 61.349205
0.29790017 6.903151 5.5477529 0 0 0 0 61.354156
0.021315621 6.8684001 5.5929489 0 0 0 0 61.3591
0.70856172 6.8914661 5.4098625 0 0 0 0 61.364044
0.41129956 6.8918796 5.4592915 0 0 0 0 61.368996
0.14194758 6.8997135 5.5399442 0 0 0 0 61.37394
-0.12894519 6.8211346 5.561739 0 0 0 0 61.378891
0.54490137 6.9151525 5.3972793 0 0 0 0 61.383835
0.25037462 6.8826494 5.4353986 0 0 0 0 61.388779
-0.012968666 6.9032097 5.5382085 0 0 0 0 61.39373
-0.2761952 6.7787728 5.5375924 0 0 0 0 61.398674
0.37593073 6.8872585 5.3471584 0 0 0 0 61.403625
0.091475286 6.8803225 5.4195828 0 0 0 0 61.408569
-0.16795696 6.897738 5.5333829 0 0 0 0 61.413521
-0.42148396 6.7314143 5.511405 0 0 0 0 61.418465
0.21001309 6.8712182 5.3091698 0 0 0 0 61.423409
-0.068486258 6.8700385 5.4006829 0 0 0 0 61.42836
-0.32297036 6.8902578 5.5295358 0 0 0 0 61.433304
-0.56482136 6.6780586 5.4831676 0 0 0 0 61.438255
0.045552563 6.8724656 5.2876039 0 0 0 0 61.197746
-0.22985713 6.8989005 5.4144154 0 0 0 0 61.20269
-0.47676796 6.8544083 5.5046868 0 0 0 0 61.207634
-0.70673758 6.6290607 5.459281 0 0 0 0 61.212585
-0.12116428 6.8980403 5.2890244 0 0 0 0 61.217529
-0.38976759 6.9024491 5.4116569 0 0 0 0 61.222481
-0.62705976 6.8021669 5.4704332 0 0 0 0 61.227425
-0.84515017 6.5666666 5.4289894 0 0 0 0 61.232376
-0.28711328 6.8868451 5.2660885 0 0 0 0 61.23732
-0.55360717 6.9218817 5.4250317 0 0 0 0 61.242264
-0.77729017 6.7637911 5.450314 0 0 0 0 61.247215
-0.98252827 6.5121861 5.4067793 0 0 0 0 61.252159
-0.45300049 6.8895149 5.257287 0 0 0 0 61.257111
-0.7155962 6.9184356 5.4241915 0 0 0 0 61.262054
-0.92364603 6.7045259 5.415009 0 0 0 0 61.266998
-1.1159903 6.4437671 5.3744516 0 0 0 0 61.27195
-0.62376356 6.9140673 5.2656736 0 0 0 0 61.276894
-0.87474304 6.8891397 5.4051118 0 0 0 0 61.281845
-1.0699732 6.6541553 5.39079 0 0 0 0 61.286789
-1.2503812 6.3902225 5.3562632 0 0 0 0 61.29174
-0.78789419 6.87994 5.234519 0 0 0 0 61.296684
-1.0358645 6.8667874 5.3940887 0 0 0 0 61.301636
-1.2133207 6.601758 5.3665657 0 0 0 0 61.30658
-1.3808583 6.3246999 5.3319764 0 0 0 0 61.311523
-0.95681494 6.8845482 5.2357178 0 0 0 0 61.316475
-1.1930811 6.8314581 5.3769574 0 0 0 0 61.321419
-1.356698 6.5463629 5.3423095 0 0 0 0 61.32637
-1.5014871 6.2313089 5.2844672 0 0 0 0 61.331314
-1.1297613 6.8881683 5.2398839 0 0 0 0 61.336258
-1.3464475 6.7722507 5.3436112 0 0 0 0 61.341209
-1.4912388 6.4640694 5.2988353 0 0 0 0 61.346153
-1.6338816 6.1846232 5.2793517 0 0 0 0 61.351105
-1.3026866 6.8977222 5.2511077 0 0 0 0 61.356049
-1.498835 6.7120156 5.3122587 0 0 0 0 61.361
-1.6326267 6.412571 5.2836251 0 0 0 0 61.365944
-1.7524874 6.0991182 5.2419267 0 0 0 0 61.370888
-1.4737486 6.8873677 5.2511449 0 0 0 0 61.375839
-1.6511743 6.6626749 5.2920113 0 0 0 0 61.380783
-1.7651762 6.3322139 5.2451763 0 0 0 0 61.385735
-1.8740374 6.0274959 5.2196212 0 0 0 0 61.390678
-1.6517527 6.8899565 5.2642708 0 0 0 0 61.395622
-1.7976451 6.5924163 5.2575879 0 0 0 0 61.400574
-1.8967018 6.2597508 5.2168093 0 0 0 0 61.405518
-1.9985205 5.9697771 5.2104344 0 0 0 0 61.410469
-1.8199772 6.857677 5.2541051 0 0 0 0 61.415413
-1.9441193 6.5251012 5.2291918 0 0 0 0 61.420357
-2.0380697 6.2191005 5.2177005 0 0 0 0 61.425308
-2.1160975 5.8961105 5.1891265 0 0 0 0 61.430252
-1.981398 6.7935495 5.2216606 0 0 0 0 61.435204
-2.0895963 6.4597392 5.2048182 0 0 0 0 61.440147
-2.1666548 6.1396317 5.1872768 0 0 0 0 61.445099
-2.2307231 5.8164363 5.1657729 0 0 0 0 61.450043
-2.1418333 6.732336 5.1972485 0 0 0 0 61.454987
-2.234108 6.3903799 5.179409 0 0 0 0 61.459938
-2.2922573 6.0601063 5.1598663 0 0 0 0 61.464882
-2.3482857 5.7486935 5.1525202 0 0 0 0 61.469833
-2.2973442 6.6591558 5.1647425 0 0 0 0 61.474777
-2.3726974 6.3110037 5.1499305 0 0 0 0 61.479721
-2.4148946 5.9765635 5.1314306 0 0 0 0 61.484673
-2.4549656 5.6609941 5.1241264 0 0 0 0 61.489616
-2.4538732 6.5869384 5.137239 0 0 0 0 61.494568
-2.5122752 6.23559 5.1254845 0 0 0 0 61.499512
-2.541497 5.9009824 5.1110497 0 0 0 0 61.504456
-2.5626395 5.5772462 5.1017647 0 0 0 0 61.509407
-2.6074376 6.5116844 5.1107192 0 0 0 0 61.514351
-2.6479156 6.1511889 5.0959687 0 0 0 0 61.519302
-2.6601713 5.8143945 5.0836015 0 0 0 0 61.524246
-2.6703105 5.4954705 5.0824208 0 0 0 0 61.529198
-2.7580504 6.4294429 5.0801449 0 0 0 0 61.534142
-2.7776058 6.060751 5.0644226 0 0 0 0 61.539085
-2.7758763 5.7247791 5.0561371 0 0 0 0 61.544037
-2.7720294 5.4056969 5.0570283 0 0 0 0 61.548981
-2.9047182 6.3411751 5.0485291 0 0 0 0 61.553932
-2.9231281 6.0041652 5.0641246 0 0 0 0 61.558876
-2.9500008 5.748744 5.1304803 0 0 0 0 61.56382
-2.8717504 5.3168855 5.0336542 0 0 0 0 61.568771
-3.0504086 6.2528601 5.0209169 0 0 0 0 61.573715
-3.1132333 6.0283203 5.1353841 0 0 0 0 61.578667
-3.1261752 5.7687111 5.2067714 0 0 0 0 61.583611
-3.09147 5.4382739 5.2127132 0 0 0 0 61.588562
-3.1891763 6.1535382 4.9872308 0 0 0 0 61.593506
-3.2865636 6.0145874 5.1783576 0 0 0 0 61.59845
-3.2459068 5.6820416 5.1893101 0 0 0 0 61.603401
-3.1922479 5.3454461 5.1922908 0 0 0 0 61.608345
-3.3339002 6.0641785 4.9636092 0 0 0 0 61.613297
-3.4212883 5.9290586 5.1618266 0 0 0 0 61.61824
-3.3477967 5.5664349 5.147656 0 0 0 0 61.623184
-3.2890451 5.24862 5.1678481 0 0 0 0 61.628136
-3.5083454 6.0296302 4.989368 0 0 0 0 61.63308
-3.5451462 5.8225632 5.131144 0 0 0 0 61.638031
-3.4685297 5.4846892 5.1392336 0 0 0 0 61.642975
-3.3838589 5.1507659 5.1444044 0 0 0 0 61.647919
-3.7215004 6.0509815 5.0644712 0 0 0 0 61.65287
-3.6630301 5.7130203 5.099462 0 0 0 0 61.657814
-3.5813339 5.3909569 5.1217332 0 0 0 0 61.662766
-3.4826386 5.0618529 5.1310253 0 0 0 0 61.667709
-3.8800685 5.9754939 5.0650401 0 0 0 0 61.738617
-3.7847636 5.6093922 5.076941 0 0 0 0 61.743568
-3.6781182 5.2771869 5.0882382 0 0 0 0 61.748512
-3.5733485 4.9619198 5.1076932 0 0 0 0 61.753464
-4.0149755 5.8670688 5.0392699 0 0 0 0 61.758408
-3.9076376 5.5077863 5.0573025 0 0 0 0 61.763359
-3.7839758 5.1774106 5.0687084 0 0 0 0 61.768303
-3.6661823 4.8679533 5.0942898 0 0 0 0 61.773247
-4.1469297 5.7546058 5.0144739 0 0 0 0 61.778198
-4.0116343 5.3841739 5.0195441 0 0 0 0 61.783142
-3.8948135 5.0845962 5.058218 0 0 0 0 61.788094
-3.7540348 4.7689986 5.074861 0 0 0 0 61.793037
-4.2729421 5.6331463 4.9836183 0 0 0 0 61.797981
-4.1225991 5.271493 4.9958553 0 0 0 0 61.802933
-3.9907463 4.9747744 5.0336375 0 0 0 0 61.807877
-3.8389037 4.6690054 5.056437 0 0 0 0 61.812828
-4.4029317 5.5206079 4.9648266 0 0 0 0 61.817772
-4.2454967 5.1737833 4.9872484 0 0 0 0 61.822716
-4.0896683 4.8699141 5.0160875 0 0 0 0 61.827667
-3.92577 4.5710034 5.0410199 0 0 0 0 61.832611
-4.5259748 5.4000525 4.9409914 0 0 0 0 61.837563
-4.3495135 5.0550566 4.9615326 0 0 0 0 61.842506
-4.1816249 4.7590356 4.9935141 0 0 0 0 61.847458
-4.01264 4.4749627 5.0296202 0 0 0 0 61.852402
-4.6430736 5.272469 4.914115 0 0 0 0 61.857346
-4.462492 4.9472909 4.948875 0 0 0 0 61.862297
-4.2745843 4.6501284 4.9749527 0 0 0 0 61.867241
-4.0875654 4.3669238 5.0061636 0 0 0 0 61.872192
-4.7621565 5.149848 4.8932753 0 0 0 0 61.877136
-4.5655332 4.8285179 4.9271593 0 0 0 0 61.88208
-4.3635697 4.5381932 4.95538 0 0 0 0 61.887032
-4.1674714 4.2658467 4.9917479 0 0 0 0 61.891975
-4.8782754 5.0232086 4.8714094 0 0 0 0 61.896927
-4.6616154 4.7046967 4.9034286 0 0 0 0 61.901871
-4.4585357 4.433229 4.9448433 0 0 0 0 61.906815
-4.2463851 4.1657305 4.9803452 0 0 0 0 61.911766
-4.9834647 4.8875017 4.8455095 0 0 0 0 61.91671
-4.7636676 4.5888462 4.8887434 0 0 0 0 61.921661
-4.5405531 4.3172469 4.923264 0 0 0 0 61.926605
-4.3163457 4.0556254 4.9588895 0 0 0 0 61.931557
-5.0946188 4.7597761 4.8276548 0 0 0 0 61.936501
-4.8577843 4.4639683 4.8690081 0 0 0 0 61.941444
-4.6186028 4.198226 4.9016738 0 0 0 0 61.946396
-4.3922677 3.9554715 4.9484987 0 0 0 0 61.95134
-5.1948514 4.6200233 4.8017364 0 0 0 0 61.956291
-4.9439211 4.335052 4.8452744 0 0 0 0 61.961235
-4.7046218 4.0871964 4.8891187 0 0 0 0 61.966179
-4.467226 3.8522987 4.9390817 0 0 0 0 61.97113
-5.2950888 4.4832115 4.7818451 0 0 0 0 61.976074
-5.0410352 4.215127 4.8335681 0 0 0 0 61.981026
-4.779685 3.9681282 4.8695402 0 0 0 0 61.98597
-4.529211 3.7401175 4.9176431 0 0 0 0 61.990921
-5.3953338 4.3473716 4.7649617 0 0 0 0 61.995865
-5.1212163 4.0831332 4.811831 0 0 0 0 62.000809
-4.8507586 3.8470414 4.8479609 0 0 0 0 62.00576
-4.5951853 3.6329069 4.9032302 0 0 0 0 62.010704
-5.4876142 4.205503 4.7430582 0 0 0 0 62.015656
-5.2004046 3.9511209 4.7910976 0 0 0 0 62.020599
-4.9338212 3.7359152 4.8424149 0 0 0 0 62.025543
-4.6621733 3.5266674 4.8928199 0 0 0 0 62.030495
-5.5789075 4.0645862 4.7251678 0 0 0 0 62.035439
-5.2855883 3.82409 4.7783785 0 0 0 0 62.04039
-5.003921 3.6157606 4.8268466 0 0 0 0 62.045334
-4.718174 3.4144089 4.8734069 0 0 0 0 62.050278
-5.651269 3.9106004 4.6952462 0 0 0 0 62.055229
-5.3648081 3.6930101 4.7646489 0 0 0 0 62.060173
-5.0710368 3.493587 4.8102722 0 0 0 0 62.065125
-4.7881622 3.3121314 4.8700166 0 0 0 0 62.070068
-5.7545681 3.7776558 4.6923647 0 0 0 0 62.07502
-5.4350381 3.5579014 4.744926 0 0 0 0 62.079964
-5.1391563 3.3733842 4.7977099 0 0 0 0 62.084908
-4.8401957 3.1968348 4.8505912 0 0 0 0 62.089859
-5.816958 3.6205826 4.6614623 0 0 0 0 62.094803
-5.5092816 3.4247739 4.7311988 0 0 0 0 62.099754
-5.2062931 3.2521627 4.7861414 0 0 0 0 62.104698
-4.9002199 3.0885088 4.8421907 0 0 0 0 62.109642
-5.9043283 3.4775407 4.6525621 0 0 0 0 62.114594
-5.57055 3.2855873 4.7104797 0 0 0 0 62.119537
-5.2634387 3.1269019 4.7685843 0 0 0 0 62.124489
-4.961247 2.981174 4.835793 0 0 0 0 62.129433
-5.9797244 3.3294296 4.6386733 0 0 0 0 62.134384
-5.6368322 3.1483917 4.6957507 0 0 0 0 62.139328
-5.3235989 3.0036116 4.7570291 0 0 0 0 62.144272
-5.0143037 2.8687994 4.825386 0 0 0 0 62.149223
-6.0331573 3.170239 4.6107912 0 0 0 0 62.154167
-5.7170973 3.0211868 4.6960435 0 0 0 0 62.159119
-5.3867722 2.8813126 4.749465 0 0 0 0 62.164062
-5.0563478 2.7524159 4.804997 0 0 0 0 62.169006
-6.1145816 3.0250902 4.606895 0 0 0 0 62.173958
-5.7704077 2.8798926 4.6783395 0 0 0 0 62.178902
