# .PCD v0.7 - Point Cloud Data file format
VERSION 0.7
FIELDS x y z normal_x normal_y normal_z intensity curvature
SIZE 4 4 4 4 4 4 4 4
TYPE F F F F F F F F
COUNT 1 1 1 1 1 1 1 1
WIDTH 928
HEIGHT 1
VIEWPOINT 0 0 0 1 0 0 0
POINTS 928
DATA ascii
-2.0249722 -2.0742061 -0.023105608 0 0 0 0 26.21624
-1.8966727 -2.1978495 -0.27764139 0 0 0 0 26.221186
-1.9258832 -2.170747 -0.18573208 0 0 0 0 26.226131
-1.9611226 -2.155591 -0.1058614 0 0 0 0 26.231079
-1.9893087 -2.1314862 -0.023950245 0 0 0 0 26.236027
-1.8651035 -2.2681003 -0.27751821 0 0 0 0 26.240974
-1.9013568 -2.2479486 -0.18664692 0 0 0 0 26.245922
-1.9285103 -2.2198498 -0.10572722 0 0 0 0 26.250868
-1.9546638 -2.1917577 -0.024802929 0 0 0 0 26.255814
-1.8305252 -2.3373709 -0.27738115 0 0 0 0 26.260761
-1.8617157 -2.308254 -0.18647829 0 0 0 0 26.265709
-1.8918778 -2.2821336 -0.10657374 0 0 0 0 26.270657
-1.9210328 -2.2550204 -0.026663596 0 0 0 0 26.275602
-1.7919375 -2.4056678 -0.27722582 0 0 0 0 26.28055
-1.8291501 -2.3805089 -0.18735336 0 0 0 0 26.285496
-1.8623183 -2.3553681 -0.10746289 0 0 0 0 26.290443
-1.8884246 -2.3212757 -0.027532224 0 0 0 0 26.295391
-1.754935 -2.4771624 -0.27671647 0 0 0 0 26.446093
-1.7921294 -2.4500077 -0.18683906 0 0 0 0 26.451038
-1.8202266 -2.4149044 -0.1069144 0 0 0 0 26.455986
-1.8513528 -2.3847797 -0.02800755 0 0 0 0 26.460934
-1.718387 -2.5534377 -0.27658111 0 0 0 0 26.465881
-1.7535336 -2.5192969 -0.18668784 0 0 0 0 26.470829
-1.7805926 -2.4791996 -0.10775375 0 0 0 0 26.475775
-1.8187647 -2.4560285 -0.028883882 0 0 0 0 26.480721
-1.6798319 -2.6297243 -0.27743763 0 0 0 0 26.485668
-1.7189844 -2.5965571 -0.18756238 0 0 0 0 26.490616
-1.7510828 -2.5624261 -0.10865562 0 0 0 0 26.495564
-1.7781099 -2.5183284 -0.030717289 0 0 0 0 26.500509
-1.6392785 -2.7060237 -0.27728608 0 0 0 0 26.505457
-1.678417 -2.6708567 -0.1874086 0 0 0 0 26.510403
-1.7124903 -2.6337121 -0.10950729 0 0 0 0 26.51535
-1.742537 -2.5925944 -0.031584669 0 0 0 0 26.520298
-1.5997622 -2.7883148 -0.27714536 0 0 0 0 26.525246
-1.6398758 -2.7501407 -0.18826893 0 0 0 0 26.530191
-1.6708821 -2.7030165 -0.11034469 0 0 0 0 26.535139
-1.7059506 -2.6658649 -0.033447288 0 0 0 0 26.540085
-1.5572388 -2.8706236 -0.27799234 0 0 0 0 26.545033
-1.5962987 -2.8244567 -0.18910348 0 0 0 0 26.54998
-1.6374061 -2.7932651 -0.11223757 0 0 0 0 26.554928
-1.6693946 -2.7441337 -0.035315324 0 0 0 0 26.559874
-1.5137299 -2.9549382 -0.27783763 0 0 0 0 26.564819
-1.5568244 -2.9147441 -0.18997146 0 0 0 0 26.569767
-1.5897863 -2.8616064 -0.11304956 0 0 0 0 26.574715
-1.6278229 -2.8204346 -0.037160572 0 0 0 0 26.579662
-1.4682403 -3.0432637 -0.27867889 0 0 0 0 26.58461
-1.5133013 -2.9980569 -0.1908161 0 0 0 0 26.589556
-1.5482692 -2.9459062 -0.11390352 0 0 0 0 26.594501
-1.5892878 -2.902714 -0.039025087 0 0 0 0 26.599449
-1.4177256 -3.1276212 -0.2784957 0 0 0 0 26.604397
-1.4657751 -3.0813942 -0.19164436 0 0 0 0 26.609344
-1.5057646 -3.03321 -0.11575673 0 0 0 0 26.61429
-1.5457433 -2.984025 -0.040867928 0 0 0 0 26.619238
-1.1551106 -2.7143977 -0.23694178 0 0 0 0 26.624184
-1.2539601 -2.8028204 -0.17043386 0 0 0 0 26.629131
-1.4622766 -3.1235187 -0.11760923 0 0 0 0 26.634079
-1.4991766 -3.0623541 -0.042695813 0 0 0 0 26.639027
-1.1115547 -2.7927012 -0.23778728 0 0 0 0 26.643972
-1.1545763 -2.7504947 -0.1639186 0 0 0 0 26.64892
-1.1895124 -2.7023308 -0.10100998 0 0 0 0 26.653866
-1.4546809 -3.1526673 -0.045544494 0 0 0 0 26.658813
-1.0670676 -2.8820095 -0.23863985 0 0 0 0 26.663761
-1.1110237 -2.829797 -0.16476543 0 0 0 0 26.668709
-1.1499683 -2.7836063 -0.1028754 0 0 0 0 26.673655
-1.1889151 -2.7384145 -0.041986141 0 0 0 0 26.6786
-1.0246383 -2.981302 -0.24051115 0 0 0 0 26.683548
-1.068555 -2.92309 -0.16663063 0 0 0 0 26.688496
-1.1084472 -2.8688934 -0.10473682 0 0 0 0 26.693443
-1.147355 -2.8177023 -0.043841515 0 0 0 0 26.698391
-0.9751361 -3.0686405 -0.24034207 0 0 0 0 26.703337
-1.0230765 -3.0154011 -0.16848285 0 0 0 0 26.708282
-1.0629233 -2.954205 -0.10658207 0 0 0 0 26.71323
-1.1048073 -2.8999939 -0.046696201 0 0 0 0 26.718178
-0.92471951 -3.1709816 -0.24218395 0 0 0 0 26.723125
-0.97356677 -3.1027377 -0.16931421 0 0 0 0 26.728073
-1.0204997 -3.0554953 -0.10845592 0 0 0 0 26.733019
-1.0613254 -2.9922912 -0.04855695 0 0 0 0 26.737965
-0.87129718 -3.272341 -0.2430131 0 0 0 0 26.742912
-0.92519158 -3.2120643 -0.17117159 0 0 0 0 26.74786
-0.97102112 -3.1488292 -0.11029345 0 0 0 0 26.752808
-1.0127783 -3.0756187 -0.051388826 0 0 0 0 26.757753
-0.81388634 -3.3767235 -0.24482924 0 0 0 0 26.762701
-0.87074846 -3.3114281 -0.17299508 0 0 0 0 26.767647
-0.91956735 -3.2471733 -0.11312818 0 0 0 0 26.772594
-0.96633732 -3.175931 -0.054246042 0 0 0 0 26.777542
-0.75658095 -3.4981036 -0.2466625 0 0 0 0 26.78249
-0.81537873 -3.422796 -0.1748267 0 0 0 0 26.787436
-0.86718053 -3.3565218 -0.11597003 0 0 0 0 26.792381
-0.91490811 -3.2792726 -0.058086023 0 0 0 0 26.797329
-0.69425869 -3.6175137 -0.24847393 0 0 0 0 26.802277
-0.75604355 -3.5401876 -0.17664827 0 0 0 0 26.807224
-0.80976224 -3.4609013 -0.11778716 0 0 0 0 26.812172
-0.85841566 -3.3726459 -0.060896549 0 0 0 0 26.817118
-0.62906212 -3.7579391 -0.25129387 0 0 0 0 26.822063
-0.69169384 -3.6566081 -0.17944911 0 0 0 0 26.827011
-0.74737448 -3.5713096 -0.12059023 0 0 0 0 26.831959
-0.80406862 -3.4900024 -0.064739034 0 0 0 0 26.836906
-0.56092423 -3.9083812 -0.25411186 0 0 0 0 26.841854
-0.62646085 -3.7920322 -0.18226483 0 0 0 0 26.8468
-0.68610579 -3.7017078 -0.12441736 0 0 0 0 26.851746
-0.74474299 -3.6113889 -0.068565503 0 0 0 0 26.856693
-0.48474315 -4.0528717 -0.2568922 0 0 0 0 26.861641
-0.55836266 -3.9494722 -0.18509004 0 0 0 0 26.866589
-0.62088329 -3.8401294 -0.1282365 0 0 0 0 26.871534
-0.68144703 -3.7387979 -0.073382072 0 0 0 0 26.876482
-0.40362453 -4.2073922 -0.25866264 0 0 0 0 26.881428
-0.4832297 -4.1029539 -0.18888365 0 0 0 0 26.886375
-0.5486728 -3.9805937 -0.13102978 0 0 0 0 26.891323
-0.61626446 -3.8842175 -0.0772084 0 0 0 0 26.896271
-0.31766489 -4.3899379 -0.26344025 0 0 0 0 26.901217
-0.40110821 -4.2584777 -0.19165163 0 0 0 0 26.906164
-0.47256905 -4.1400785 -0.13582572 0 0 0 0 26.91111
-0.54304361 -4.0256834 -0.082999177 0 0 0 0 26.916058
-0.22045603 -4.5595717 -0.26434356 0 0 0 0 27.368008
-0.30991596 -4.426106 -0.1945601 0 0 0 0 27.372955
-0.38938406 -4.3036861 -0.13974777 0 0 0 0 27.377903
-0.46280435 -4.1743016 -0.086905845 0 0 0 0 27.382851
-0.11850912 -4.7581706 -0.26809102 0 0 0 0 27.387796
-0.21590123 -4.6136584 -0.19932771 0 0 0 0 27.392744
-0.29925284 -4.4712172 -0.14451221 0 0 0 0 27.39769
-0.3806408 -4.3367848 -0.092695907 0 0 0 0 27.402637
-0.0084611624 -5.6477928 -0.30841345 0 0 0 0 27.407585
-0.11171237 -4.7712684 -0.20203175 0 0 0 0 27.412533
-0.2031976 -4.6527791 -0.14926773 0 0 0 0 27.417479
-0.28950298 -4.5053172 -0.099458322 0 0 0 0 27.422424
0.12090455 -5.5985532 -0.29784229 0 0 0 0 27.427372
-0.0015733852 -5.6428967 -0.23333773 0 0 0 0 27.43232
-0.11721682 -5.7242694 -0.18183884 0 0 0 0 27.437267
-0.19348745 -4.6958752 -0.10622283 0 0 0 0 27.442215
0.24757726 -5.4942951 -0.28423646 0 0 0 0 27.447161
0.12686542 -5.5836439 -0.22676338 0 0 0 0 27.452106
0.014461497 -5.6260343 -0.17821731 0 0 0 0 27.457054
-0.10336921 -5.7433929 -0.13175629 0 0 0 0 27.462002
0.37652507 -5.5190406 -0.27773732 0 0 0 0 27.466949
0.25436598 -5.513382 -0.22018604 0 0 0 0 27.471897
0.14382939 -5.5827789 -0.17765547 0 0 0 0 27.476843
0.028523372 -5.6111507 -0.13310662 0 0 0 0 27.481789
0.50181526 -5.4827628 -0.26820177 0 0 0 0 27.486736
0.38243857 -5.5181174 -0.21567464 0 0 0 0 27.491684
0.2712979 -5.5205102 -0.17508732 0 0 0 0 27.496632
0.1569307 -5.5628839 -0.13554615 0 0 0 0 27.501577
0.6385237 -5.5505433 -0.26371628 0 0 0 0 27.506525
0.50868219 -5.4938369 -0.21214783 0 0 0 0 27.511471
0.39940155 -5.5232382 -0.17557603 0 0 0 0 27.516418
0.28431702 -5.5186062 -0.13899598 0 0 0 0 27.521366
0.64734107 -5.5726228 -0.21066636 0 0 0 0 27.53126
0.52848804 -5.5289674 -0.17606647 0 0 0 0 27.536205
0.41336152 -5.5343337 -0.14349431 0 0 0 0 27.541153
0.54343504 -5.5450616 -0.14798729 0 0 0 0 27.560942
1.2088412 -3.6286907 -0.12973692 0 0 0 0 27.684616
1.1984791 -3.3406155 -0.11551143 0 0 0 0 27.704405
1.2208127 -3.6467335 -0.12168492 0 0 0 0 27.709351
1.7512811 -5.5826592 -0.18538721 0 0 0 0 27.714298
1.2460905 -3.2398605 -0.10823429 0 0 0 0 27.724194
1.2035724 -3.3376172 -0.11046725 0 0 0 0 27.729139
1.2270715 -3.6197348 -0.12361591 0 0 0 0 27.734087
1.1667725 -3.6823874 -0.13188328 0 0 0 0 27.739033
1.3489408 -3.2784088 -0.1048758 0 0 0 0 27.74398
1.2502111 -3.2328537 -0.1051912 0 0 0 0 27.748928
1.1861457 -3.2524865 -0.11243555 0 0 0 0 27.753876
1.1388142 -3.322211 -0.1226612 0 0 0 0 27.758821
1.360968 -3.290441 -0.10482158 0 0 0 0 27.768715
1.320582 -3.3722012 -0.11803229 0 0 0 0 27.773663
1.2022432 -3.2595346 -0.12436038 0 0 0 0 27.77861
1.3810554 -3.2995067 -0.1167362 0 0 0 0 27.793449
1.3850576 -3.4975076 -0.13688417 0 0 0 0 27.798397
1.4278256 -3.371712 -0.13660857 0 0 0 0 27.818186
2.6954365 -5.2911868 -0.23073001 0 0 0 0 27.595638
2.3099151 -3.7390127 -0.10681854 0 0 0 0 27.62532
2.9127042 -5.1103015 -0.23676325 0 0 0 0 27.635214
2.3506665 -3.6172001 -0.10155753 0 0 0 0 27.645107
2.313381 -3.6969461 -0.14076155 0 0 0 0 27.650055
2.2899299 -3.8087671 -0.18394178 0 0 0 0 27.655003
3.3882375 -4.7620358 -0.081714012 0 0 0 0 27.659948
2.3422353 -3.5580628 -0.13853064 0 0 0 0 27.669842
2.3010044 -3.6307838 -0.1817425 0 0 0 0 27.674789
3.4194989 -4.7680907 -0.1276091 0 0 0 0 27.684685
3.3166158 -4.7894483 -0.18600507 0 0 0 0 27.689631
2.3496969 -3.5220091 -0.1824653 0 0 0 0 27.694578
3.5369775 -4.6986837 -0.12412485 0 0 0 0 27.704472
3.4132557 -4.6929231 -0.18557307 0 0 0 0 27.709419
3.2875652 -4.6821527 -0.24802352 0 0 0 0 27.714367
3.8219934 -4.6672773 -0.058063246 0 0 0 0 27.719313
3.6494818 -4.6242447 -0.1206573 0 0 0 0 27.724258
3.4840839 -4.5612516 -0.18420768 0 0 0 0 27.729206
3.4110329 -4.6197705 -0.25352436 0 0 0 0 27.734154
3.8987401 -4.5456367 -0.049689867 0 0 0 0 27.739101
3.760011 -4.5447903 -0.11719542 0 0 0 0 27.744049
3.6174572 -4.5129232 -0.1856879 0 0 0 0 27.748995
3.528528 -4.551352 -0.25804463 0 0 0 0 27.753941
4.0052719 -4.4621587 -0.041242935 0 0 0 0 27.758888
3.8198466 -4.4080529 -0.11187136 0 0 0 0 27.763836
3.7369244 -4.4465137 -0.18620624 0 0 0 0 27.768784
3.6589575 -4.4949994 -0.26353118 0 0 0 0 27.773729
4.1207547 -4.3877254 -0.033773959 0 0 0 0 27.778677
3.9442754 -4.3456688 -0.10837867 0 0 0 0 27.783623
3.8653486 -4.3881483 -0.18770194 0 0 0 0 27.78857
3.7824347 -4.4296045 -0.26903826 0 0 0 0 27.793518
4.2302756 -4.3052564 -0.025322486 0 0 0 0 27.798466
4.0746837 -4.287312 -0.10587082 0 0 0 0 27.803411
3.9937816 -4.3277779 -0.18919899 0 0 0 0 27.808359
3.9148743 -4.3712535 -0.27552202 0 0 0 0 27.813305
4.29005 -4.1765084 -0.018013405 0 0 0 0 27.818253
4.200119 -4.2229242 -0.10237883 0 0 0 0 27.8232
4.1192565 -4.2593875 -0.19070294 0 0 0 0 27.828148
4.0463333 -4.3088918 -0.28200907 0 0 0 0 27.833094
4.0722227 -3.7892399 -0.0094826967 0 0 0 0 27.838039
4.3196054 -4.1494989 -0.099903546 0 0 0 0 27.842987
4.2507014 -4.1960244 -0.19219276 0 0 0 0 27.847935
4.1758251 -4.2395163 -0.28750038 0 0 0 0 27.852882
4.135891 -3.6775146 -0.002174852 0 0 0 0 27.85783
4.0878315 -3.7491603 -0.089409806 0 0 0 0 27.862776
4.2707262 -4.0220542 -0.18899013 0 0 0 0 27.867722
4.307323 -4.1691456 -0.29398683 0 0 0 0 27.872669
4.2015324 -3.5707967 0.0041340385 0 0 0 0 27.877617
4.1495228 -3.6344202 -0.085107848 0 0 0 0 27.882565
4.1384063 -3.7212615 -0.17922361 0 0 0 0 27.88751
4.4019976 -4.0635729 -0.29757771 0 0 0 0 27.892458
4.2910633 -3.483207 0.011509869 0 0 0 0 27.897404
4.2191653 -3.5287199 -0.081787013 0 0 0 0 27.902351
4.2080913 -3.6095588 -0.17889762 0 0 0 0 27.907299
4.5812831 -4.0334496 -0.3069346 0 0 0 0 27.912247
4.4044914 -3.4147425 0.017951963 0 0 0 0 27.917192
4.3286452 -3.4532311 -0.07935252 0 0 0 0 27.92214
4.2468934 -3.4746881 -0.17766327 0 0 0 0 27.927086
4.7177982 -3.9590912 -0.31440961 0 0 0 0 27.932034
4.56673 -3.3805373 0.02553484 0 0 0 0 27.936981
4.4660029 -3.3998888 -0.076840945 0 0 0 0 27.941929
4.4032021 -3.4344435 -0.18109539 0 0 0 0 27.946875
4.8722615 -3.8938241 -0.32183239 0 0 0 0 27.95182
4.6682367 -3.2960002 0.032942407 0 0 0 0 27.956768
4.5993977 -3.33952 -0.074340679 0 0 0 0 27.961716
4.8085923 -3.5725193 -0.19380534 0 0 0 0 27.966663
4.9530253 -3.7691603 -0.32546782 0 0 0 0 27.971611
4.7906761 -3.2235715 0.040410712 0 0 0 0 27.976557
4.7318163 -3.2741413 -0.071842857 0 0 0 0 27.981503
4.6770496 -3.3077328 -0.18506776 0 0 0 0 27.98645
4.7687378 -3.4530945 -0.31187314 0 0 0 0 27.991398
4.9290757 -3.1582234 0.047925904 0 0 0 0 27.996346
4.8652639 -3.2027636 -0.069339655 0 0 0 0 28.001291
4.8035355 -3.2323141 -0.18758526 0 0 0 0 28.006239
4.7507691 -3.2709105 -0.30880675 0 0 0 0 28.011185
5.0625048 -3.086844 0.055425484 0 0 0 0 28.016132
5.0076933 -3.1344283 -0.066810951 0 0 0 0 28.02108
4.9459815 -3.1639755 -0.1900562 0 0 0 0 28.026028
4.8882685 -3.1955421 -0.31628892 0 0 0 0 28.030973
5.204988 -3.0187602 0.063291058 0 0 0 0 27.780176
5.1472263 -3.0623078 -0.064961344 0 0 0 0 27.785122
5.0805717 -3.0858078 -0.19222859 0 0 0 0 27.79007
5.0258746 -3.1193712 -0.32346085 0 0 0 0 27.795017
5.3594165 -2.9495173 0.070878543 0 0 0 0 27.799965
5.286716 -2.9849792 -0.062420554 0 0 0 0 27.804911
5.2370367 -3.0165682 -0.19563326 0 0 0 0 27.809856
5.1783791 -3.0461059 -0.33187622 0 0 0 0 27.814804
5.5208383 -2.8803082 0.07948745 0 0 0 0 27.819752
6.101294 -3.26334 -0.066761516 0 0 0 0 27.824699
5.3905344 -2.9403074 -0.19804639 0 0 0 0 27.829647
5.3398952 -2.9708836 -0.3412613 0 0 0 0 27.834593
5.5506506 -2.7403717 0.085681066 0 0 0 0 27.839539
6.2888107 -3.181251 -0.064058669 0 0 0 0 27.844486
6.2302308 -3.2127655 -0.22530475 0 0 0 0 27.849434
5.5104027 -2.8967044 -0.35061902 0 0 0 0 27.854382
6.214807 -2.8988998 0.10288581 0 0 0 0 27.859327
6.4634013 -3.0850854 -0.061394557 0 0 0 0 27.864275
6.4058518 -3.1146007 -0.22863515 0 0 0 0 27.869221
5.8066487 -2.8761954 -0.36857834 0 0 0 0 27.874168
5.9085078 -2.5971189 0.10301097 0 0 0 0 27.879116
6.652977 -2.9909945 -0.058683142 0 0 0 0 27.884064
6.6034451 -3.0215476 -0.23289607 0 0 0 0 27.889009
5.656971 -2.6362841 -0.35794264 0 0 0 0 27.893957
6.9101205 -2.8534486 0.12731163 0 0 0 0 27.898903
6.845571 -2.8929129 -0.055962238 0 0 0 0 27.903851
6.8000674 -2.9224823 -0.2371601 0 0 0 0 27.908798
5.759685 -2.5197265 -0.36451486 0 0 0 0 27.913746
7.1077003 -2.7523932 0.13804786 0 0 0 0 27.918692
7.055172 -2.7929161 -0.053184327 0 0 0 0 27.923637
6.9737782 -2.8062863 -0.24149546 0 0 0 0 27.928585
5.7097192 -2.3353524 -0.36057147 0 0 0 0 27.933533
7.3212857 -2.6504159 0.14783648 0 0 0 0 27.93848
7.2648015 -2.6869118 -0.050406318 0 0 0 0 27.943428
6.4368515 -2.4162912 -0.22110638 0 0 0 0 27.948374
5.6317549 -2.1488314 -0.35572422 0 0 0 0 27.95332
4.9816661 -1.678706 0.10237748 0 0 0 0 27.958267
7.4834576 -2.5759475 -0.048597559 0 0 0 0 27.963215
6.2441382 -2.1801467 -0.21262769 0 0 0 0 27.968163
5.6266255 -1.9946989 -0.35464758 0 0 0 0 27.973108
5.6931205 -1.7794271 0.12275745 0 0 0 0 27.978056
5.0295982 -1.6037308 -0.032426778 0 0 0 0 27.983002
5.5002232 -1.7790861 -0.18693499 0 0 0 0 27.987949
5.5286369 -1.8090769 -0.34786949 0 0 0 0 27.992897
5.5501218 -1.5995591 0.12337284 0 0 0 0 27.997845
4.9574151 -1.4562542 -0.029583871 0 0 0 0 28.00279
4.9548116 -1.4741017 -0.16761507 0 0 0 0 28.007738
5.5264521 -1.6639614 -0.34778988 0 0 0 0 28.012684
5.4969392 -1.4521745 0.12627637 0 0 0 0 28.017632
5.0339847 -1.3555679 -0.027261557 0 0 0 0 28.022579
6.3656678 -1.732439 -0.21195647 0 0 0 0 28.027527
5.4813051 -1.5086213 -0.34485129 0 0 0 0 28.032473
5.6883955 -1.3690896 0.1349757 0 0 0 0 28.037418
5.0706196 -1.241668 -0.025068741 0 0 0 0 28.042366
6.2586679 -1.5477593 -0.20721687 0 0 0 0 28.047314
5.5330324 -1.3807878 -0.34859991 0 0 0 0 28.052261
8.7923584 -1.9103972 0.21922132 0 0 0 0 28.057209
6.2625117 -1.3946631 -0.20611909 0 0 0 0 28.067101
5.3429832 -1.1986954 -0.33713892 0 0 0 0 28.072048
9.0651579 -1.7606752 0.23221499 0 0 0 0 28.076996
6.2533493 -1.2414986 -0.20506658 0 0 0 0 28.086889
5.3507123 -1.0666348 -0.33803579 0 0 0 0 28.091837
6.1612511 -1.0729039 -0.20128602 0 0 0 0 28.106678
5.2226357 -0.77723461 0.13672495 0 0 0 0 28.116571
5.2546463 -0.78809732 -0.17119162 0 0 0 0 28.126465
6.1068668 -0.77139455 -0.19730748 0 0 0 0 28.146254
6.0666647 -0.62107408 -0.19536261 0 0 0 0 28.166042
6.068418 -0.47897047 -0.19428207 0 0 0 0 28.185829
6.0191751 -0.33460593 -0.19237217 0 0 0 0 28.205618
5.9509263 -0.19014598 -0.19052546 0 0 0 0 28.225407
5.9326448 -0.051942371 -0.18951543 0 0 0 0 28.245193
5.8994341 0.086964212 -0.18778245 0 0 0 0 28.379528
5.8301067 0.22141634 -0.1859421 0 0 0 0 28.399315
5.8147907 0.35860017 -0.1849229 0 0 0 0 28.419104
5.7554383 0.48999915 -0.18305109 0 0 0 0 28.438892
6.8628912 0.69850415 0.00066464575 0 0 0 0 28.453732
5.7420969 0.6231721 -0.18302843 0 0 0 0 28.458679
6.7595954 0.8431353 0.0023937791 0 0 0 0 28.47352
5.6677074 0.74964017 -0.18020768 0 0 0 0 28.478468
5.6203356 0.87997496 -0.17829603 0 0 0 0 28.498257
5.6009655 1.0101739 -0.17829438 0 0 0 0 28.518044
3.88835 0.83562475 -0.25992876 0 0 0 0 28.542778
4.0103393 0.91899037 -0.12949006 0 0 0 0 28.557621
3.9108632 0.94059241 -0.26279458 0 0 0 0 28.562567
4.2371168 1.075986 -0.13667127 0 0 0 0 28.577408
4.4040771 1.1703339 -0.29707724 0 0 0 0 28.582355
4.9198132 1.3136743 0.0056499676 0 0 0 0 28.592249
4.5300455 1.2636765 -0.14662588 0 0 0 0 28.597195
4.6159639 1.3464196 -0.31329897 0 0 0 0 28.602142
5.040544 1.4691914 0.0071185813 0 0 0 0 28.612038
5.4079618 1.6466119 -0.17459972 0 0 0 0 28.616983
4.566452 1.4527398 -0.31140003 0 0 0 0 28.621931
5.5909677 1.7706767 0.0090424344 0 0 0 0 28.631824
5.2824016 1.7453048 -0.17095371 0 0 0 0 28.636772
4.5439749 1.5659319 -0.31141052 0 0 0 0 28.64172
6.22258 2.0455987 0.22919896 0 0 0 0 28.646666
5.2730184 1.8794479 -0.17091572 0 0 0 0 28.656559
4.5054798 1.6761985 -0.3114731 0 0 0 0 28.661507
6.8662844 2.4266646 0.25644863 0 0 0 0 28.666454
5.2436023 2.0076849 -0.17094478 0 0 0 0 28.676348
4.4719782 1.7864397 -0.31051973 0 0 0 0 28.681293
5.1931505 2.1300185 -0.17004327 0 0 0 0 28.696136
4.442492 1.8996623 -0.31155127 0 0 0 0 28.701082
5.1386809 2.2493691 -0.16915576 0 0 0 0 28.715923
4.3969684 2.0069571 -0.31063652 0 0 0 0 28.720871
5.0992393 2.375648 -0.16821598 0 0 0 0 28.735712
4.3564453 2.1152267 -0.30970502 0 0 0 0 28.740658
5.0357518 2.4930365 -0.16735616 0 0 0 0 28.755501
4.3229537 2.2304635 -0.30974621 0 0 0 0 28.760447
5.0253811 2.6351795 -0.1683145 0 0 0 0 28.775288
4.2844443 2.3427222 -0.30980462 0 0 0 0 28.780235
4.9839373 2.7634642 -0.16837807 0 0 0 0 28.795074
4.2128348 2.4361291 -0.30697736 0 0 0 0 28.800022
4.908402 2.8739016 -0.16655791 0 0 0 0 28.814865
4.1983919 2.5632758 -0.30895042 0 0 0 0 28.819811
4.8719773 3.0081596 -0.16660048 0 0 0 0 28.834652
4.1458497 2.6715932 -0.30805263 0 0 0 0 28.8396
4.8591642 3.1571314 -0.16712517 0 0 0 0 28.594444
3.1063263 2.1075578 -0.23446634 0 0 0 0 28.599392
5.069623 3.4662297 -0.17525917 0 0 0 0 28.614233
3.037585 2.1689415 -0.23164703 0 0 0 0 28.619179
5.917417 3.9139249 0.24672905 0 0 0 0 28.624126
5.0641046 3.4891782 0.013715123 0 0 0 0 28.629074
4.5847135 3.2956085 -0.16094486 0 0 0 0 28.634022
2.9798777 2.2372711 -0.22978653 0 0 0 0 28.638968
5.4407563 3.7743025 0.22808541 0 0 0 0 28.643913
4.5019622 3.2579279 0.011745906 0 0 0 0 28.648861
3.8005645 2.8693714 -0.13574882 0 0 0 0 28.653809
3.4151337 2.695307 -0.26608983 0 0 0 0 28.658756
4.2758589 3.2450767 0.011002854 0 0 0 0 28.66865
3.6044524 2.8573606 -0.13038884 0 0 0 0 28.673595
3.203867 2.6553528 -0.2527931 0 0 0 0 28.678543
3.1492267 2.7406681 -0.25091133 0 0 0 0 28.698332
3.8811371 3.5433698 -0.31205714 0 0 0 0 28.718121
2.7216127 2.8698604 -0.23017301 0 0 0 0 28.777485
6.6471105 6.3544264 0.29842547 0 0 0 0 28.782431
6.2124128 6.2135539 0.28194016 0 0 0 0 28.802219
5.5513968 5.8238111 0.016625896 0 0 0 0 28.807167
5.6148314 5.8724155 0.25582153 0 0 0 0 28.822006
5.2098589 5.725472 0.015473698 0 0 0 0 28.826954
5.237134 5.7292485 0.24052878 0 0 0 0 28.841795
4.9355669 5.6798167 0.013571462 0 0 0 0 28.846741
4.3663216 5.2865663 -0.17644706 0 0 0 0 28.851688
4.8864746 5.593945 0.22633201 0 0 0 0 28.861584
4.4500523 5.3641057 0.010839595 0 0 0 0 28.866529
4.0898118 5.1978908 -0.16837403 0 0 0 0 28.871477
4.6332254 5.5511861 0.21650413 0 0 0 0 28.881371
4.1031623 5.184752 0.0096358256 0 0 0 0 28.886318
3.8011343 5.0712605 -0.16035922 0 0 0 0 28.891266
3.4527202 4.8779669 -0.32155031 0 0 0 0 28.896212
3.8094659 5.0471478 0.0086299144 0 0 0 0 28.906105
3.4811554 4.8777575 -0.15048045 0 0 0 0 28.911053
3.3057938 4.9156852 -0.31497997 0 0 0 0 28.916
3.2627394 4.8057938 -0.14420259 0 0 0 0 28.93084
3.034936 4.7539406 -0.29592144 0 0 0 0 28.935787
3.0845408 4.7806444 -0.13976619 0 0 0 0 28.950628
2.7448118 4.5322695 -0.27495757 0 0 0 0 28.955576
2.553359 4.4541593 -0.26259044 0 0 0 0 28.975365
6.4251246 9.7476492 0.32168853 0 0 0 0 28.98031
4.6843047 7.5615878 0.0099506779 0 0 0 0 28.985258
2.3930814 4.4129066 -0.25310037 0 0 0 0 28.995152
5.6850414 9.0630484 0.28695643 0 0 0 0 29.000099
4.3524728 7.400135 0.0088225659 0 0 0 0 29.005047
4.4198346 7.4177384 0.22500676 0 0 0 0 29.019886
4.0941138 7.3443494 0.0069938893 0 0 0 0 29.024834
4.1332626 7.3060813 0.21305661 0 0 0 0 29.039675
3.837709 7.2775459 0.0051687318 0 0 0 0 29.044621
3.5712209 7.2768674 -0.18361275 0 0 0 0 29.049568
3.9042385 7.2910419 0.2025836 0 0 0 0 29.568884
3.6156161 7.262321 0.0028031538 0 0 0 0 29.57383
3.3641655 7.2894416 -0.17984056 0 0 0 0 29.578777
3.4004383 7.2452221 0.0012062171 0 0 0 0 29.593618
3.179208 7.3332171 -0.17631422 0 0 0 0 29.598566
2.9015596 7.3094311 -0.36005595 0 0 0 0 29.603512
3.2023573 7.2530499 -0.00032472436 0 0 0 0 29.613407
2.9801157 7.3430395 -0.17184356 0 0 0 0 29.618355
2.7023964 7.305243 -0.34959131 0 0 0 0 29.623301
4.6826587 10.386257 0.25760466 0 0 0 0 29.628246
3.0103183 7.2718477 -0.0018283071 0 0 0 0 29.633194
2.7708585 7.3098936 -0.16742383 0 0 0 0 29.638142
2.5021989 7.2920523 -0.33913103 0 0 0 0 29.643089
4.5538564 10.741841 0.25547144 0 0 0 0 29.648037
2.8353965 7.3215737 -0.0032628796 0 0 0 0 29.652983
2.5686531 7.2907124 -0.16197187 0 0 0 0 29.657928
2.341445 7.3917084 -0.33348903 0 0 0 0 29.662876
4.0789471 10.271744 0.23289703 0 0 0 0 29.667824
2.6564348 7.3613081 -0.0047108247 0 0 0 0 29.672771
2.3845866 7.306457 -0.15844554 0 0 0 0 29.677719
2.1583996 7.4174404 -0.32495052 0 0 0 0 29.682665
3.5764661 9.6457329 0.20915942 0 0 0 0 29.687611
3.1510522 9.4025049 -0.0070939646 0 0 0 0 29.692558
1.9611074 7.3792176 -0.31448719 0 0 0 0 29.702454
3.2363408 9.3780909 0.19308747 0 0 0 0 29.707399
2.8613017 9.2436533 -0.0079590557 0 0 0 0 29.712347
1.774973 7.381947 -0.30496371 0 0 0 0 29.72224
3.5030422 10.952147 0.21579042 0 0 0 0 29.727188
2.6109135 9.1786461 -0.0106551 0 0 0 0 29.732136
1.856598 7.4095621 -0.14974409 0 0 0 0 29.737082
1.5959047 7.4016447 -0.29640704 0 0 0 0 29.742027
3.1873562 10.8074 0.2018691 0 0 0 0 29.746975
2.3817437 9.1715517 -0.01325343 0 0 0 0 29.751923
2.0863702 9.2377768 -0.18095382 0 0 0 0 29.75687
1.4229152 7.4413142 -0.2898179 0 0 0 0 29.761818
2.884758 10.685591 0.18900329 0 0 0 0 29.766764
2.1647122 9.2024031 -0.014791041 0 0 0 0 29.771709
1.8642538 9.2506361 -0.17651235 0 0 0 0 29.776657
1.2468935 7.4739876 -0.2812373 0 0 0 0 29.781605
2.6083941 10.626675 0.17725176 0 0 0 0 29.786552
1.9538307 9.2742243 -0.016281419 0 0 0 0 29.7915
1.6462514 9.2944727 -0.1720352 0 0 0 0 29.796446
1.0800843 7.562623 -0.27559289 0 0 0 0 29.801392
2.7843509 12.578075 0.19896244 0 0 0 0 29.806339
1.9428707 10.411312 -0.020565612 0 0 0 0 29.811287
1.4343296 9.3592806 -0.16952446 0 0 0 0 29.816235
1.1302638 9.514514 -0.33417451 0 0 0 0 29.82118
2.4526043 12.421351 0.18401361 0 0 0 0 29.826128
1.6844854 10.351295 -0.023255553 0 0 0 0 29.831074
1.2152984 9.3961058 -0.16504526 0 0 0 0 29.836021
0.90919 9.5443363 -0.32470128 0 0 0 0 29.840969
2.1441975 12.358529 0.17219204 0 0 0 0 29.845917
1.6980671 12.202295 -0.029010877 0 0 0 0 29.850863
1.0076075 9.5248842 -0.16347292 0 0 0 0 29.85581
0.68204767 9.5561714 -0.31424996 0 0 0 0 29.860756
1.8284826 12.208722 0.15830228 0 0 0 0 29.865704
1.3892516 12.032447 -0.030890785 0 0 0 0 29.870651
0.78872997 9.6046934 -0.15995595 0 0 0 0 29.875599
0.46239501 9.7009754 -0.30768803 0 0 0 0 29.880545
1.0935993 11.90554 -0.033703081 0 0 0 0 29.890438
0.69241107 11.762092 -0.19077352 0 0 0 0 29.895386
0.23504739 9.657794 -0.29526362 0 0 0 0 29.900333
0.8100661 11.810578 -0.036458157 0 0 0 0 29.910227
0.40958768 11.593112 -0.18256979 0 0 0 0 29.915173
0.01332271 11.429632 -0.33663353 0 0 0 0 29.92012
1.1352112 14.253326 0.14492051 0 0 0 0 29.925068
0.65850437 14.504161 -0.047067329 0 0 0 0 29.930016
0.13807435 11.508083 -0.17627721 0 0 0 0 29.934961
-0.25246802 11.273566 -0.31936806 0 0 0 0 29.939909
0.97452384 17.23193 0.15946518 0 0 0 0 29.944855
0.37395293 16.946207 -0.058165286 0 0 0 0 29.949802
-0.18276684 16.638304 -0.24570151 0 0 0 0 29.95475
-0.51286101 11.225476 -0.30601302 0 0 0 0 29.959698
0.47957611 14.475706 0.12047575 0 0 0 0 29.964643
-0.017526556 16.325596 -0.059510458 0 0 0 0 29.969591
-0.56492907 16.39764 -0.23476972 0 0 0 0 29.974537
-1.1124808 16.137688 -0.41924179 0 0 0 0 29.979485
0.16955599 16.815821 0.12425122 0 0 0 0 29.984432
-0.4059785 16.557964 -0.06428495 0 0 0 0 29.98938
-0.93989068 16.210939 -0.22477661 0 0 0 0 29.994326
-1.3753881 14.850548 -0.36968744 0 0 0 0 29.999271
-0.21941686 16.608196 0.10719093 0 0 0 0 30.004219
-0.78490424 16.372286 -0.067299284 0 0 0 0 30.009167
-1.3095685 16.102209 -0.21671174 0 0 0 0 30.014114
-1.6927711 14.543613 -0.34561881 0 0 0 0 30.019062
-0.59827137 16.432524 0.090184405 0 0 0 0 30.024008
-1.143265 16.059519 -0.0703381 0 0 0 0 30.028954
-1.5688938 14.951066 -0.19505021 0 0 0 0 30.033901
-1.74929 12.489727 -0.28305382 0 0 0 0 30.038849
-0.96757078 16.224007 0.074074782 0 0 0 0 29.778008
-1.5110443 16.016111 -0.074415781 0 0 0 0 29.782955
-1.6116731 12.560512 -0.15996321 0 0 0 0 29.787903
-2.0261519 12.374104 -0.26711217 0 0 0 0 29.79285
-1.3304528 16.04834 0.057065517 0 0 0 0 29.797796
-1.867076 15.808398 -0.077421859 0 0 0 0 29.802744
-2.3647721 15.562294 -0.19081366 0 0 0 0 29.80769
-2.5920398 13.813169 -0.28253064 0 0 0 0 29.812637
-1.6933019 15.880658 0.041070264 0 0 0 0 29.817585
-1.790996 12.636059 -0.066317096 0 0 0 0 29.822533
-2.5999627 14.774098 -0.1748905 0 0 0 0 29.827478
-2.7680571 13.071743 -0.25342417 0 0 0 0 29.832426
-1.6405246 12.59143 0.019041743 0 0 0 0 29.837372
-2.5658052 15.477884 -0.084319346 0 0 0 0 29.842319
-2.7156222 13.576454 -0.15593639 0 0 0 0 29.847267
-3.3955278 14.372991 -0.26207009 0 0 0 0 29.852215
-2.3939581 15.552165 0.0091714254 0 0 0 0 29.857161
-2.5867832 13.630899 -0.078560747 0 0 0 0 29.862106
-2.7300434 12.158435 -0.13387328 0 0 0 0 29.867054
-3.0841479 11.821748 -0.20295081 0 0 0 0 29.872002
-2.6417973 14.831023 -0.0038819767 0 0 0 0 29.876949
-2.6583698 12.426104 -0.075496301 0 0 0 0 29.881897
-3.1701953 12.726979 -0.13553557 0 0 0 0 29.886843
-3.5778306 12.522476 -0.2006509 0 0 0 0 29.891788
-2.9607356 14.630134 -0.018758625 0 0 0 0 29.896736
-2.9606094 12.415146 -0.079202548 0 0 0 0 29.901684
-3.5288365 12.88921 -0.13225892 0 0 0 0 29.906631
-3.8911333 12.507526 -0.1853748 0 0 0 0 29.911577
-2.8306475 12.480611 -0.029817697 0 0 0 0 29.916525
-3.5973649 13.654387 -0.089891881 0 0 0 0 29.921471
-3.761173 12.58197 -0.12297722 0 0 0 0 29.926418
-4.5833817 13.619933 -0.185268 0 0 0 0 29.931366
-3.1812742 12.63582 -0.042524211 0 0 0 0 29.936314
-3.6215322 12.5494 -0.086628623 0 0 0 0 29.941259
-4.0032878 12.332758 -0.11567496 0 0 0 0 29.946207
-3.9062176 14.110355 -0.062260993 0 0 0 0 29.9561
-4.3738585 13.922016 -0.099490784 0 0 0 0 29.961048
-4.8540978 13.855709 -0.12366855 0 0 0 0 29.965996
-4.2426739 14.039482 -0.076064274 0 0 0 0 29.975887
-4.6895399 13.793054 -0.10327581 0 0 0 0 29.980835
-4.5406084 13.831461 -0.089857273 0 0 0 0 29.995678
-6.0036077 13.925442 -0.10416469 0 0 0 0 30.02536
-6.5219512 13.845216 -0.1034189 0 0 0 0 30.030306
-6.3640485 13.87058 -0.097976916 0 0 0 0 30.045147
-6.8318362 13.670159 -0.084183037 0 0 0 0 30.050095
-6.6937747 13.733598 -0.08976198 0 0 0 0 30.064934
-7.1744571 13.569204 -0.065968551 0 0 0 0 30.069881
-6.5657468 13.768092 -0.12438529 0 0 0 0 30.079777
-7.018517 13.589586 -0.082532197 0 0 0 0 30.084723
-6.4554329 13.880657 -0.16800204 0 0 0 0 30.094616
-6.8875165 13.609076 -0.12715684 0 0 0 0 30.099564
-6.7563753 13.663573 -0.18176112 0 0 0 0 30.114405
-7.6232781 13.215377 -0.068001553 0 0 0 0 30.124298
-7.0890431 13.524589 -0.19653597 0 0 0 0 30.134193
-7.7971053 13.037768 -0.13635805 0 0 0 0 30.158928
-8.3514891 12.172447 0.026878679 0 0 0 0 30.168821
-8.563695 11.883993 0.045313448 0 0 0 0 30.18861
-6.9029989 9.1333218 0.047426336 0 0 0 0 30.208397
-8.4667683 12.125566 -0.14116769 0 0 0 0 30.218292
-6.8068867 9.1529579 -0.022280974 0 0 0 0 30.22324
-7.1853943 9.0681219 0.061838668 0 0 0 0 30.228186
-8.3326416 12.130086 -0.25779098 0 0 0 0 30.233131
-6.7367172 9.1766949 -0.11204545 0 0 0 0 30.238079
-7.0902615 9.0877647 -0.01686953 0 0 0 0 30.243027
-7.4678249 8.9919119 0.077250503 0 0 0 0 30.247974
-6.6858392 9.2521286 -0.21055587 0 0 0 0 30.315758
-7.0195622 9.1051102 -0.1143567 0 0 0 0 30.320705
-7.3801107 9.0161715 -0.012178331 0 0 0 0 30.325653
-7.7696476 8.9323206 0.092941917 0 0 0 0 30.330601
-6.9463224 9.140851 -0.2221093 0 0 0 0 30.335546
-7.3139119 9.0399294 -0.11795078 0 0 0 0 30.340494
-7.6894403 8.9630241 -0.0057926024 0 0 0 0 30.34544
-6.9359879 7.6125221 0.093037553 0 0 0 0 30.350388
-7.2356853 9.0656567 -0.23469707 0 0 0 0 30.355335
-7.6212544 8.976778 -0.12056504 0 0 0 0 30.360283
-7.0043049 7.7917066 -0.00093345082 0 0 0 0 30.365229
-6.6959929 7.0206332 0.099282458 0 0 0 0 30.370174
-7.5499978 9.0055304 -0.24732286 0 0 0 0 30.375122
-7.0776601 7.9499154 -0.11092757 0 0 0 0 30.38007
-6.6487498 7.0584555 0.0044730403 0 0 0 0 30.385017
-6.9004674 6.9131517 0.11186442 0 0 0 0 30.389965
-7.0871596 8.0539293 -0.23581685 0 0 0 0 30.394911
-6.6693387 7.1414995 -0.10345525 0 0 0 0 30.399857
-6.8472414 6.9399581 0.0090622958 0 0 0 0 30.404804
-7.1189151 6.8127065 0.12442562 0 0 0 0 30.409752
-6.6888399 7.2445488 -0.22536887 0 0 0 0 30.4147
-6.8080287 6.9558158 -0.1047774 0 0 0 0 30.419645
-7.0636959 6.8325086 0.014624786 0 0 0 0 30.424593
-7.3363719 6.7082505 0.13699166 0 0 0 0 30.429539
-6.7617707 6.9786601 -0.23059855 0 0 0 0 30.434486
-7.0264635 6.8493752 -0.10721704 0 0 0 0 30.439434
-7.285141 6.7270675 0.020183066 0 0 0 0 30.444382
-7.5528545 6.5947833 0.1505595 0 0 0 0 30.449327
-6.9832006 6.8692307 -0.24004497 0 0 0 0 30.454275
-7.2459216 6.7349291 -0.10865851 0 0 0 0 30.459221
-7.5006051 6.6136003 0.024754358 0 0 0 0 30.464169
-7.7773142 6.4873333 0.16411932 0 0 0 0 30.469116
-7.2016602 6.7487841 -0.24948652 0 0 0 0 30.474064
-7.471364 6.6234946 -0.11110549 0 0 0 0 30.47901
-7.7430315 6.5122066 0.031281494 0 0 0 0 30.483955
-8.0067816 6.3758898 0.17767157 0 0 0 0 30.488903
-7.4260988 6.6333489 -0.25993234 0 0 0 0 30.493851
-7.7087965 6.5140886 -0.11357094 0 0 0 0 30.498798
-7.9645081 6.3917422 0.035846617 0 0 0 0 30.503746
-8.2352753 6.2554345 0.19222589 0 0 0 0 30.508692
-7.6834707 6.5380058 -0.2714293 0 0 0 0 30.513638
-7.9402494 6.396656 -0.11602317 0 0 0 0 30.518585
-8.2019815 6.2723169 0.042384434 0 0 0 0 30.523533
-8.4787369 6.1430178 0.20575947 0 0 0 0 30.528481
-7.9189305 6.4135866 -0.28089225 0 0 0 0 30.533426
-8.1807032 6.2782412 -0.11748907 0 0 0 0 30.538374
-8.4414511 6.1518893 0.047923189 0 0 0 0 30.54332
-8.7112494 6.0135574 0.22131117 0 0 0 0 30.548267
-8.1633682 6.2941866 -0.2923651 0 0 0 0 30.553215
-8.4321537 6.1588511 -0.11997246 0 0 0 0 30.558163
-8.6859283 6.0284677 0.054455586 0 0 0 0 30.563108
-8.7980471 5.7836561 0.23210762 0 0 0 0 30.568056
-8.4188128 6.1708112 -0.30385709 0 0 0 0 30.573002
-8.6816206 6.0324469 -0.12245002 0 0 0 0 30.57795
-8.7497807 5.7755008 0.059285916 0 0 0 0 30.582897
-8.6852465 6.049459 -0.31536415 0 0 0 0 30.592791
-8.7015676 5.7443509 -0.12155037 0 0 0 0 30.597736
-8.6233578 5.7041211 -0.31533194 0 0 0 0 30.612579
-0.36811492 0.21657535 -0.0018304338 0 0 0 0 30.622473
-0.3811394 0.21260791 0.0061483826 0 0 0 0 30.627419
-0.3591055 0.2115505 -0.0087929238 0 0 0 0 30.637314
-0.33512238 0.19748223 -0.015730847 0 0 0 0 30.652155
-0.36116379 0.19054803 -0.0017722491 0 0 0 0 30.662048
-0.38317528 0.19160566 0.0071918713 0 0 0 0 30.666996
-0.35215598 0.18552299 -0.0077349432 0 0 0 0 30.676889
-0.33915287 0.17748785 -0.015691616 0 0 0 0 30.69173
-0.37617537 0.17758366 -0.00074998062 0 0 0 0 30.701626
-0.40218377 0.17965192 0.0082073621 0 0 0 0 30.706572
-0.35618258 0.16652793 -0.0076946006 0 0 0 0 30.716465
-0.34617141 0.16050227 -0.01665617 0 0 0 0 30.731308
-0.41915751 0.17469747 0.00022419178 0 0 0 0 30.741199
-0.42319894 0.16570191 0.010218703 0 0 0 0 30.746147
-0.40614921 0.16766272 -0.0087317377 0 0 0 0 30.756042
-0.38215494 0.15559749 -0.017669477 0 0 0 0 30.770882
-0.44017112 0.15974732 0.00023580257 0 0 0 0 30.780777
-0.49316722 0.16888653 0.013146444 0 0 0 0 30.785725
-0.4513272 0.16184698 -0.0091727078 0 0 0 0 30.53154
-0.46628359 0.16389608 -0.022179285 0 0 0 0 30.546381
-0.4114272 0.12871544 -7.1823546e-05 0 0 0 0 30.556274
-0.37649909 0.10960423 0.0089962138 0 0 0 0 30.561222
-0.39542153 0.12066982 -0.0090209972 0 0 0 0 30.571115
-0.38440776 0.11464006 -0.018979413 0 0 0 0 30.585957
-0.36549541 0.095570602 6.2901425e-05 0 0 0 0 30.595852
-0.36053354 0.087549619 0.0090757459 0 0 0 0 30.600798
-0.35848233 0.090552092 -0.0079033822 0 0 0 0 30.610691
-0.34946725 0.085528463 -0.016865723 0 0 0 0 30.625534
-0.33753482 0.071481727 0.0001649672 0 0 0 0 30.635426
-0.33356649 0.06546399 0.0091768494 0 0 0 0 30.640373
-0.34251258 0.069498762 -0.007823918 0 0 0 0 30.650269
-0.32750016 0.063458242 -0.016775161 0 0 0 0 30.665108
-0.32355502 0.053435307 0.00024166347 0 0 0 0 30.675003
-0.33457744 0.050461117 0.009225402 0 0 0 0 30.679951
-0.3255356 0.050443705 -0.0077418406 0 0 0 0 30.689844
-0.31652197 0.045420516 -0.015704764 0 0 0 0 30.704685
-0.3285653 0.03844415 0.00028222863 0 0 0 0 30.714579
-0.33658934 0.035460435 0.010272135 0 0 0 0 30.719524
-0.3275505 0.034443274 -0.0066958657 0 0 0 0 30.72942
-0.31952995 0.030424342 -0.016660292 0 0 0 0 30.744261
-0.32557648 0.023429492 0.0013387009 0 0 0 0 30.754154
-0.33559817 0.020451747 0.01032491 0 0 0 0 30.759102
-0.32955953 0.019443279 -0.0066490965 0 0 0 0 30.768995
-0.31954163 0.01441899 -0.016610369 0 0 0 0 30.783836
-0.32358462 0.0084184147 0.0013932327 0 0 0 0 30.793732
-0.33560783 0.0054453346 0.011375828 0 0 0 0 30.798677
-0.31757033 0.0034043514 -0.0065758736 0 0 0 0 30.808571
-0.31954667 0.00041362792 -0.016559165 0 0 0 0 30.823414
-0.32758886 -0.0055760341 0.0014369438 0 0 0 0 30.833305
-0.34361359 -0.0085391244 0.012412232 0 0 0 0 30.838253
-0.31957442 -0.010595435 -0.0065284288 0 0 0 0 30.848148
-0.31955615 -0.015591729 -0.016509013 0 0 0 0 30.862988
-0.33159673 -0.020571336 0.0024803649 0 0 0 0 30.872883
-0.34362188 -0.024545241 0.012462976 0 0 0 0 30.877831
-0.31858024 -0.02560346 -0.0064757499 0 0 0 0 30.887724
-0.31856179 -0.030599775 -0.0164563 0 0 0 0 30.902565
-0.32159904 -0.034603834 0.0025506681 0 0 0 0 30.912458
-0.33662373 -0.038570073 0.01252797 0 0 0 0 30.917406
-0.32458758 -0.041592766 -0.0064365268 0 0 0 0 30.927299
-0.321569 -0.046597145 -0.016411459 0 0 0 0 30.942141
-0.32560554 -0.050598633 0.0025937848 0 0 0 0 30.952034
-0.34163424 -0.055563319 0.013569047 0 0 0 0 30.956982
-0.32859382 -0.057587761 -0.0063932594 0 0 0 0 30.966877
-0.31957507 -0.06260781 -0.016357267 0 0 0 0 30.981716
-0.33161527 -0.067589074 0.0036330053 0 0 0 0 30.991611
-0.33863655 -0.070577167 0.013626097 0 0 0 0 30.996557
-0.32407507 -0.072682276 -0.0054897401 0 0 0 0 31.565872
-0.32405937 -0.079678759 -0.016470874 0 0 0 0 31.580713
-0.32908744 -0.082680464 0.0045351256 0 0 0 0 31.590607
-0.34711277 -0.088650197 0.016512947 0 0 0 0 31.595554
-0.3390806 -0.092657551 -0.0044621839 0 0 0 0 31.60545
-0.32705909 -0.097678192 -0.016424557 0 0 0 0 31.620289
-0.35810199 -0.10762785 0.0055401325 0 0 0 0 31.630184
-0.3591167 -0.10863268 0.017545743 0 0 0 0 31.635132
-0.35709119 -0.11662734 -0.0044401903 0 0 0 0 31.645023
-0.34106749 -0.12065585 -0.016396351 0 0 0 0 31.659866
-0.3530975 -0.12464448 0.0055994629 0 0 0 0 31.66976
-0.35611179 -0.12564532 0.017602224 0 0 0 0 31.674706
-0.32906863 -0.1246894 -0.0043435069 0 0 0 0 31.684601
-0.31804693 -0.12970717 -0.016307829 0 0 0 0 31.699442
-0.33508006 -0.13568619 0.0056800772 0 0 0 0 31.709335
-0.34009403 -0.13668311 0.017680043 0 0 0 0 31.714283
-0.36209384 -0.15763101 -0.0043462082 0 0 0 0 31.724176
-0.36308378 -0.16962524 -0.01733068 0 0 0 0 31.739017
-0.44217637 -0.20348863 0.0095577231 0 0 0 0 31.748913
-0.38313252 -0.17460874 0.021661894 0 0 0 0 31.753859
-0.39812806 -0.19656925 -0.0043543228 0 0 0 0 31.763752
-0.352074 -0.185653 -0.017262392 0 0 0 0 31.778595
-0.40714777 -0.21056424 0.0096651362 0 0 0 0 31.788486
-0.42517799 -0.21853879 0.024644347 0 0 0 0 31.793434
-0.36910129 -0.20363212 -0.0032563531 0 0 0 0 31.803329
-0.34506676 -0.20367254 -0.017200869 0 0 0 0 31.818169
-0.39513704 -0.22759484 0.0097351791 0 0 0 0 31.828064
-0.42017528 -0.2395575 0.025703421 0 0 0 0 31.833012
-0.38111645 -0.23461722 -0.0032262199 0 0 0 0 31.842905
-0.35608184 -0.23465881 -0.017169787 0 0 0 0 31.857746
-0.40615535 -0.2605834 0.010766568 0 0 0 0 31.86764
-0.42819038 -0.27055284 0.027740385 0 0 0 0 31.872585
-2.2563658 -1.5722015 -0.10029352 0 0 0 0 31.877533
-2.2794592 -1.5622141 -0.0073056319 0 0 0 0 31.882481
-2.2975383 -1.5502322 0.077689931 0 0 0 0 31.887428
-2.3116145 -1.5362579 0.1636918 0 0 0 0 31.892376
-2.2224262 -1.6303 -0.09922298 0 0 0 0 31.897322
-2.2455151 -1.618313 -0.0062339529 0 0 0 0 31.902267
-2.2685966 -1.608322 0.078754239 0 0 0 0 31.907215
-2.3016958 -1.606315 0.1667257 0 0 0 0 31.912163
-2.1904883 -1.690394 -0.098156519 0 0 0 0 31.91711
-2.2115676 -1.67441 -0.0061628101 0 0 0 0 31.922058
-2.2376513 -1.6654145 0.079821192 0 0 0 0 31.927004
-2.2647357 -1.6564176 0.16680402 0 0 0 0 31.93195
-2.1555457 -1.7484925 -0.096085742 0 0 0 0 31.936897
-2.193645 -1.7444788 -0.0041194628 0 0 0 0 31.941845
-2.2167189 -1.7304887 0.081871025 0 0 0 0 31.946793
-2.2367921 -1.7155044 0.16886593 0 0 0 0 31.951738
-2.1386263 -1.8225574 -0.096046105 0 0 0 0 31.956686
-2.1616998 -1.8035707 -0.0030531972 0 0 0 0 31.961632
-2.1887743 -1.7905738 0.082931899 0 0 0 0 31.966579
-2.2058396 -1.7715948 0.16993265 0 0 0 0 31.971527
-2.1016774 -1.8796573 -0.093973204 0 0 0 0 31.976475
-2.1297541 -1.8636614 -0.0019878915 0 0 0 0 31.981421
-2.1518176 -1.8446734 0.084006555 0 0 0 0 31.986366
-2.1798921 -1.8316755 0.17099072 0 0 0 0 31.991314
-2.0727427 -1.9467416 -0.092915684 0 0 0 0 31.996262
-2.1038175 -1.9297414 6.6583991e-05 0 0 0 0 32.001209
-2.1278799 -1.91075 0.086058699 0 0 0 0 32.006157
-2.1479371 -1.8887653 0.17205732 0 0 0 0 32.011101
-2.0377967 -2.0088348 -0.091848746 0 0 0 0 32.016048
-2.0628591 -1.984845 0.0011445001 0 0 0 0 32.020996
-2.0959289 -1.9708387 0.087123275 0 0 0 0 32.025944
-2.1239965 -1.9548413 0.17410932 0 0 0 0 32.030891
-2.0046012 -2.071461 -0.09051542 0 0 0 0 31.757675
-2.0376825 -2.053452 0.002460662 0 0 0 0 31.762623
-2.064748 -2.0324514 0.088446692 0 0 0 0 31.76757
-2.0888093 -2.0094564 0.17443797 0 0 0 0 31.772516
-1.9716799 -2.1405571 -0.089451909 0 0 0 0 31.777464
-2.0007432 -2.1135559 0.0035343601 0 0 0 0 31.78241
-2.0278041 -2.0905552 0.089521565 0 0 0 0 31.787357
-2.0598757 -2.0735452 0.1754991 0 0 0 0 31.792305
-1.937752 -2.2066541 -0.087386049 0 0 0 0 31.797253
-1.9628049 -2.1746604 0.0056083365 0 0 0 0 31.802198
-1.9998766 -2.1586409 0.090578698 0 0 0 0 31.807146
-2.0289376 -2.1356375 0.17756352 0 0 0 0 31.812092
-1.90082 -2.2727549 -0.08631663 0 0 0 0 31.817039
-1.9348848 -2.2467453 0.0076628109 0 0 0 0 31.821987
-1.964937 -2.2207391 0.092647821 0 0 0 0 31.826935
-1.9889798 -2.1897442 0.17764348 0 0 0 0 31.831881
-1.8658983 -2.3448513 -0.084253401 0 0 0 0 31.836826
-1.9019551 -2.3158379 0.0087250853 0 0 0 0 31.841774
-1.9320061 -2.2888324 0.094710812 0 0 0 0 31.846722
-1.9630569 -2.2618253 0.18069534 0 0 0 0 31.851669
-1.8289686 -2.4149497 -0.083187029 0 0 0 0 31.856617
-1.8640208 -2.3829389 0.010794505 0 0 0 0 31.861563
-1.897066 -2.3539276 0.095777415 0 0 0 0 31.866508
-1.9271123 -2.3249226 0.18176445 0 0 0 0 31.871456
-1.7890345 -2.4830525 -0.081116311 0 0 0 0 31.876404
-1.8310965 -2.4570293 0.012853356 0 0 0 0 31.881351
-1.8611302 -2.4220238 0.097843364 0 0 0 0 31.886297
-1.8941759 -2.3930135 0.18382668 0 0 0 0 31.891245
-1.7531173 -2.5621467 -0.079056755 0 0 0 0 31.896191
-1.7901571 -2.524133 0.014925569 0 0 0 0 31.901138
-1.8241936 -2.4911206 0.099909589 0 0 0 0 31.906086
-1.8572302 -2.4581101 0.18489507 0 0 0 0 31.911034
-1.7172008 -2.6432395 -0.076998666 0 0 0 0 31.915979
-1.7562363 -2.6032226 0.016982304 0 0 0 0 31.920927
-1.7892635 -2.5652125 0.10197026 0 0 0 0 31.925873
-1.8263041 -2.5341957 0.18794987 0 0 0 0 31.93082
-1.6712638 -2.7143488 -0.074923411 0 0 0 0 31.935768
-1.7163039 -2.6773219 0.019048672 0 0 0 0 31.940716
-1.7543358 -2.642303 0.10402901 0 0 0 0 31.945662
-1.787357 -2.6012931 0.18901877 0 0 0 0 31.950607
-1.632347 -2.7984443 -0.072864056 0 0 0 0 31.955555
-1.6793875 -2.7614145 0.022105845 0 0 0 0 31.960503
-1.7133996 -2.7154031 0.10709678 0 0 0 0 31.96545
-1.7524259 -2.6783826 0.19107726 0 0 0 0 31.970398
-1.5924319 -2.88554 -0.070805401 0 0 0 0 31.975344
-1.6364546 -2.838516 0.024173398 0 0 0 0 31.980289
-1.6754698 -2.7944961 0.1091573 0 0 0 0 31.985237
-1.7114818 -2.7494814 0.19314562 0 0 0 0 31.990185
-1.5465053 -2.9676445 -0.068737425 0 0 0 0 31.995132
-1.5955355 -2.924613 0.027233543 0 0 0 0 32.00008
-1.635542 -2.8765912 0.11121836 0 0 0 0 32.005028
-1.674552 -2.8305717 0.19520365 0 0 0 0 32.009972
-1.5035976 -3.0627422 -0.066680014 0 0 0 0 32.014919
-1.5506036 -3.0057144 0.029300401 0 0 0 0 32.019867
-1.5916077 -2.9556921 0.11428518 0 0 0 0 32.024815
-1.6346171 -2.9096661 0.19826579 0 0 0 0 32.029762
-1.4506594 -3.1408553 -0.063602917 0 0 0 0 32.034706
-1.5046833 -3.0948164 0.032364044 0 0 0 0 32.039654
-1.5486823 -3.0427892 0.11634636 0 0 0 0 32.044601
-1.5896763 -2.987767 0.20033394 0 0 0 0 32.049549
-1.185936 -2.7363174 -0.052043438 0 0 0 0 32.054497
-1.2329496 -2.6942828 0.028929802 0 0 0 0 32.059441
-1.5077726 -3.1398821 0.1203998 0 0 0 0 32.064388
-1.5477459 -3.0738611 0.20239401 0 0 0 0 32.069336
-1.1430104 -2.8204069 -0.048986215 0 0 0 0 32.074284
-1.1910121 -2.7713711 0.031989437 0 0 0 0 32.079231
-1.2320035 -2.7233422 0.1029733 0 0 0 0 32.084179
-1.4987993 -3.1519651 0.20446558 0 0 0 0 32.089127
-1.1010966 -2.9144926 -0.046935465 0 0 0 0 32.09407
-1.1500835 -2.8564558 0.034043521 0 0 0 0 32.099018
-1.1930724 -2.8064249 0.10602621 0 0 0 0 32.103966
-1.2320511 -2.7513995 0.17601615 0 0 0 0 32.108913
-1.0571853 -3.0115805 -0.043884303 0 0 0 0 32.113861
-1.1071682 -2.9505429 0.038095232 0 0 0 0 32.118805
-1.1501385 -2.8895121 0.10908329 0 0 0 0 32.123753
-1.1931169 -2.8344808 0.17906877 0 0 0 0 32.1287
-1.0092735 -3.110673 -0.040829971 0 0 0 0 32.133648
-1.0632501 -3.0456297 0.041147057 0 0 0 0 32.138596
-1.1072122 -2.9795976 0.11213651 0 0 0 0 32.143539
-1.1541936 -2.9265606 0.18211672 0 0 0 0 32.148491
-0.95836014 -3.2117682 -0.03877376 0 0 0 0 32.153435
-1.0153329 -3.1437213 0.044201534 0 0 0 0 32.158382
-1.0653028 -3.0826805 0.11518203 0 0 0 0 32.16333
-1.1092578 -3.0126486 0.18517379 0 0 0 0 32.168278
-0.90545148 -3.3168654 -0.034717809 0 0 0 0 32.173225
-0.96542257 -3.2478147 0.048254881 0 0 0 0 32.178169
-1.0143695 -3.1717758 0.1192437 0 0 0 0 32.183117
-1.0633237 -3.102736 0.18722954 0 0 0 0 32.188065
-0.84854847 -3.4289663 -0.031661257 0 0 0 0 32.193012
-0.91150272 -3.3489115 0.051313438 0 0 0 0 32.19796
-0.96545571 -3.2768657 0.12229504 0 0 0 0 32.202904
-1.0194126 -3.2088194 0.19127506 0 0 0 0 32.207851
-0.79065746 -3.5510669 -0.027608944 0 0 0 0 32.212799
-0.85559529 -3.4600101 0.0553689 0 0 0 0 32.217747
-0.91354376 -3.3849587 0.12634771 0 0 0 0 32.222694
-0.96748435 -3.305913 0.19533309 0 0 0 0 32.227642
-0.72996461 -3.6770253 -0.025145231 0 0 0 0 31.946508
-0.79888999 -3.5839481 0.058820885 0 0 0 0 31.951456
-0.85880268 -3.4928808 0.12979785 0 0 0 0 31.956402
-0.91572571 -3.4098179 0.19777507 0 0 0 0 31.961349
-0.66714853 -3.8291454 -0.021096451 0 0 0 0 31.966297
-0.7380392 -3.7150662 0.063877568 0 0 0 0 31.971245
-0.79993498 -3.6139963 0.13485713 0 0 0 0 31.976191
-0.86185479 -3.5289252 0.20282936 0 0 0 0 31.981136
-0.59531629 -3.9742792 -0.016033862 0 0 0 0 31.986084
-0.6721921 -3.8511906 0.068937317 0 0 0 0 31.991032
-0.73908365 -3.7481124 0.13891192 0 0 0 0 31.995979
-0.80096006 -3.6380415 0.20589636 0 0 0 0 32.000927
-0.51848376 -4.1224189 -0.010967498 0 0 0 0 32.005875
-0.60337704 -4.0093179 0.073989481 0 0 0 0 32.010818
-0.67322361 -3.8792353 0.14397348 0 0 0 0 32.015766
-0.7411074 -3.773155 0.21094897 0 0 0 0 32.020714
-0.43870425 -4.3055611 -0.0059150141 0 0 0 0 32.025661
-0.52854568 -4.1604524 0.080051385 0 0 0 0 32.030609
-0.6033982 -4.0333624 0.15002821 0 0 0 0 32.035553
-0.67928696 -3.9292705 0.21799338 0 0 0 0 32.040501
-0.34988338 -4.4677143 -0.00084277196 0 0 0 0 32.045448
-0.44773191 -4.3255949 0.086112991 0 0 0 0 32.050396
-0.52958143 -4.1954947 0.15708312 0 0 0 0 32.055344
-0.60844034 -4.0743971 0.22305305 0 0 0 0 32.060287
-0.25511122 -4.6618757 0.006220493 0 0 0 0 32.065239
-0.3589263 -4.4987473 0.093179382 0 0 0 0 32.070183
-0.44876394 -4.3616347 0.16314359 0 0 0 0 32.07513
-0.53158027 -4.2145319 0.22812128 0 0 0 0 32.080078
-0.17875516 -5.7360063 0.015853677 0 0 0 0 32.085026
-0.26616216 -4.7009039 0.10123582 0 0 0 0 32.089973
-0.35994485 -4.5297852 0.17021155 0 0 0 0 32.094917
-0.45176706 -4.3856688 0.23517755 0 0 0 0 32.099865
-0.044504784 -5.6492233 0.02309233 0 0 0 0 32.104813
-0.18972884 -5.7300401 0.12789132 0 0 0 0 32.10976
-0.26717782 -4.7339392 0.1782663 0 0 0 0 32.114708
-0.36497885 -4.5758147 0.24323224 0 0 0 0 32.119652
0.085683107 -5.5994301 0.031305943 0 0 0 0 32.124599
-0.056501571 -5.6612501 0.13011858 0 0 0 0 32.129547
-0.19272238 -5.7550769 0.21792443 0 0 0 0 32.134495
-0.27017465 -4.7609692 0.25029737 0 0 0 0 32.139442
0.21488929 -5.5376301 0.03852085 0 0 0 0 32.14439
0.072697245 -5.6084504 0.13333066 0 0 0 0 32.149338
-0.057453707 -5.6632848 0.21516263 0 0 0 0 32.154282
-0.19570109 -5.7781096 0.30095863 0 0 0 0 32.159229
0.34399205 -5.5408254 0.046702996 0 0 0 0 32.164177
0.19991112 -5.5446424 0.13654239 0 0 0 0 32.169125
0.070740379 -5.6164784 0.21436894 0 0 0 0 32.174072
-0.06137621 -5.6543102 0.2912083 0 0 0 0 32.179016
0.47211757 -5.530014 0.053887524 0 0 0 0 32.183964
0.32902896 -5.5418334 0.14072567 0 0 0 0 32.188911
0.19795056 -5.5586653 0.21257611 0 0 0 0 32.193859
0.067813002 -5.6135006 0.2864112 0 0 0 0 32.198807
0.4581348 -5.54702 0.14490248 0 0 0 0 32.208698
0.32707441 -5.5548515 0.2137581 0 0 0 0 32.213646
0.19403009 -5.5536809 0.28061625 0 0 0 0 32.218594
0.45618331 -5.5610337 0.21493274 0 0 0 0 32.233437
0.32314906 -5.5558634 0.27879381 0 0 0 0 32.23838
0.45225021 -5.5710406 0.27596271 0 0 0 0 32.258171
1.6860172 -5.5815969 0.13441814 0 0 0 0 32.362057
1.6720803 -5.5995622 0.19341774 0 0 0 0 32.386791
1.6691908 -5.6005325 0.23043647 0 0 0 0 32.411526
1.6676657 -5.6073999 0.25950748 0 0 0 0 32.49585
2.8228345 -5.17553 0.2168414 0 0 0 0 32.599739
2.8159389 -5.191463 0.23683387 0 0 0 0 32.624474
2.8270652 -5.2034082 0.23884426 0 0 0 0 32.649208
2.81425 -5.1713228 0.22885145 0 0 0 0 32.673943
3.3537908 -4.768837 0.25848654 0 0 0 0 32.698677
3.343924 -4.7697458 0.25547487 0 0 0 0 32.723412
3.350081 -4.7606649 0.23648085 0 0 0 0 32.748146
3.3279338 -4.9496188 0.21638581 0 0 0 0 32.753094
3.3652356 -4.7605891 0.20849043 0 0 0 0 32.772881
4.0115824 -3.7788751 0.31735522 0 0 0 0 32.87677
4.0707655 -3.6658535 0.32343242 0 0 0 0 32.896557
4.0227232 -3.7767754 0.27935019 0 0 0 0 32.901505
4.0746121 -3.9687841 0.23431151 0 0 0 0 32.906448
4.1549234 -3.5758524 0.33151755 0 0 0 0 32.916344
