# .PCD v0.7 - Point Cloud Data file format
VERSION 0.7
FIELDS x y z normal_x normal_y normal_z intensity curvature
SIZE 4 4 4 4 4 4 4 4
TYPE F F F F F F F F
COUNT 1 1 1 1 1 1 1 1
WIDTH 975
HEIGHT 1
VIEWPOINT 0 0 0 1 0 0 0
POINTS 975
DATA ascii
7.6109533 -9.7921352 6.9606624 0 0 0 0 26.555466
8.3893528 -8.1086063 6.9415631 0 0 0 0 26.560413
8.1140108 -8.5607443 6.8841848 0 0 0 0 26.565361
7.8594956 -8.9528446 6.8156772 0 0 0 0 26.570307
7.8974838 -9.7021599 7.0150061 0 0 0 0 26.575254
8.6136761 -7.954833 7.0005641 0 0 0 0 26.580202
8.3453808 -8.4139786 6.9322224 0 0 0 0 26.585148
8.1269569 -8.8459129 6.8779263 0 0 0 0 26.590096
8.1369095 -9.5474758 7.0270309 0 0 0 0 26.595043
8.8019466 -7.7652617 7.0343637 0 0 0 0 26.599989
8.5767498 -8.2672119 6.9822588 0 0 0 0 26.604937
8.3803911 -8.7200708 6.9280801 0 0 0 0 26.609882
8.1830082 -9.1719103 6.8808942 0 0 0 0 26.61483
9.0062342 -7.5905957 7.08325 0 0 0 0 26.619778
8.794075 -8.0995255 7.0231967 0 0 0 0 26.624723
8.6297979 -8.5842514 6.9771924 0 0 0 0 26.629671
8.4614935 -9.0649786 6.935164 0 0 0 0 26.634619
9.2015133 -7.4079809 7.12709 0 0 0 0 26.639565
9.0284233 -7.9487424 7.0792279 0 0 0 0 26.644512
8.8791914 -8.4444361 7.0272913 0 0 0 0 26.64946
8.7529716 -8.9639769 7.0004835 0 0 0 0 26.654406
9.3747616 -7.2054787 7.1588144 0 0 0 0 26.659353
9.2387333 -7.7730923 7.1191235 0 0 0 0 26.664301
9.1445732 -8.3105316 7.0914483 0 0 0 0 26.669247
9.0404158 -8.8490057 7.062748 0 0 0 0 26.674194
9.5459995 -6.9999819 7.1925263 0 0 0 0 26.679142
9.4610415 -7.604373 7.1710706 0 0 0 0 26.684088
9.3869238 -8.1527605 7.138474 0 0 0 0 26.689035
9.3138132 -8.7111168 7.1149073 0 0 0 0 26.693983
9.7392454 -6.811358 7.246346 0 0 0 0 26.698929
9.69133 -7.4356065 7.2320375 0 0 0 0 26.703876
9.6462708 -8.0048923 7.2015719 0 0 0 0 26.708824
9.6062202 -8.5851345 7.1801481 0 0 0 0 26.71377
9.9124708 -6.6058373 7.2890649 0 0 0 0 26.718718
9.8925982 -7.244 7.2728639 0 0 0 0 26.723665
9.8915749 -7.8361034 7.2555714 0 0 0 0 26.728611
9.8815813 -8.436245 7.2352767 0 0 0 0 26.733559
10.081996 -6.4040742 7.3251133 0 0 0 0 27.378218
10.092916 -7.0531235 7.3128071 0 0 0 0 27.383165
10.135728 -7.6710649 7.306489 0 0 0 0 27.388113
10.171565 -8.2970324 7.2981734 0 0 0 0 27.393059
10.250295 -6.1946449 7.3698359 0 0 0 0 27.398006
10.285238 -6.850636 7.3535967 0 0 0 0 27.402954
10.364068 -7.4804602 7.352385 0 0 0 0 27.4079
10.442951 -8.1312809 7.3532252 0 0 0 0 27.412848
10.394591 -5.9713259 7.4004703 0 0 0 0 27.417795
10.478558 -6.6461473 7.3953838 0 0 0 0 27.422741
10.598421 -7.2958341 7.4023104 0 0 0 0 27.427689
10.722324 -7.9644971 7.4142914 0 0 0 0 27.432634
10.546877 -5.7499614 7.4411292 0 0 0 0 27.437582
10.673867 -6.4416399 7.4441767 0 0 0 0 27.44253
10.833736 -7.1011953 7.4582119 0 0 0 0 27.447475
10.997675 -7.7867374 7.4733191 0 0 0 0 27.452423
10.709163 -5.5345497 7.4908285 0 0 0 0 27.457371
10.870154 -6.2311244 7.4969578 0 0 0 0 27.462317
11.061046 -6.8995957 7.5100775 0 0 0 0 27.467264
11.270997 -7.5989857 7.5343161 0 0 0 0 27.472212
10.821454 -5.2933669 7.5083513 0 0 0 0 27.477158
11.028443 -5.9997869 7.524601 0 0 0 0 27.482105
11.291334 -6.6929808 7.5669379 0 0 0 0 27.487053
11.553311 -7.4131947 7.6033373 0 0 0 0 27.491999
10.950727 -5.0580955 7.5429296 0 0 0 0 27.496946
11.228725 -5.7892518 7.5843935 0 0 0 0 27.501894
11.503613 -6.4724517 7.6127229 0 0 0 0 27.50684
11.811597 -7.2035179 7.6572437 0 0 0 0 27.511787
11.080011 -4.8258224 7.5795188 0 0 0 0 27.516735
11.38599 -5.5509081 7.61902 0 0 0 0 27.521681
11.727881 -6.2558627 7.6705456 0 0 0 0 27.526628
12.085866 -6.9957714 7.7231903 0 0 0 0 27.531576
11.202292 -4.5895748 7.6150842 0 0 0 0 27.536522
11.553255 -5.3185143 7.6636863 0 0 0 0 27.54147
11.937138 -6.0263429 7.7203026 0 0 0 0 27.546417
12.340114 -6.7711115 7.7800503 0 0 0 0 27.551363
11.304567 -4.3424106 7.6415811 0 0 0 0 27.556311
11.700517 -5.0752072 7.6982827 0 0 0 0 27.561256
12.127375 -5.7819018 7.761982 0 0 0 0 27.566204
12.597346 -6.5424404 7.8409066 0 0 0 0 27.571152
11.426844 -4.105154 7.6831503 0 0 0 0 27.576097
11.842766 -4.8259153 7.7338557 0 0 0 0 27.581045
12.3416 -5.546351 7.8227377 0 0 0 0 27.585993
12.885552 -6.319633 7.9238467 0 0 0 0 27.590939
11.509134 -3.8540685 7.7025995 0 0 0 0 27.595886
11.972025 -4.5716839 7.7613902 0 0 0 0 27.600834
12.528812 -5.2919188 7.8683887 0 0 0 0 27.60578
13.04975 -6.0333652 7.9323554 0 0 0 0 27.610727
11.586418 -3.5989966 7.7230315 0 0 0 0 27.615675
12.096271 -4.3134618 7.7919073 0 0 0 0 27.620621
12.65504 -5.0127511 7.8778462 0 0 0 0 27.625568
12.618987 -5.4846292 7.5889125 0 0 0 0 27.630516
11.654718 -3.3449614 7.73945 0 0 0 0 27.635462
12.250503 -4.065105 7.8445172 0 0 0 0 27.640409
12.69328 -4.6979494 7.8390274 0 0 0 0 27.645357
12.673223 -5.1647997 7.5421119 0 0 0 0 27.650303
11.732006 -3.0918787 7.7658944 0 0 0 0 27.655251
12.346757 -3.7959969 7.8629518 0 0 0 0 27.660198
13.035419 -4.4938378 7.9911485 0 0 0 0 27.665144
12.753457 -4.8598428 7.5184102 0 0 0 0 27.670092
11.778319 -2.8329256 7.7752614 0 0 0 0 27.675037
12.445009 -3.5278738 7.8863969 0 0 0 0 27.679985
13.179613 -4.2135754 8.0236511 0 0 0 0 27.684933
12.824688 -4.5499163 7.4926815 0 0 0 0 27.689878
11.838624 -2.5779052 7.7966723 0 0 0 0 27.694826
12.549244 -3.2577171 7.9178543 0 0 0 0 27.699774
13.325798 -3.9312983 8.0611572 0 0 0 0 27.70472
13.414748 -4.4148207 7.7735052 0 0 0 0 27.709667
11.911911 -2.3248196 7.8311205 0 0 0 0 27.714615
12.642491 -2.9866028 7.9452896 0 0 0 0 27.719561
13.433988 -3.6341753 8.0795488 0 0 0 0 27.724508
13.47596 -4.0929317 7.7477303 0 0 0 0 27.729456
11.944238 -2.0659039 7.8424692 0 0 0 0 27.734402
12.715741 -2.7075651 7.9646659 0 0 0 0 27.739349
13.513195 -3.3301656 8.0848656 0 0 0 0 27.744297
13.531165 -3.7690532 7.7249422 0 0 0 0 27.749243
11.965579 -1.8050358 7.8467956 0 0 0 0 27.75419
12.800984 -2.4324703 7.9950819 0 0 0 0 27.759138
13.583406 -3.0251846 8.0891657 0 0 0 0 27.764084
13.622359 -3.4580173 7.7272687 0 0 0 0 27.769032
11.98192 -1.5441747 7.8541155 0 0 0 0 27.773979
12.848258 -2.1495335 8.0034027 0 0 0 0 27.778925
13.675591 -2.7211022 8.1115189 0 0 0 0 27.783873
13.679569 -3.1381135 7.7135053 0 0 0 0 27.788818
12.000266 -1.286299 7.8654518 0 0 0 0 27.793766
12.898516 -1.8655659 8.0217314 0 0 0 0 27.798714
13.716816 -2.4092243 8.1067505 0 0 0 0 27.803659
13.736778 -2.8191986 7.7047505 0 0 0 0 27.808607
12.023608 -1.0293961 7.8828058 0 0 0 0 27.813555
12.931799 -1.5806714 8.0290279 0 0 0 0 27.818501
13.780024 -2.1012475 8.1190424 0 0 0 0 27.823448
13.805966 -2.5002215 7.7090259 0 0 0 0 27.828396
12.010996 -0.77163786 7.8800869 0 0 0 0 27.833342
12.965082 -1.2967662 8.0413303 0 0 0 0 27.838289
13.835229 -1.7892962 8.1303139 0 0 0 0 27.843237
13.8222 -2.1734536 7.6851764 0 0 0 0 27.848183
11.999046 -0.50931036 7.8835969 0 0 0 0 27.507135
13.000101 -1.0090734 8.0600872 0 0 0 0 27.512083
13.872267 -1.472459 8.1381903 0 0 0 0 27.517029
13.908323 -1.8545164 7.7072177 0 0 0 0 27.521976
11.674822 -0.2469427 7.682137 0 0 0 0 27.526924
13.023326 -0.72218227 8.0753269 0 0 0 0 27.53187
13.933393 -1.1594454 8.1634369 0 0 0 0 27.536818
13.952457 -1.5296031 7.710393 0 0 0 0 27.541765
11.723092 0.0021178371 7.7295475 0 0 0 0 27.546711
11.814123 -0.39570084 7.3267384 0 0 0 0 27.551659
13.994524 -0.8474285 8.190691 0 0 0 0 27.556604
14.014585 -1.2086097 7.7256236 0 0 0 0 27.561552
11.744405 0.25006005 7.7609053 0 0 0 0 27.5665
11.783489 -0.13501047 7.3149447 0 0 0 0 27.571445
12.767159 -0.48392102 7.4669771 0 0 0 0 27.576393
14.019747 -0.87884092 7.7157121 0 0 0 0 27.581341
11.757725 0.49897376 7.7902474 0 0 0 0 27.586287
11.815778 0.12296022 7.3443031 0 0 0 0 27.591234
11.848555 -0.18203904 6.9311223 0 0 0 0 27.596182
13.067961 -0.51505613 7.1826181 0 0 0 0 27.601128
11.768037 0.75088573 7.8225808 0 0 0 0 27.606075
11.851055 0.38195303 7.3796692 0 0 0 0 27.611023
11.874835 0.08689215 6.9504414 0 0 0 0 27.615969
11.920508 -0.19204068 6.5472198 0 0 0 0 27.620916
11.784347 1.0018259 7.8599334 0 0 0 0 27.625864
11.883329 0.64393854 7.4160261 0 0 0 0 27.63081
11.919086 0.35690972 6.9848018 0 0 0 0 27.635757
11.955762 0.086917795 6.5665359 0 0 0 0 27.640705
11.792667 1.2527355 7.8942742 0 0 0 0 27.645651
11.922585 0.90895933 7.4593949 0 0 0 0 27.650599
11.954346 0.62789333 7.0161452 0 0 0 0 27.655546
11.988014 0.36687183 6.5878482 0 0 0 0 27.660492
11.765039 1.5015004 7.9105468 0 0 0 0 27.66544
11.953847 1.1749564 7.5027494 0 0 0 0 27.670385
11.991587 0.90389585 7.0534849 0 0 0 0 27.675333
12.032244 0.64888495 6.6201859 0 0 0 0 27.680281
11.717452 1.7461834 7.9157915 0 0 0 0 27.685226
11.986094 1.4439671 7.5511026 0 0 0 0 27.690174
12.026828 1.1798962 7.0928254 0 0 0 0 27.695122
12.076457 0.93590623 6.6565161 0 0 0 0 27.700068
11.681846 1.9919246 7.9310651 0 0 0 0 27.705015
12.025327 1.7160099 7.6054688 0 0 0 0 27.709963
12.063056 1.4599102 7.1371632 0 0 0 0 27.714909
12.125659 1.2249542 6.6988578 0 0 0 0 27.719856
11.570378 2.2253442 7.8992109 0 0 0 0 27.724804
12.072535 1.992097 7.6698465 0 0 0 0 27.72975
12.098269 1.7439295 7.1854935 0 0 0 0 27.734697
12.154867 1.5179336 6.7361512 0 0 0 0 27.739645
11.469908 2.4548187 7.8763962 0 0 0 0 27.744591
12.117725 2.273186 7.7382126 0 0 0 0 27.749538
12.142463 2.0309932 7.2428408 0 0 0 0 27.754486
12.186071 1.811927 6.777452 0 0 0 0 27.759432
11.405359 2.6934586 7.8806419 0 0 0 0 27.76438
12.139954 2.5521841 7.7955399 0 0 0 0 27.769327
12.179648 2.3230386 7.3011665 0 0 0 0 27.774273
12.23024 2.1119828 6.830771 0 0 0 0 27.779221
11.318868 2.9230092 7.8718691 0 0 0 0 27.784166
12.17415 2.8382344 7.8618803 0 0 0 0 27.789114
12.229803 2.621141 7.3695097 0 0 0 0 27.794062
12.278393 2.4170594 6.8890915 0 0 0 0 27.799007
11.195457 3.1414092 7.8410501 0 0 0 0 27.803955
12.213325 3.1283178 7.9372272 0 0 0 0 27.808903
12.258983 2.9181678 7.4308167 0 0 0 0 27.813848
12.31953 2.7281222 6.9503884 0 0 0 0 27.818796
11.124937 3.3720479 7.8493199 0 0 0 0 27.823744
12.200583 3.4111929 7.9844866 0 0 0 0 27.82869
12.297127 3.2232409 7.5021286 0 0 0 0 27.833637
12.363649 3.0442054 7.0176849 0 0 0 0 27.838585
11.106283 3.6229219 7.897656 0 0 0 0 27.843531
12.18784 3.6950748 8.034749 0 0 0 0 27.848478
12.343232 3.537359 7.5844407 0 0 0 0 27.853426
12.421727 3.3683543 7.0979967 0 0 0 0 27.858372
11.116562 3.8829293 7.9700365 0 0 0 0 27.863319
12.13417 3.9707973 8.0639515 0 0 0 0 27.868267
12.37935 3.8524408 7.6637354 0 0 0 0 27.873213
12.452829 3.6944053 7.1682534 0 0 0 0 27.87816
10.807624 4.0275526 7.8150287 0 0 0 0 27.883108
12.016651 4.2242517 8.0510798 0 0 0 0 27.888054
12.392487 4.1684432 7.7359862 0 0 0 0 27.893002
12.499884 4.0305295 7.2525253 0 0 0 0 27.897949
10.674253 4.2339549 7.7902474 0 0 0 0 27.902895
11.860227 4.4605575 8.0171738 0 0 0 0 27.907843
12.457499 4.5066652 7.8442974 0 0 0 0 27.912788
12.507989 4.3615155 7.3227348 0 0 0 0 27.917736
10.546883 4.4383879 7.7704897 0 0 0 0 27.922684
11.725748 4.704967 8.0013008 0 0 0 0 27.927629
12.092484 4.6861315 7.6850972 0 0 0 0 27.932577
12.371405 4.6429248 7.3087673 0 0 0 0 27.937525
10.432483 4.646884 7.7617555 0 0 0 0 27.942471
11.287045 4.8161016 7.7781186 0 0 0 0 27.947418
11.515999 4.766746 7.3927007 0 0 0 0 27.952366
12.043254 4.8455839 7.185596 0 0 0 0 27.957312
10.307109 4.8503447 7.7490158 0 0 0 0 27.962259
10.849391 4.9102473 7.5529876 0 0 0 0 27.967207
12.699816 5.4621949 7.6604939 0 0 0 0 27.9771
10.108359 5.0166583 7.6842408 0 0 0 0 27.746302
10.348388 4.9622931 7.2868829 0 0 0 0 27.751249
9.7905502 5.1162424 7.5293188 0 0 0 0 27.76609
10.090328 5.1101751 7.1869707 0 0 0 0 27.771038
9.4349098 5.1796522 7.3404117 0 0 0 0 27.785879
9.6328678 5.1461868 6.9459114 0 0 0 0 27.790825
11.025552 5.7007241 6.8975253 0 0 0 0 27.80072
9.0035439 5.1877222 7.0904832 0 0 0 0 27.805666
9.2781601 5.2186565 6.7749896 0 0 0 0 27.810614
8.8054581 5.3198733 7.0247569 0 0 0 0 27.825455
8.4359694 5.3372397 6.8199492 0 0 0 0 27.845242
8.1273088 5.3808942 6.6632128 0 0 0 0 27.86503
9.1880484 5.9874558 6.9949965 0 0 0 0 27.869978
9.262908 5.9926548 6.5921416 0 0 0 0 27.874924
7.8436022 5.4286628 6.5225248 0 0 0 0 27.884819
8.0739889 5.5165658 6.2407999 0 0 0 0 27.889765
8.1277561 5.523809 5.8768978 0 0 0 0 27.894712
8.162528 5.5300016 5.5119581 0 0 0 0 27.89966
7.5479674 5.4573817 6.3708615 0 0 0 0 27.904606
7.6447239 5.4707346 6.0040345 0 0 0 0 27.909554
7.6904297 5.4870019 5.6570945 0 0 0 0 27.914501
7.829793 5.5776834 5.3811746 0 0 0 0 27.919447
7.3370404 5.5405021 6.2912517 0 0 0 0 27.924395
7.4197865 5.5568218 5.9243889 0 0 0 0 27.92934
7.4455037 5.5710311 5.5734129 0 0 0 0 27.934288
7.4612079 5.5872226 5.2254119 0 0 0 0 27.939236
7.0992522 5.5924926 6.1836638 0 0 0 0 27.944181
7.153028 5.6027217 5.8087559 0 0 0 0 27.949129
7.1657243 5.6199131 5.4627466 0 0 0 0 27.954077
7.1743994 5.6401091 5.1227221 0 0 0 0 27.959023
6.8584847 5.6364827 6.0760932 0 0 0 0 27.96397
6.8892808 5.641644 5.6961503 0 0 0 0 27.968918
6.8939457 5.663837 5.3581133 0 0 0 0 27.973864
6.888607 5.6860085 5.0210567 0 0 0 0 27.978811
6.5868707 5.64433 5.9385481 0 0 0 0 27.983759
6.644484 5.6876583 5.5985713 0 0 0 0 27.988705
6.6849585 5.7510414 5.3005142 0 0 0 0 27.993652
6.6795602 5.7852464 4.9764299 0 0 0 0 27.9986
6.366075 5.6874189 5.8450294 0 0 0 0 28.003546
6.4763994 5.7940273 5.5660148 0 0 0 0 28.008493
6.4490786 5.8111396 5.2249265 0 0 0 0 28.013441
6.392837 5.8071494 4.8708282 0 0 0 0 28.018387
6.2448688 5.8169847 5.8445187 0 0 0 0 28.023335
6.2455921 5.8361135 5.4784832 0 0 0 0 28.028282
6.2102494 5.8562231 5.1433725 0 0 0 0 28.033228
6.1917996 5.8994312 4.831244 0 0 0 0 28.038176
6.0450234 5.8671751 5.7670345 0 0 0 0 28.043121
6.0506487 5.9063711 5.4229641 0 0 0 0 28.048069
6.1138453 6.0329494 5.1808109 0 0 0 0 28.053017
6.0804095 6.074111 4.863658 0 0 0 0 28.057962
5.9536972 6.0218916 5.7965355 0 0 0 0 28.06291
5.9582753 6.0741024 5.4584341 0 0 0 0 28.067858
5.2874055 6.7086186 4.8788686 0 0 0 0 28.156904
5.0216641 6.8147364 5.7832332 0 0 0 0 28.201426
3.4405947 7.0516682 4.5691514 0 0 0 0 28.07275
3.3963416 7.0179911 4.7871919 0 0 0 0 28.087591
3.366091 6.9873381 5.0012536 0 0 0 0 28.10243
3.3417971 6.9557519 5.2393293 0 0 0 0 28.117271
1.5529231 7.3597646 4.8617382 0 0 0 0 28.320099
1.6000375 7.2560968 4.9861159 0 0 0 0 28.33494
0.68662399 6.8951297 4.1972971 0 0 0 0 28.36957
0.76130235 6.9316435 4.3724284 0 0 0 0 28.384411
0.51598883 6.8245978 4.1592126 0 0 0 0 28.389357
0.59470248 6.8560948 4.3223624 0 0 0 0 28.404198
0.35697764 6.8602366 4.1869278 0 0 0 0 28.409145
0.67934424 6.9136167 4.4924679 0 0 0 0 28.419039
0.4368951 6.8376513 4.310194 0 0 0 0 28.423986
0.1960942 6.8578329 4.1947227 0 0 0 0 28.428934
0.5244 6.8299899 4.4353819 0 0 0 0 29.309999
0.28753397 6.8603621 4.3309908 0 0 0 0 29.314947
0.038783144 6.8476753 4.2036538 0 0 0 0 29.319893
0.62608206 6.9014487 4.6194868 0 0 0 0 29.324841
0.3745009 6.8426661 4.4372215 0 0 0 0 29.329788
0.13167955 6.8520246 4.3288584 0 0 0 0 29.334734
-0.12004422 6.8233385 4.2025456 0 0 0 0 29.339682
0.47249988 6.8089867 4.5424943 0 0 0 0 29.344627
0.22461468 6.8493443 4.4380741 0 0 0 0 29.349575
-0.024065966 6.8026547 4.3047962 0 0 0 0 29.354523
-0.28205565 6.864068 4.2433286 0 0 0 0 29.359468
0.32658017 6.831676 4.5463262 0 0 0 0 29.364416
0.072840005 6.8159814 4.413991 0 0 0 0 29.369364
-0.17794268 6.7993417 4.3106632 0 0 0 0 29.37431
-0.44501534 6.8847842 4.2751451 0 0 0 0 29.379257
0.18166465 6.8523703 4.5501657 0 0 0 0 29.384205
-0.076997906 6.8026533 4.4068804 0 0 0 0 29.389151
-0.33800742 6.8620925 4.3614154 0 0 0 0 29.394098
-0.61099404 6.9115071 4.3129506 0 0 0 0 29.399046
0.032015778 6.7769604 4.4931555 0 0 0 0 29.403992
-0.22886965 6.8003392 4.408751 0 0 0 0 29.408939
-0.49595976 6.8838115 4.3882418 0 0 0 0 29.413887
-0.77795738 6.9312296 4.3497691 0 0 0 0 29.418833
-0.11188097 6.7886605 4.4950156 0 0 0 0 29.42378
-0.38291928 6.8610935 4.4535193 0 0 0 0 29.428728
-0.65488219 6.8935237 4.4100876 0 0 0 0 29.433674
-0.94492781 6.9529595 4.3895874 0 0 0 0 29.438622
-0.25982219 6.8153749 4.5088477 0 0 0 0 29.443569
-0.53685623 6.8808107 4.4733567 0 0 0 0 29.448515
-0.81584036 6.9152508 4.4419146 0 0 0 0 29.453463
-1.1118549 6.9576797 4.4214354 0 0 0 0 29.458408
-0.40880394 6.8561077 4.533659 0 0 0 0 29.463356
-0.69078058 6.8955274 4.4912052 0 0 0 0 29.468304
-0.97982687 6.9459896 4.4827256 0 0 0 0 29.473249
-1.2828323 6.9794173 4.4672537 0 0 0 0 29.478197
-0.55976754 6.8898354 4.5554814 0 0 0 0 29.483145
-0.84772855 6.9172544 4.5170407 0 0 0 0 29.488091
-1.1417426 6.9507098 4.5075836 0 0 0 0 29.493038
-1.4811158 7.1122289 4.5888605 0 0 0 0 29.497986
-0.71170807 6.913559 4.5743208 0 0 0 0 29.502932
-1.0097014 6.9469876 4.5508595 0 0 0 0 29.507879
-1.306695 6.9674444 4.5434208 0 0 0 0 29.512827
-1.6661683 7.1599832 4.6576252 0 0 0 0 29.517773
-0.86763436 6.9312758 4.591167 0 0 0 0 29.52272
-1.1696284 6.9587135 4.5757117 0 0 0 0 29.527668
-1.4989374 7.0892491 4.653059 0 0 0 0 29.532614
-1.868348 7.2527642 4.7612991 0 0 0 0 29.537561
-1.0225564 6.9469972 4.6080203 0 0 0 0 29.542509
-1.3325626 6.9724412 4.6035595 0 0 0 0 29.547455
-1.6830196 7.1520128 4.7258048 0 0 0 0 29.552402
-2.0048468 7.0914087 4.7014627 0 0 0 0 29.55735
-1.1784728 6.9597197 4.6248794 0 0 0 0 29.562296
-1.5116909 7.0572209 4.6812778 0 0 0 0 29.567242
-1.8498685 7.1267247 4.7437143 0 0 0 0 29.572189
-2.1918485 7.1161604 4.7652688 0 0 0 0 29.577137
-1.3373864 6.9694433 4.6437411 0 0 0 0 29.582085
-1.6998557 7.1550059 4.7709684 0 0 0 0 29.587032
-2.0106754 7.0844359 4.7526603 0 0 0 0 29.59198
-2.3959615 7.180932 4.8599939 0 0 0 0 29.596924
-1.5084395 7.0312033 4.6985102 0 0 0 0 29.601871
-1.8515879 7.0906925 4.7539601 0 0 0 0 29.606819
-2.1936736 7.1121888 4.8114705 0 0 0 0 29.611767
-2.6040564 7.2367001 4.9547305 0 0 0 0 29.616714
-1.6996616 7.1559997 4.7981591 0 0 0 0 29.621662
-2.023514 7.0964274 4.7888193 0 0 0 0 29.626606
-2.3857093 7.1529469 4.8822522 0 0 0 0 29.631554
-2.7829225 7.2064338 4.9926419 0 0 0 0 29.636501
-1.8463475 7.0776725 4.7641802 0 0 0 0 29.641449
-2.2034903 7.121171 4.8366413 0 0 0 0 29.646397
-2.5928221 7.2207179 4.9769754 0 0 0 0 29.65134
-2.9929779 7.2451959 5.0824089 0 0 0 0 29.656288
-2.0142605 7.0834031 4.7900472 0 0 0 0 29.661236
-2.3864672 7.143918 4.8884659 0 0 0 0 29.666183
-2.7717073 7.2024527 5.0138707 0 0 0 0 29.671131
-3.1939487 7.2499495 5.1542425 0 0 0 0 29.676079
-2.1962774 7.1281543 4.8438392 0 0 0 0 29.681023
-2.5905759 7.2156873 4.9771914 0 0 0 0 29.68597
-2.9727154 7.2282071 5.0866728 0 0 0 0 29.690918
-3.3365657 7.1206641 5.1323576 0 0 0 0 29.695866
-2.3782527 7.1548982 4.8906617 0 0 0 0 29.700813
-2.7654421 7.194417 5.0040984 0 0 0 0 29.705761
-3.1747103 7.247961 5.1584859 0 0 0 0 29.710705
-3.4651332 6.970387 5.0975218 0 0 0 0 29.715652
-2.5793362 7.2236562 4.9664006 0 0 0 0 29.7206
-2.9664578 7.2281694 5.0738916 0 0 0 0 29.725548
-3.3173435 7.1286759 5.1345854 0 0 0 0 29.730495
-3.5907085 6.8211212 5.0646877 0 0 0 0 29.735443
-2.7481673 7.1933765 4.9783306 0 0 0 0 29.740387
-3.1744881 7.266922 5.1496725 0 0 0 0 29.745335
-3.4499383 6.9923968 5.1007233 0 0 0 0 29.750282
-3.7082739 6.6658673 5.028872 0 0 0 0 29.75523
-2.9481707 7.2271214 5.0401282 0 0 0 0 29.760178
-3.327178 7.1716394 5.136724 0 0 0 0 29.765121
-3.5835619 6.8651299 5.0748458 0 0 0 0 29.770069
-3.8308773 6.522624 5.0040312 0 0 0 0 29.775017
-3.1541615 7.2620778 5.1031604 0 0 0 0 29.494303
-3.4707725 7.0575209 5.1080494 0 0 0 0 29.499249
-3.7110553 6.7259874 5.0412478 0 0 0 0 29.504196
-4.0347219 6.5184841 5.0861311 0 0 0 0 29.509144
-3.3440711 7.2557907 5.1430159 0 0 0 0 29.51409
-3.6003428 6.9222202 5.0691938 0 0 0 0 29.519037
-3.8235977 6.5747156 4.9994407 0 0 0 0 29.523985
-4.212575 6.4662457 5.1370759 0 0 0 0 29.528931
-3.4917154 7.1534762 5.1160841 0 0 0 0 29.533878
-3.7339604 6.8029332 5.041307 0 0 0 0 29.538826
-3.9833722 6.5014639 5.0214434 0 0 0 0 29.543772
-4.3241477 6.3160081 5.1122689 0 0 0 0 29.548719
-3.6263003 7.0271673 5.0752082 0 0 0 0 29.553667
-3.8575466 6.6696563 5.0064564 0 0 0 0 29.558613
-4.2114606 6.5372286 5.1291823 0 0 0 0 29.56356
-4.427702 6.1567802 5.0824866 0 0 0 0 29.568508
-3.7649271 6.9138718 5.0453062 0 0 0 0 29.573456
-3.9841595 6.5433893 4.9795899 0 0 0 0 29.5784
-4.340096 6.411983 5.1163125 0 0 0 0 29.583347
-4.539309 6.0155606 5.0656629 0 0 0 0 29.588295
-3.9015496 6.7965827 5.0154133 0 0 0 0 29.593243
-4.1760755 6.5231395 5.0354691 0 0 0 0 29.59819
-4.4526792 6.2667451 5.0884957 0 0 0 0 29.603138
-4.6338696 5.8553548 5.0368919 0 0 0 0 29.608082
-4.0241241 6.6603022 4.9725685 0 0 0 0 29.613029
-4.3910704 6.5278931 5.1172805 0 0 0 0 29.617977
-4.5592594 6.1185184 5.05969 0 0 0 0 29.622925
-4.719419 5.6901598 5.0031385 0 0 0 0 29.627872
-4.1557565 6.5420346 4.9466834 0 0 0 0 29.63282
-4.5076571 6.3876438 5.0844507 0 0 0 0 29.637764
-4.6628428 5.9693012 5.0318894 0 0 0 0 29.642712
-4.8110113 5.5389729 4.9803543 0 0 0 0 29.647659
-4.3918343 6.5827799 5.0444145 0 0 0 0 29.652607
-4.6192331 6.2394061 5.0516391 0 0 0 0 29.657555
-4.7704573 5.830092 5.0120668 0 0 0 0 29.662498
-4.902616 5.3887963 4.9625673 0 0 0 0 29.667446
-4.573668 6.5335226 5.0773592 0 0 0 0 29.672394
-4.7358503 6.1051779 5.0287981 0 0 0 0 29.677341
-4.8630333 5.6748948 4.9812875 0 0 0 0 29.682289
-4.9801955 5.2296305 4.9348111 0 0 0 0 29.687237
-4.6992717 6.3982697 5.0475092 0 0 0 0 29.692181
-4.8434458 5.960959 4.9999838 0 0 0 0 29.697128
-4.9546223 5.522706 4.9535036 0 0 0 0 29.702076
-5.0658116 5.080471 4.9190273 0 0 0 0 29.707024
-4.8188739 6.2610278 5.0166707 0 0 0 0 29.711971
-4.9470401 5.8137493 4.9711785 0 0 0 0 29.716919
-5.0502458 5.3805275 4.935698 0 0 0 0 29.721863
-5.1414146 4.926322 4.8972631 0 0 0 0 29.72681
-4.9354734 6.1197944 4.9858408 0 0 0 0 29.731758
-5.05968 5.6815467 4.955337 0 0 0 0 29.736706
-5.141861 5.233355 4.9159036 0 0 0 0 29.741653
-5.2170348 4.7761817 4.8804913 0 0 0 0 29.746601
-5.0520878 5.9815712 4.9600053 0 0 0 0 29.751545
-5.155273 5.5293555 4.9265471 0 0 0 0 29.756493
-5.2184482 5.0761938 4.8851423 0 0 0 0 29.76144
-5.2866507 4.6230502 4.8617296 0 0 0 0 29.766388
-5.1697173 5.8473554 4.9381623 0 0 0 0 29.771336
-5.2478743 5.3791733 4.898757 0 0 0 0 29.776279
-5.3070855 4.9330392 4.8713436 0 0 0 0 29.781227
-5.3522692 4.4699264 4.8419714 0 0 0 0 29.786175
-5.2763186 5.7001491 4.9083514 0 0 0 0 29.791122
-5.3445029 5.2369981 4.8789477 0 0 0 0 29.79607
-5.3836994 4.7808938 4.8485718 0 0 0 0 29.801018
-5.4148932 4.3168106 4.8242154 0 0 0 0 29.805962
-5.3839393 5.5579519 4.8845305 0 0 0 0 29.810909
-5.4341159 5.086832 4.8551588 0 0 0 0 29.815857
-5.4493051 4.6247621 4.8218188 0 0 0 0 29.820805
-5.4705157 4.1627045 4.8034682 0 0 0 0 29.825752
-5.492569 5.4157619 4.8647079 0 0 0 0 29.8307
-5.5197334 4.9366741 4.8313732 0 0 0 0 29.835644
-5.5309544 4.4806294 4.8110251 0 0 0 0 29.840591
-5.5321646 4.0156031 4.7917008 0 0 0 0 29.845539
-5.5891786 5.2655821 4.8369107 0 0 0 0 29.850487
-5.605361 4.7875237 4.8115845 0 0 0 0 29.855434
-5.6005874 4.3305068 4.7922544 0 0 0 0 29.860382
-5.5767841 3.857513 4.7679696 0 0 0 0 29.865326
-5.6908102 5.1204085 4.8170991 0 0 0 0 29.870274
-5.6869922 4.638382 4.7917995 0 0 0 0 29.875221
-5.6551986 4.1713982 4.7655144 0 0 0 0 29.880169
-5.632443 3.7114251 4.757205 0 0 0 0 29.885117
-5.7834287 4.968246 4.7933068 0 0 0 0 29.89006
-5.7586093 4.4822516 4.7670355 0 0 0 0 29.895008
-5.7258573 4.026288 4.7547312 0 0 0 0 29.899956
-5.6830993 3.562345 4.7454486 0 0 0 0 29.904903
-5.8690405 4.8120909 4.7655282 0 0 0 0 29.909851
-5.8272295 4.3251286 4.7432752 0 0 0 0 29.914799
-5.7804942 3.8731928 4.7349782 0 0 0 0 29.919743
-5.7217431 3.410274 4.7257099 0 0 0 0 29.92469
-5.9546633 4.6569452 4.7427464 0 0 0 0 29.929638
-5.9008727 4.1750083 4.7254963 0 0 0 0 29.934586
-5.8361411 3.7211013 4.7182207 0 0 0 0 29.939533
-5.7734241 3.2672043 4.7209396 0 0 0 0 29.944481
-5.9380774 4.427855 4.6431928 0 0 0 0 29.949425
-5.977531 4.0268946 4.7147093 0 0 0 0 29.954372
-5.8958077 3.5750132 4.7074475 0 0 0 0 29.95932
-5.8040724 3.1131477 4.7012091 0 0 0 0 29.964268
-5.9239783 4.2074766 4.5479798 0 0 0 0 29.682384
-6.0506144 3.877496 4.7013192 0 0 0 0 29.687332
-5.94982 3.4236543 4.6921549 0 0 0 0 29.69228
-5.8440328 2.9678292 4.6889973 0 0 0 0 29.697227
-5.9655232 4.0313616 4.503294 0 0 0 0 29.702175
-6.0972042 3.7133961 4.672606 0 0 0 0 29.707119
-5.9854345 3.2665806 4.6694407 0 0 0 0 29.712067
-5.7664757 2.7668309 4.5904975 0 0 0 0 29.717014
-6.031137 3.876241 4.4805417 0 0 0 0 29.721962
-6.0987158 3.525327 4.612987 0 0 0 0 29.72691
-6.0370917 3.1205037 4.6616864 0 0 0 0 29.731853
-5.687942 2.5748372 4.4939814 0 0 0 0 29.736801
-6.0967588 3.7211258 4.4607873 0 0 0 0 29.741749
-6.0952373 3.3402674 4.5533671 0 0 0 0 29.746696
-6.0737257 2.9664378 4.6439619 0 0 0 0 29.751644
-5.7306433 2.4407885 4.4962115 0 0 0 0 29.756592
-6.1643963 3.5690169 4.4460239 0 0 0 0 29.761536
-6.0987868 3.1612115 4.5037251 0 0 0 0 29.766483
-5.9120212 2.7244847 4.4796295 0 0 0 0 29.771431
-5.7553201 2.3007514 4.4854722 0 0 0 0 29.776379
-6.2280316 3.4139161 4.4312677 0 0 0 0 29.781326
-6.1093674 2.992157 4.4620562 0 0 0 0 29.786274
-5.9246473 2.5684454 4.4519334 0 0 0 0 29.791218
-5.7800102 2.1627221 4.4797282 0 0 0 0 29.796165
-6.2826624 3.2568257 4.4125247 0 0 0 0 29.801113
-6.1299777 2.829103 4.4313617 0 0 0 0 29.806061
-5.9683394 2.4293938 4.4501686 0 0 0 0 29.811008
-5.7976928 2.0226977 4.4689946 0 0 0 0 29.815956
-6.3393021 3.100738 4.3967752 0 0 0 0 29.8209
-6.1616168 2.6740465 4.4106388 0 0 0 0 29.825848
-5.9910021 2.2813568 4.4344416 0 0 0 0 29.830795
-5.8213959 1.8866754 4.4662442 0 0 0 0 29.835743
-6.3909435 2.9426613 4.3820333 0 0 0 0 29.840691
-6.2062888 2.5259886 4.4028859 0 0 0 0 29.845634
-6.028697 2.1413147 4.4316821 0 0 0 0 29.850582
-5.8330879 1.7476629 4.456512 0 0 0 0 29.85553
-6.4345818 2.782594 4.3643022 0 0 0 0 29.860477
-6.2499647 2.3769362 4.3971338 0 0 0 0 29.865425
-6.0513802 1.9972876 4.4219446 0 0 0 0 29.870373
-5.8437901 1.6116552 4.4487734 0 0 0 0 29.875317
-6.4782276 2.6225326 4.3495688 0 0 0 0 29.880264
-6.2836342 2.2258935 4.386395 0 0 0 0 29.885212
-6.0740685 1.8532641 4.4142056 0 0 0 0 29.89016
-5.8605037 1.4766454 4.4460239 0 0 0 0 29.895107
-6.5238872 2.4654744 4.3388262 0 0 0 0 29.900055
-6.3093014 2.0728612 4.3736672 0 0 0 0 29.904999
-6.0987687 1.7112435 4.4104586 0 0 0 0 29.909946
-5.8692174 1.3416457 4.4412823 0 0 0 0 29.914894
-6.5645437 2.3064225 4.3260899 0 0 0 0 29.919842
-6.3429871 1.9238273 4.3679209 0 0 0 0 29.924789
-6.1184678 1.5682285 4.404717 0 0 0 0 29.929737
-5.8729305 1.2066499 4.4335446 0 0 0 0 29.934681
-6.6062107 2.1473768 4.3183503 0 0 0 0 29.939629
-6.3656659 1.7718041 4.3571906 0 0 0 0 29.944576
-6.1181502 1.4222285 4.387002 0 0 0 0 29.949524
-5.8776536 1.0726581 4.4298019 0 0 0 0 29.954472
-6.6288614 1.983348 4.3006392 0 0 0 0 29.959415
-6.3783374 1.6167916 4.342474 0 0 0 0 29.964363
-6.1368637 1.2812212 4.3852539 0 0 0 0 29.969311
-5.8783765 0.93866986 4.4240613 0 0 0 0 29.974258
-6.6625352 1.8233178 4.2939057 0 0 0 0 29.979206
-6.4070396 1.4677739 4.3417268 0 0 0 0 29.984154
-6.1475768 1.1392239 4.3815141 0 0 0 0 29.989098
-5.9041381 0.81067193 4.4392791 0 0 0 0 29.994045
-6.6912074 1.6622921 4.2841773 0 0 0 0 29.998993
-6.4177265 1.3147708 4.3310046 0 0 0 0 30.003941
-6.1512871 0.99723214 4.3737812 0 0 0 0 30.008888
-6.7088776 1.4992809 4.2724628 0 0 0 0 30.01878
-6.424417 1.1627729 4.319284 0 0 0 0 30.023727
-6.1580086 0.85624254 4.3710399 0 0 0 0 30.028675
-0.58085877 0.0533779 0.43109199 0 0 0 0 30.033623
-6.7305593 1.3382698 4.2647371 0 0 0 0 30.03857
-6.4401236 1.0117735 4.3165469 0 0 0 0 30.043518
-0.54677784 0.037398394 0.40518677 0 0 0 0 30.05341
-6.7332268 1.1732742 4.2470384 0 0 0 0 30.058357
-6.4528351 0.86177897 4.3138103 0 0 0 0 30.063305
-0.54473448 0.025403919 0.40423596 0 0 0 0 30.073196
-6.4535418 0.71079588 4.3060865 0 0 0 0 30.083092
-0.55571407 0.038369086 0.38722917 0 0 0 0 30.088039
-0.53368276 0.013413582 0.39629591 0 0 0 0 30.092987
-0.45659658 0.056378689 0.28034359 0 0 0 0 30.097935
-6.5002999 0.56378955 4.3322988 0 0 0 0 30.102879
-0.55266839 0.025375044 0.38528067 0 0 0 0 30.107826
-0.53264117 0.0014188534 0.39634326 0 0 0 0 30.112774
-0.52659911 -0.0085725058 0.39339393 0 0 0 0 30.132561
-0.45251262 0.034387693 0.27643755 0 0 0 0 30.137508
-0.55059099 0.021355141 0.36134276 0 0 0 0 30.142456
-0.54057449 0.00039043475 0.37738881 0 0 0 0 30.147404
-0.52680999 -0.031607892 0.39511415 0 0 0 0 29.931976
-0.44771421 0.012349578 0.27316427 0 0 0 0 29.936924
-0.54879582 -0.0036870083 0.36006331 0 0 0 0 29.941872
-0.54178524 -0.022649603 0.3791056 0 0 0 0 29.946815
-0.53173363 -0.055599947 0.40120068 0 0 0 0 29.971554
-0.54270929 -0.0097076092 0.33213305 0 0 0 0 29.976498
-0.54470783 -0.028674923 0.35816345 0 0 0 0 29.981445
-0.54170531 -0.046637457 0.38219875 0 0 0 0 29.986393
-0.54566795 -0.080593668 0.41627643 0 0 0 0 30.011127
-0.54262459 -0.035697185 0.33322877 0 0 0 0 30.016075
-0.54362476 -0.053663477 0.35925868 0 0 0 0 30.021023
-0.55763566 -0.07363487 0.39627481 0 0 0 0 30.02597
-0.55563623 -0.094591722 0.42631227 0 0 0 0 30.030918
-5.8362565 -1.1280032 4.5691009 0 0 0 0 30.050705
-0.54154229 -0.061684035 0.3353247 0 0 0 0 30.055653
-0.56155568 -0.081661992 0.3743332 0 0 0 0 30.060596
-6.1971903 -1.1085829 4.5186729 0 0 0 0 30.065544
-5.8140392 -1.2549386 4.5793519 0 0 0 0 30.070492
-6.5260634 -1.1121374 4.4463181 0 0 0 0 30.080387
-6.1449356 -1.2424998 4.5059714 0 0 0 0 30.085335
-5.7798209 -1.378865 4.5836105 0 0 0 0 30.090279
-0.56147265 -0.09068495 0.35039759 0 0 0 0 30.095226
-6.4918022 -1.2620614 4.4456162 0 0 0 0 30.100174
-6.1117001 -1.3794237 4.5102472 0 0 0 0 30.105122
-5.7386026 -1.5007883 4.5828724 0 0 0 0 30.110069
-0.4783878 -0.089626454 0.29852784 0 0 0 0 30.115017
-6.0734653 -1.5153449 4.5115247 0 0 0 0 30.124908
-5.7013931 -1.6237108 4.5881281 0 0 0 0 30.129856
-0.48735651 -0.1026251 0.30656272 0 0 0 0 30.134804
-6.4132962 -1.5598922 4.4482117 0 0 0 0 30.139751
-6.0312366 -1.6492612 4.5128007 0 0 0 0 30.144699
-5.6461759 -1.7406272 4.5783944 0 0 0 0 30.149643
-6.7740974 -1.6144803 4.3708892 0 0 0 0 30.154591
-6.3810563 -1.7098087 4.4574971 0 0 0 0 30.159538
-5.9920154 -1.7841766 4.5190716 0 0 0 0 30.164486
-5.606976 -1.8605474 4.5846424 0 0 0 0 30.169434
-6.7268338 -1.7753825 4.3712068 0 0 0 0 30.174377
-6.3248096 -1.8547097 4.4528012 0 0 0 0 30.179325
-5.9487967 -1.9170897 4.5233417 0 0 0 0 30.184273
-5.5707822 -1.9834653 4.5968876 0 0 0 0 30.18922
-6.6855783 -1.9382857 4.3785162 0 0 0 0 30.194168
-6.2795782 -2.0006137 4.4590898 0 0 0 0 30.199116
-5.8995805 -2.0499966 4.5266151 0 0 0 0 30.20406
-5.5235872 -2.1003811 4.5991354 0 0 0 0 30.209007
-6.6343279 -2.0981798 4.3828297 0 0 0 0 30.213955
-6.2383509 -2.1495183 4.4703741 0 0 0 0 30.218903
-5.8553724 -2.1819067 4.5338783 0 0 0 0 30.22385
-5.4793973 -2.220295 4.6073799 0 0 0 0 30.228798
-6.5800815 -2.2570705 4.3871412 0 0 0 0 30.233742
-6.1801243 -2.291414 4.4706659 0 0 0 0 30.238689
-5.8021665 -2.312808 4.5391479 0 0 0 0 30.243637
-5.4352136 -2.3392074 4.6176209 0 0 0 0 30.248585
-6.5138392 -2.4119513 4.3874583 0 0 0 0 30.253532
-6.125905 -2.4353077 4.477952 0 0 0 0 30.25848
-5.7539678 -2.4437127 4.548408 0 0 0 0 30.263424
-5.3860316 -2.4571168 4.6258631 0 0 0 0 30.268372
-6.4556041 -2.5698371 4.3937654 0 0 0 0 30.273319
-6.0656896 -2.5771973 4.4832392 0 0 0 0 30.278267
-5.6937704 -2.5706093 4.5516739 0 0 0 0 30.283215
-5.3218498 -2.566021 4.6221094 0 0 0 0 30.288158
-6.3993778 -2.7287185 4.4070678 0 0 0 0 30.293106
-5.9994779 -2.7160838 4.4855256 0 0 0 0 30.298054
-5.6375785 -2.698508 4.5589328 0 0 0 0 30.303001
-5.2756782 -2.6849301 4.6363435 0 0 0 0 30.307949
-6.3291526 -2.8815935 4.411375 0 0 0 0 30.312897
-5.9372745 -2.8569686 4.4948063 0 0 0 0 30.317841
-5.5833926 -2.8284049 4.5711884 0 0 0 0 30.322788
-5.2185063 -2.7988346 4.642581 0 0 0 0 30.327736
-6.2549348 -3.0334623 4.4176817 0 0 0 0 30.332684
-5.8760762 -2.997854 4.5060825 0 0 0 0 30.337631
-5.5152073 -2.9522951 4.5744495 0 0 0 0 30.342579
-5.1543374 -2.907737 4.6438174 0 0 0 0 30.347523
-6.1857243 -3.1863339 4.4289794 0 0 0 0 30.35247
-5.8068819 -3.1357329 4.5153599 0 0 0 0 30.357418
-5.4480286 -3.0741858 4.5797043 0 0 0 0 30.362366
-5.1051779 -3.0256412 4.6620445 0 0 0 0 30.367313
-6.1145163 -3.340203 4.4412766 0 0 0 0 30.372261
-5.7296915 -3.2686086 4.5196376 0 0 0 0 30.377205
-5.3858552 -3.2010753 4.5929556 0 0 0 0 30.382153
-5.0380177 -3.1325417 4.6642761 0 0 0 0 30.3871
-6.0294771 -3.4860127 4.4503751 0 0 0 0 31.315552
-5.6555996 -3.402657 4.5316119 0 0 0 0 31.320499
-5.3127117 -3.3203363 4.6008258 0 0 0 0 31.325447
-4.9708233 -3.2410164 4.6730394 0 0 0 0 31.330395
-5.9483514 -3.6339192 4.4615722 0 0 0 0 31.335339
-5.5844827 -3.541574 4.546793 0 0 0 0 31.340286
-5.2426033 -3.4412625 4.6099916 0 0 0 0 31.345234
-4.9107237 -3.3529525 4.6861901 0 0 0 0 31.350182
-5.8642311 -3.7808244 4.4747663 0 0 0 0 31.355129
-5.4963703 -3.6674871 4.549974 0 0 0 0 31.360077
-5.1684985 -3.5621867 4.6201572 0 0 0 0 31.365021
-4.8386254 -3.456887 4.6893406 0 0 0 0 31.369968
-5.7761154 -3.9257286 4.4879575 0 0 0 0 31.374916
-5.4252634 -3.8064041 4.571147 0 0 0 0 31.379864
-5.0933976 -3.6801124 4.6293178 0 0 0 0 31.384811
-4.7665305 -3.5628207 4.6964898 0 0 0 0 31.389759
-5.682003 -4.0676312 4.4991474 0 0 0 0 31.394703
-5.3341584 -3.9313173 4.577322 0 0 0 0 31.399651
-5.0153008 -3.7980359 4.6414776 0 0 0 0 31.404598
-4.7054405 -3.6747582 4.7136316 0 0 0 0 31.409546
-5.5908961 -4.2115355 4.5153322 0 0 0 0 31.414494
-5.2510586 -4.0632319 4.5934925 0 0 0 0 31.419437
-4.9382067 -3.9169612 4.6546335 0 0 0 0 31.424385
-4.6273522 -3.775692 4.7187757 0 0 0 0 31.429333
-5.4877939 -4.346437 4.5255156 0 0 0 0 31.43428
-5.1579628 -4.1871452 4.6036601 0 0 0 0 31.439228
-4.8551173 -4.0308857 4.6657872 0 0 0 0 31.444176
-4.5572677 -3.882628 4.7329144 0 0 0 0 31.44912
-5.4046955 -4.4993434 4.5556922 0 0 0 0 31.454067
-5.0698709 -4.3150606 4.6208234 0 0 0 0 31.459015
-4.7680292 -4.1418104 4.6739383 0 0 0 0 31.463963
-4.4831862 -3.9885628 4.7470522 0 0 0 0 31.46891
-5.2956033 -4.6292443 4.5668683 0 0 0 0 31.473858
-4.9747839 -4.4389739 4.6359854 0 0 0 0 31.478802
-4.6909466 -4.2627373 4.6950846 0 0 0 0 31.483749
-4.4061069 -4.0914993 4.7581873 0 0 0 0 31.488697
-5.0935168 -4.6771288 4.5000567 0 0 0 0 31.493645
-4.8866997 -4.5688901 4.6581416 0 0 0 0 31.498592
-4.5998669 -4.3726616 4.707231 0 0 0 0 31.50354
-4.3250308 -4.1904359 4.7673197 0 0 0 0 31.508484
-4.8904371 -4.7150168 4.4302368 0 0 0 0 31.513432
-4.7886195 -4.6918049 4.6762972 0 0 0 0 31.518379
-4.5147901 -4.4875884 4.7253723 0 0 0 0 31.523327
-4.2509584 -4.2983727 4.7874489 0 0 0 0 31.528275
-4.7843595 -4.8429232 4.450398 0 0 0 0 31.533218
-4.6395431 -4.7637143 4.6454549 0 0 0 0 31.538166
-4.423717 -4.599514 4.7425127 0 0 0 0 31.543114
-4.1718884 -4.4013109 4.8035755 0 0 0 0 31.548061
-4.6702862 -4.9628296 4.4655552 0 0 0 0 31.553009
-4.4364748 -4.7736197 4.5616112 0 0 0 0 31.557957
-4.3366466 -4.7154422 4.7646489 0 0 0 0 31.562901
-4.0848207 -4.4982486 4.8147011 0 0 0 0 31.567848
-4.5622153 -5.0897384 4.488709 0 0 0 0 31.572796
-4.3074088 -4.8565369 4.5507541 0 0 0 0 31.577744
-4.2345805 -4.8153687 4.7747827 0 0 0 0 31.582691
-4.0007558 -4.5971885 4.8288221 0 0 0 0 31.587639
-4.4411516 -5.2046447 4.5058599 0 0 0 0 31.592583
-4.2003446 -4.964457 4.5658922 0 0 0 0 31.59753
-4.084518 -4.8592958 4.7309146 0 0 0 0 31.602478
-3.9136949 -4.6961269 4.8459425 0 0 0 0 31.607426
-4.332088 -5.3335552 4.535007 0 0 0 0 31.612373
-4.0962853 -5.0773768 4.5900278 0 0 0 0 31.617321
-3.9064596 -4.8642244 4.6530418 0 0 0 0 31.622265
-3.8216355 -4.7890673 4.8570595 0 0 0 0 31.627213
-4.210031 -5.4504633 4.5581517 0 0 0 0 31.63216
-3.9872286 -5.1852989 4.6091599 0 0 0 0 31.637108
-3.7874053 -4.9371562 4.646162 0 0 0 0 31.642056
-3.7345796 -4.8890085 4.8771734 0 0 0 0 31.647003
-4.078979 -5.5543737 4.5732913 0 0 0 0 31.651947
-3.8711758 -5.2852211 4.6242886 0 0 0 0 31.656895
-3.6843524 -5.0320902 4.6602812 0 0 0 0 31.661842
-3.6155257 -4.9479518 4.858284 0 0 0 0 31.66679
-3.94993 -5.6622853 4.5944281 0 0 0 0 31.671738
-3.7601266 -5.3921452 4.6484141 0 0 0 0 31.676682
-3.5833025 -5.1320243 4.6813974 0 0 0 0 31.681629
-3.449475 -4.9369006 4.7743864 0 0 0 0 31.686577
-3.8188848 -5.7671986 4.6155601 0 0 0 0 31.691525
-3.6380818 -5.4860692 4.664536 0 0 0 0 31.696472
-3.478256 -5.2249599 4.6985092 0 0 0 0 31.70142
-3.3254273 -4.9828486 4.7484879 0 0 0 0 31.706364
-3.6878424 -5.875113 4.6406898 0 0 0 0 31.711311
-3.5180395 -5.5819955 4.6836538 0 0 0 0 31.716259
-3.3762121 -5.3248968 4.723619 0 0 0 0 31.721207
-3.2213833 -5.0557971 4.7515874 0 0 0 0 31.726154
-3.5538042 -5.9810281 4.6678157 0 0 0 0 31.731102
-3.4009991 -5.6859231 4.7107701 0 0 0 0 31.736046
-3.2661717 -5.415834 4.7427263 0 0 0 0 31.740993
-3.1223407 -5.1387458 4.7646852 0 0 0 0 31.745941
-3.4147708 -6.0759468 4.6899357 0 0 0 0 31.750889
-3.2759633 -5.778852 4.7318821 0 0 0 0 31.755836
-3.154134 -5.5037742 4.7608299 0 0 0 0 31.760784
-3.0303009 -5.2356939 4.7927828 0 0 0 0 31.765728
-3.2777395 -6.177866 4.7190533 0 0 0 0 31.770676
-3.1479311 -5.8657832 4.7509899 0 0 0 0 31.775623
-3.0430984 -5.5977135 4.7859321 0 0 0 0 31.780571
-2.9282632 -5.3166451 4.8068752 0 0 0 0 31.785519
-3.1285462 -6.2595873 4.73736 0 0 0 0 31.436092
-3.0157969 -5.9494882 4.7692494 0 0 0 0 31.44104
-2.9230185 -5.6734066 4.7981467 0 0 0 0 31.445988
-2.8272359 -5.4013238 4.8270497 0 0 0 0 31.450935
-2.9835086 -6.3524776 4.7655067 0 0 0 0 31.455883
-2.8887563 -6.0423932 4.7983851 0 0 0 0 31.460827
-2.8059754 -5.7583246 4.8192725 0 0 0 0 31.465775
-2.7261896 -5.4882536 4.8501668 0 0 0 0 31.470722
-2.8344762 -6.4343715 4.7876458 0 0 0 0 31.47567
-2.7487226 -6.1123009 4.8115129 0 0 0 0 31.480618
-2.6859357 -5.8392444 4.8393946 0 0 0 0 31.485565
-2.6191466 -5.5691843 4.8692813 0 0 0 0 31.490509
-2.6824484 -6.5132666 4.8117814 0 0 0 0 31.495457
-2.6176882 -6.2022085 4.8416429 0 0 0 0 31.500404
-2.5628998 -5.9141665 4.8565116 0 0 0 0 31.505352
-2.5071077 -5.6391177 4.8813901 0 0 0 0 31.5103
-2.5204284 -6.5671673 4.8199058 0 0 0 0 31.515244
-2.4746611 -6.264122 4.8527608 0 0 0 0 31.520191
-2.4378657 -5.9910884 4.8766279 0 0 0 0 31.525139
-2.3980694 -5.7190514 4.9024987 0 0 0 0 31.530087
-2.3396335 -6.3520317 4.8868847 0 0 0 0 31.539982
-2.3148348 -6.0720105 4.9037414 0 0 0 0 31.544926
-1.8679236 -5.2471166 4.2055736 0 0 0 0 31.564716
-2.0633714 -6.8168654 4.9272857 0 0 0 0 31.574608
-2.0575902 -6.5028596 4.9431148 0 0 0 0 31.579556
-2.0567832 -6.2108641 4.943954 0 0 0 0 31.584503
-2.0599709 -5.952857 4.9728107 0 0 0 0 31.589451
-1.9013624 -6.8787718 4.9533997 0 0 0 0 31.594398
-1.913574 -6.5697784 4.9682221 0 0 0 0 31.599346
-1.9257613 -6.2827916 4.970058 0 0 0 0 31.60429
-1.9359441 -6.0107985 4.9819045 0 0 0 0 31.609238
-1.7383568 -6.9366817 4.9795079 0 0 0 0 31.614185
-1.7665607 -6.6346984 4.9943271 0 0 0 0 31.619133
-1.7967395 -6.3657188 5.0051632 0 0 0 0 31.624081
-1.8179194 -6.0837379 5.007 0 0 0 0 31.629025
-1.5763533 -6.9985924 5.0116148 0 0 0 0 31.633972
-1.6175514 -6.6986189 5.0244288 0 0 0 0 31.63892
-1.6677202 -6.4516468 5.0452662 0 0 0 0 31.643867
-1.6958956 -6.1496816 5.0250907 0 0 0 0 31.648815
-1.4103532 -7.0585041 5.0457187 0 0 0 0 31.653763
-1.4675442 -6.7545457 5.0485239 0 0 0 0 31.658707
-1.5207117 -6.4765897 5.0413461 0 0 0 0 31.663654
-1.5728748 -6.2166257 5.0471792 0 0 0 0 31.668602
-1.2423584 -7.1014233 5.0708122 0 0 0 0 31.67355
-1.31554 -6.8164701 5.0816193 0 0 0 0 31.678497
-1.3817006 -6.5335269 5.0634341 0 0 0 0 31.683445
-1.4448581 -6.2765708 5.0672646 0 0 0 0 31.688389
-1.074365 -7.1523418 5.1049061 0 0 0 0 31.693336
-1.1605389 -6.8624024 5.1037064 0 0 0 0 31.698284
-1.2396923 -6.5894656 5.0875201 0 0 0 0 31.703232
-1.3178424 -6.3375192 5.0883465 0 0 0 0 31.708179
-0.90437436 -7.1972647 5.1369948 0 0 0 0 31.713127
-1.0045416 -6.9073358 5.1297894 0 0 0 0 31.718071
-1.0976865 -6.640408 5.109601 0 0 0 0 31.723019
-1.1888285 -6.4064651 5.1184306 0 0 0 0 31.727966
-0.73338807 -7.2311931 5.1650753 0 0 0 0 31.732914
-0.84854507 -6.9552712 5.1588707 0 0 0 0 31.737862
-0.95568138 -6.7103462 5.1496873 0 0 0 0 31.742805
-1.0588171 -6.4694157 5.1455088 0 0 0 0 31.747753
-0.56240237 -7.2741218 5.202157 0 0 0 0 31.752701
-0.6905514 -7.0032086 5.1919498 0 0 0 0 31.757648
-0.8106795 -6.7622919 5.1767631 0 0 0 0 31.762596
-0.92480767 -6.5253692 5.167583 0 0 0 0 31.767544
-0.3874228 -7.2980561 5.2312288 0 0 0 0 31.772488
-0.53156078 -7.0401511 5.2190218 0 0 0 0 31.777435
-0.66368002 -6.8132396 5.2058368 0 0 0 0 31.782383
-0.78780168 -6.5733252 5.1866527 0 0 0 0 31.787331
-0.21344282 -7.3249946 5.2622986 0 0 0 0 31.792278
-0.36957189 -7.0840926 5.255095 0 0 0 0 31.797226
-0.51468372 -6.8571911 5.2329054 0 0 0 0 31.80217
-0.65079665 -6.6282825 5.2127218 0 0 0 0 31.807117
-0.037466258 -7.3499346 5.2973652 0 0 0 0 31.812065
-0.20758522 -7.1160417 5.2831597 0 0 0 0 31.817013
-0.36269072 -6.8851485 5.2499661 0 0 0 0 31.82196
-0.5107941 -6.6832399 5.2417903 0 0 0 0 31.826908
0.13750815 -7.3728781 5.3344274 0 0 0 0 31.831852
-0.043602403 -7.141993 5.3122201 0 0 0 0 31.8368
-0.20969743 -6.9371004 5.2880344 0 0 0 0 31.841747
-0.36979368 -6.7332015 5.2688532 0 0 0 0 31.846695
0.31448016 -7.3898258 5.3704848 0 0 0 0 31.851643
0.1203797 -7.1689477 5.3432779 0 0 0 0 31.856586
-0.055706277 -6.9770589 5.3180943 0 0 0 0 31.861534
-0.22579572 -6.7741666 5.2909112 0 0 0 0 31.866482
0.49145016 -7.39678 5.401536 0 0 0 0 31.871429
0.28535935 -7.1889067 5.3723307 0 0 0 0 31.876377
0.098281734 -7.0070229 5.3441477 0 0 0 0 31.881325
-0.080798522 -6.8201332 5.3179688 0 0 0 0 31.886269
0.66941839 -7.4017372 5.4345837 0 0 0 0 31.891216
0.45333755 -7.2158651 5.4103847 0 0 0 0 31.896164
0.25426763 -7.0319901 5.3691974 0 0 0 0 31.901112
0.065196201 -6.8621025 5.3450222 0 0 0 0 31.906059
0.84759885 -7.3918815 5.4623308 0 0 0 0 31.643345
0.6205073 -7.2290463 5.4420929 0 0 0 0 31.648289
0.41442716 -7.0682049 5.4068708 0 0 0 0 31.653236
0.21334176 -6.8903623 5.3646445 0 0 0 0 31.658184
1.0275626 -7.4068093 5.509398 0 0 0 0 31.663132
0.7904802 -7.2439847 5.4771566 0 0 0 0 31.668079
0.57341009 -7.0901508 5.4349341 0 0 0 0 31.673027
0.3653363 -6.936307 5.3997183 0 0 0 0 31.677971
1.2045201 -7.3907533 5.5374455 0 0 0 0 31.682919
0.95945048 -7.2459311 5.5042109 0 0 0 0 31.687866
0.7353912 -7.1100984 5.4639955 0 0 0 0 31.692814
0.51932752 -6.9732561 5.4307861 0 0 0 0 31.697762
1.3824753 -7.3736987 5.5694904 0 0 0 0 31.702705
1.1304187 -7.2518773 5.5392661 0 0 0 0 31.707653
0.89937204 -7.1390452 5.5020599 0 0 0 0 31.712601
0.67331749 -7.003212 5.4568472 0 0 0 0 31.717548
1.563431 -7.3676419 5.6125407 0 0 0 0 31.722496
1.3013867 -7.2578268 5.5753183 0 0 0 0 31.727444
1.0623475 -7.1450019 5.5271096 0 0 0 0 31.732388
0.8293047 -7.0341682 5.4879074 0 0 0 0 31.737335
1.7383839 -7.3396001 5.640574 0 0 0 0 31.742283
1.4703501 -7.2467856 5.6033587 0 0 0 0 31.747231
1.2283241 -7.1649561 5.5641651 0 0 0 0 31.752178
0.98929155 -7.0721221 5.52597 0 0 0 0 31.757126
1.916335 -7.3155565 5.677609 0 0 0 0 31.76207
1.6453135 -7.2487388 5.6454062 0 0 0 0 31.767017
1.3942976 -7.1739163 5.5962124 0 0 0 0 31.771965
1.1502746 -7.0950842 5.5560226 0 0 0 0 31.776913
2.0952864 -7.2915173 5.715642 0 0 0 0 31.78186
1.8132747 -7.2257094 5.6684361 0 0 0 0 31.786808
1.5602679 -7.1708827 5.6232524 0 0 0 0 31.791752
1.3122561 -7.1140499 5.5850725 0 0 0 0 31.7967
2.2702339 -7.2514868 5.747664 0 0 0 0 31.801647
1.9842349 -7.2056794 5.6974669 0 0 0 0 31.806595
1.7312396 -7.1858449 5.6653004 0 0 0 0 31.811543
1.4762354 -7.1320171 5.6171188 0 0 0 0 31.81649
2.4441817 -7.2084613 5.7786827 0 0 0 0 31.821434
2.1611938 -7.1986437 5.7425036 0 0 0 0 31.826382
1.8982068 -7.1698213 5.6873298 0 0 0 0 31.831329
1.6412133 -7.1459885 5.6481624 0 0 0 0 31.836277
2.6191285 -7.1654387 5.8136992 0 0 0 0 31.841225
2.3341517 -7.1756191 5.7765303 0 0 0 0 31.846169
2.0691745 -7.1697941 5.7243662 0 0 0 0 31.851116
1.8091899 -7.1559625 5.6782026 0 0 0 0 31.856064
2.7910748 -7.1144223 5.8457098 0 0 0 0 31.861012
2.5051079 -7.1476002 5.8105507 0 0 0 0 31.865959
2.23914 -7.1597729 5.7573953 0 0 0 0 31.870907
1.9781647 -7.1639395 5.7102404 0 0 0 0 31.875851
2.9640205 -7.0654082 5.88272 0 0 0 0 31.880798
2.6760633 -7.1125865 5.841567 0 0 0 0 31.885746
2.410105 -7.1447563 5.7884202 0 0 0 0 31.890694
2.1451375 -7.1609244 5.7362695 0 0 0 0 31.895641
3.1349659 -7.0084009 5.9167242 0 0 0 0 31.900589
2.8470187 -7.0755763 5.87358 0 0 0 0 31.905533
2.5810671 -7.1247435 5.8214412 0 0 0 0 31.91048
2.3191099 -7.1709042 5.7763052 0 0 0 0 31.915428
3.3049109 -6.9493971 5.9527254 0 0 0 0 31.920376
3.0139718 -7.0255747 5.9005842 0 0 0 0 31.925323
2.7520301 -7.0997367 5.8504586 0 0 0 0 31.930271
2.4930801 -7.168891 5.8103333 0 0 0 0 31.935215
3.472856 -6.8853989 5.9877229 0 0 0 0 31.940163
3.1899257 -6.9945664 5.9455991 0 0 0 0 31.94511
2.9249911 -7.0737309 5.8844743 0 0 0 0 31.950058
2.6650486 -7.1528864 5.8363528 0 0 0 0 31.955006
3.6428003 -6.8214025 6.02772 0 0 0 0 31.959949
3.3598788 -6.9435701 5.9776015 0 0 0 0 31.964897
3.0949519 -7.0387325 5.9124832 0 0 0 0 31.969845
2.8430169 -7.1478786 5.8743773 0 0 0 0 31.974792
3.8067458 -6.7444167 6.0587082 0 0 0 0 31.97974
3.5258317 -6.88658 6.0075984 0 0 0 0 31.984688
3.2739115 -7.0157294 5.9564986 0 0 0 0 31.989632
3.0219843 -7.1408749 5.9133978 0 0 0 0 31.994579
3.9636917 -6.6614385 6.0866899 0 0 0 0 31.999527
3.6967845 -6.8345895 6.045598 0 0 0 0 32.004475
3.4468713 -6.9797368 5.9905047 0 0 0 0 32.009422
3.1949501 -7.1128826 5.9394069 0 0 0 0 32.01437
4.1336374 -6.5934529 6.1336823 0 0 0 0 32.019314
3.8677382 -6.7806039 6.0835948 0 0 0 0 32.024261
3.6168301 -6.9317517 6.0195041 0 0 0 0 32.029209
3.3809149 -7.1028824 5.984426 0 0 0 0 32.034157
4.284585 -6.4974866 6.1566553 0 0 0 0 32.039104
4.0296912 -6.7066293 6.11058 0 0 0 0 32.044052
3.7947888 -6.8947635 6.0605083 0 0 0 0 32.048996
3.5628791 -7.0818911 6.023437 0 0 0 0 32.053944
4.4345326 -6.3975239 6.1816263 0 0 0 0 32.058891
4.2016439 -6.6496491 6.1555738 0 0 0 0 32.063839
3.9757471 -6.8567777 6.1055117 0 0 0 0 32.068787
3.7368431 -7.0379124 6.0464354 0 0 0 0 32.07373
4.6004806 -6.3215513 6.2316117 0 0 0 0 32.078678
4.3585978 -6.5656853 6.1795521 0 0 0 0 32.083626
4.1447048 -6.7948055 6.134501 0 0 0 0 32.088573
3.9278057 -7.0199232 6.096447 0 0 0 0 32.093521
4.8184233 -6.310545 6.3516374 0 0 0 0 32.098469
4.5125532 -6.4767275 6.2015262 0 0 0 0 32.103413
4.3206635 -6.7418323 6.1734943 0 0 0 0 32.10836
4.1057682 -6.9699507 6.1234412 0 0 0 0 32.113308
5.079318 -6.3450656 6.5276203 0 0 0 0 31.871262
4.6825008 -6.4063988 6.2474103 0 0 0 0 31.876205
4.4876547 -6.6705399 6.2023888 0 0 0 0 31.881153
4.2858019 -6.9236817 6.1573591 0 0 0 0 31.886101
5.2232523 -6.2291031 6.5515785 0 0 0 0 31.891048
4.856441 -6.3394046 6.2994056 0 0 0 0 31.895996
4.655602 -6.5995541 6.232379 0 0 0 0 31.900944
4.4757538 -6.8846784 6.2023716 0 0 0 0 31.905888
5.3721867 -6.1171379 6.5845413 0 0 0 0 31.910835
5.1003771 -6.3593483 6.4424691 0 0 0 0 31.915783
4.8305478 -6.533566 6.2733727 0 0 0 0 31.920731
4.6567054 -6.8286886 6.2353706 0 0 0 0 31.925678
5.5181212 -6.0011773 6.6185007 0 0 0 0 31.930626
5.3373113 -6.3573079 6.5725164 0 0 0 0 31.93557
4.9984951 -6.4545889 6.3043571 0 0 0 0 31.940517
4.8456564 -6.7786956 6.2783747 0 0 0 0 31.945465
5.6560593 -5.8782272 6.6454544 0 0 0 0 31.950413
5.4952517 -6.2553444 6.6064854 0 0 0 0 31.95536
5.1814404 -6.3916011 6.3573537 0 0 0 0 31.960308
5.0366068 -6.7257066 6.3233767 0 0 0 0 31.965252
5.7869987 -5.7462845 6.6684008 0 0 0 0 31.9702
5.6501937 -6.1493864 6.6374507 0 0 0 0 31.975147
5.4393802 -6.4135566 6.4994144 0 0 0 0 31.980095
5.210557 -6.6447368 6.3473582 0 0 0 0 31.985043
5.9319382 -5.6313329 6.7113614 0 0 0 0 31.989986
5.7991366 -6.0334368 6.6654096 0 0 0 0 31.994934
5.6973181 -6.4225206 6.6374674 0 0 0 0 31.999882
5.3965073 -6.5757608 6.3863492 0 0 0 0 32.004829
5.4719772 -4.9628563 6.0828457 0 0 0 0 32.009777
5.9570804 -5.9274831 6.7053761 0 0 0 0 32.014725
5.8692636 -6.3285608 6.6754413 0 0 0 0 32.019669
5.5844574 -6.5047879 6.428339 0 0 0 0 32.024616
5.6089263 -4.8619003 6.1328168 0 0 0 0 32.029564
6.1130257 -5.8175344 6.7443399 0 0 0 0 32.034512
6.0332108 -6.2206111 6.7044067 0 0 0 0 32.039459
5.808404 -6.4697924 6.5123549 0 0 0 0 32.044407
6.3127742 -5.2295361 6.7961988 0 0 0 0 32.049351
