# .PCD v0.7 - Point Cloud Data file format
VERSION 0.7
FIELDS x y z normal_x normal_y normal_z intensity curvature
SIZE 4 4 4 4 4 4 4 4
TYPE F F F F F F F F
COUNT 1 1 1 1 1 1 1 1
WIDTH 946
HEIGHT 1
VIEWPOINT 0 0 0 1 0 0 0
POINTS 946
DATA ascii
-0.18564071 -13.227298 -0.77335083 0 0 0 0 39.584373
-0.41462576 -12.366629 -0.72279853 0 0 0 0 39.589317
-0.13589285 -13.241431 -0.78960431 0 0 0 0 39.609108
0.66847199 -13.136267 -0.76015288 0 0 0 0 39.618996
0.72544307 -13.083427 -0.78026521 0 0 0 0 39.64373
0.77705222 -13.117502 -0.82857811 0 0 0 0 39.668472
2.4996107 -13.242849 -0.70191109 0 0 0 0 39.71299
2.328155 -13.128794 -0.91853321 0 0 0 0 39.76741
2.9150622 -13.17808 -0.84004432 0 0 0 0 39.782249
2.6194029 -13.01382 -0.93000072 0 0 0 0 39.787193
3.510391 -13.257598 -0.74706793 0 0 0 0 39.871056
3.2098131 -13.068289 -0.84293723 0 0 0 0 39.875999
2.9377453 -13.009053 -0.95019853 0 0 0 0 39.880951
3.879427 -12.472302 -0.60499829 0 0 0 0 39.885895
3.6842701 -12.715336 -0.71619856 0 0 0 0 39.890839
3.5198209 -13.025422 -0.84963918 0 0 0 0 39.89579
3.2585454 -13.015187 -0.97104764 0 0 0 0 39.900734
4.1844296 -12.444475 -0.59372687 0 0 0 0 39.905685
3.9191337 -12.44926 -0.70116335 0 0 0 0 39.910629
3.7558391 -12.712336 -0.83948833 0 0 0 0 39.915573
3.5843391 -13.022342 -0.99291474 0 0 0 0 39.920525
4.3440037 -11.993176 -0.56204838 0 0 0 0 39.925468
4.2330432 -12.440439 -0.70096278 0 0 0 0 39.93042
3.9818115 -12.413216 -0.83034796 0 0 0 0 39.935364
3.9062779 -12.990496 -1.0126773 0 0 0 0 39.940315
3.6109068 -9.3018942 -0.42660093 0 0 0 0 39.945259
4.3470697 -11.864976 -0.66985947 0 0 0 0 39.950203
4.3026781 -12.408394 -0.84217584 0 0 0 0 39.955154
4.2588601 -13.052749 -1.0397543 0 0 0 0 39.960098
3.8865933 -9.366951 -0.42247823 0 0 0 0 39.96505
3.6515799 -9.2988482 -0.52478594 0 0 0 0 39.969994
4.3810177 -11.75081 -0.8077752 0 0 0 0 39.974937
4.3879905 -12.445325 -1.0146028 0 0 0 0 39.979889
4.1732359 -9.4430504 -0.41941333 0 0 0 0 39.984833
3.9391618 -9.3859253 -0.53075022 0 0 0 0 39.989784
3.7171612 -9.3048258 -0.64805216 0 0 0 0 39.994728
4.403976 -11.619541 -0.96861988 0 0 0 0 39.999672
4.4936957 -9.5682783 -0.41755763 0 0 0 0 40.004623
4.225811 -9.4540062 -0.536668 0 0 0 0 40.009567
3.9997971 -9.3708658 -0.66295409 0 0 0 0 40.014519
3.7777104 -9.3057318 -0.79229486 0 0 0 0 40.019463
4.9829454 -10.015096 -0.42992935 0 0 0 0 40.024414
4.5363221 -9.5581741 -0.54473883 0 0 0 0 40.029358
4.2973604 -9.4549608 -0.67994177 0 0 0 0 40.034302
4.0722542 -9.3887873 -0.81927168 0 0 0 0 40.039253
4.4507232 -8.4573755 -0.35674769 0 0 0 0 40.044197
4.4092607 -8.7588654 -0.50145501 0 0 0 0 40.049149
4.6128535 -9.5571251 -0.69802272 0 0 0 0 40.054092
4.3638792 -9.4498405 -0.84518921 0 0 0 0 40.059036
4.4642529 -8.0345383 -0.33275548 0 0 0 0 40.063988
4.4675727 -8.3911781 -0.48271182 0 0 0 0 40.068932
4.4331818 -8.6616497 -0.64335746 0 0 0 0 40.073883
4.68437 -9.5449991 -0.87426734 0 0 0 0 40.078827
4.488605 -7.6607337 -0.31190991 0 0 0 0 40.083778
4.4781342 -7.9603238 -0.46068722 0 0 0 0 40.088722
4.4964747 -8.298974 -0.62763506 0 0 0 0 40.093666
4.4888077 -8.629488 -0.80950254 0 0 0 0 40.098618
4.5506296 -7.3750587 -0.29537731 0 0 0 0 40.103561
4.4955087 -7.5804877 -0.44180551 0 0 0 0 40.108513
4.5099835 -7.8831272 -0.6066519 0 0 0 0 40.113457
4.5173483 -8.2036924 -0.78953022 0 0 0 0 40.118401
4.7925272 -7.3870225 -0.29204336 0 0 0 0 40.123352
4.6121912 -7.3829956 -0.43362966 0 0 0 0 40.128296
4.5203977 -7.4942646 -0.58772612 0 0 0 0 40.133247
4.5397916 -7.8058739 -0.77061075 0 0 0 0 40.138191
5.0374455 -7.3940053 -0.28770638 0 0 0 0 40.143135
4.8531008 -7.38694 -0.43727461 0 0 0 0 40.148087
4.6808109 -7.3639126 -0.58882844 0 0 0 0 40.15303
4.5472279 -7.4130025 -0.75066304 0 0 0 0 40.157982
5.2993126 -7.4140544 -0.28444675 0 0 0 0 40.162926
5.1039934 -7.3949246 -0.44195661 0 0 0 0 40.167877
4.9276953 -7.3688588 -0.60149217 0 0 0 0 40.172821
4.7553234 -7.3597956 -0.76508147 0 0 0 0 40.177765
5.5642304 -7.4211226 -0.28016329 0 0 0 0 40.182716
5.3549271 -7.3919144 -0.4466126 0 0 0 0 40.18766
5.1805825 -7.3728323 -0.61417055 0 0 0 0 40.192612
5.0121565 -7.3717551 -0.7877897 0 0 0 0 40.197556
5.8341532 -7.4262137 -0.27688959 0 0 0 0 40.202499
5.6347752 -7.4110155 -0.45239866 0 0 0 0 40.207451
5.4514351 -7.3848729 -0.62891585 0 0 0 0 40.212395
5.2839866 -7.3837729 -0.81153679 0 0 0 0 40.217346
6.1150861 -7.4293542 -0.27264002 0 0 0 0 40.22229
5.9206395 -7.4251428 -0.45918927 0 0 0 0 40.227234
5.7362509 -7.4059696 -0.64472181 0 0 0 0 40.232185
5.5518579 -7.3847818 -0.83524841 0 0 0 0 40.237129
6.2855511 -7.2940946 -0.2637614 0 0 0 0 40.242081
6.2065368 -7.4302764 -0.46595949 0 0 0 0 40.247025
6.0191493 -7.4050651 -0.66046804 0 0 0 0 40.251976
5.8466382 -7.4078903 -0.86208642 0 0 0 0 40.25692
6.2957034 -6.9812441 -0.24902476 0 0 0 0 40.261864
6.4745722 -7.4003534 -0.47059649 0 0 0 0 40.266815
6.3279548 -7.4272594 -0.67834121 0 0 0 0 40.271759
6.1424818 -7.4140081 -0.88888514 0 0 0 0 40.276711
6.3107805 -6.6894107 -0.23535156 0 0 0 0 40.281654
6.830266 -7.4567533 -0.48167777 0 0 0 0 40.286598
6.6378131 -7.4354639 -0.69618326 0 0 0 0 40.29155
6.4612603 -7.4352117 -0.91878289 0 0 0 0 40.296494
6.3118582 -6.3985219 -0.22264296 0 0 0 0 40.301445
6.9420505 -7.2372766 -0.47443551 0 0 0 0 40.306389
6.2208676 -6.6510954 -0.63814676 0 0 0 0 40.31134
5.8950987 -6.4683657 -0.82389188 0 0 0 0 40.316284
6.4015813 -6.2009659 -0.21239479 0 0 0 0 40.321228
6.2888322 -6.2640009 -0.41731438 0 0 0 0 40.32618
6.1712093 -6.2950215 -0.62013531 0 0 0 0 40.331123
6.8095927 -6.3078122 -0.21574916 0 0 0 0 40.879105
6.9437332 -6.6087031 -0.45099646 0 0 0 0 40.884056
6.8548493 -6.6766891 -0.67898929 0 0 0 0 40.889
6.9472032 -6.1514821 -0.2087166 0 0 0 0 40.898895
6.9529066 -6.317853 -0.43924111 0 0 0 0 40.903839
6.9337487 -6.4471045 -0.67459309 0 0 0 0 40.908791
6.9493065 -5.8796048 -0.19699363 0 0 0 0 40.918686
6.9640064 -6.0450048 -0.42953929 0 0 0 0 40.92363
6.960844 -6.1743183 -0.66593307 0 0 0 0 40.928574
6.9583426 -5.6247535 -0.18633457 0 0 0 0 40.938469
6.9641275 -5.769115 -0.41879588 0 0 0 0 40.94342
6.9589963 -5.8904181 -0.65516132 0 0 0 0 40.948364
6.9623566 -5.3758788 -0.17667629 0 0 0 0 40.95826
6.9811239 -5.5232897 -0.41018093 0 0 0 0 40.963203
6.9870009 -5.641634 -0.64756662 0 0 0 0 40.968155
7.1886444 -5.2989187 -0.17310114 0 0 0 0 40.97805
7.0549331 -5.3216939 -0.40484115 0 0 0 0 40.982994
6.9820943 -5.3747215 -0.63682884 0 0 0 0 40.987938
7.1916318 -5.0580401 -0.16445883 0 0 0 0 40.997833
7.2144361 -5.1904411 -0.40593156 0 0 0 0 41.002785
7.223362 -5.2917743 -0.65027606 0 0 0 0 41.007729
7.2135649 -4.8312402 -0.1559041 0 0 0 0 41.017624
7.2264318 -4.9475951 -0.39830372 0 0 0 0 41.022568
7.2852054 -5.0821247 -0.64687794 0 0 0 0 41.027519
7.2135091 -4.6023459 -0.14828235 0 0 0 0 41.037407
7.2333908 -4.7147288 -0.39068893 0 0 0 0 41.042358
7.3131523 -4.8503389 -0.6413222 0 0 0 0 41.047302
7.2234163 -4.3834939 -0.14071319 0 0 0 0 41.057198
7.2393317 -4.486855 -0.38408288 0 0 0 0 41.062149
7.3261051 -4.6184907 -0.63572365 0 0 0 0 41.067093
7.2422743 -4.1766772 -0.13420033 0 0 0 0 41.076988
7.2562299 -4.2700281 -0.37753522 0 0 0 0 41.081932
7.2341781 -3.9607491 -0.12658606 0 0 0 0 41.096771
7.2641096 -4.0581603 -0.37197566 0 0 0 0 41.101723
5.491087 -3.1687648 -0.6616509 0 0 0 0 41.111618
6.3719783 -3.306216 -0.1053915 0 0 0 0 41.116562
7.2719984 -3.8452928 -0.36640978 0 0 0 0 41.121513
6.3847032 -3.1343617 -0.099950425 0 0 0 0 41.136353
6.4078341 -3.2018228 -0.31722981 0 0 0 0 41.141296
6.3964248 -2.9635005 -0.0955071 0 0 0 0 41.156136
6.4055934 -3.0219007 -0.31272233 0 0 0 0 41.161087
6.420814 -3.0683286 -0.52891725 0 0 0 0 41.166031
5.3984437 -2.6166246 -0.63684392 0 0 0 0 41.170982
6.3961506 -2.7925882 -0.091029257 0 0 0 0 41.175926
6.4223142 -2.8510566 -0.3092899 0 0 0 0 41.18087
6.4205761 -2.8884132 -0.52441233 0 0 0 0 41.185822
5.3901196 -2.4576628 -0.6323716 0 0 0 0 41.190765
6.3998675 -2.6246932 -0.086568512 0 0 0 0 41.195717
6.4330311 -2.6821868 -0.30584508 0 0 0 0 41.200661
6.4373059 -2.715565 -0.52197129 0 0 0 0 41.205612
5.3668265 -2.2936423 -0.62584138 0 0 0 0 41.210556
6.4135418 -2.4668381 -0.083162412 0 0 0 0 41.2155
6.4257674 -2.5102432 -0.30134034 0 0 0 0 41.220451
6.3801603 -2.5184164 -0.51325607 0 0 0 0 41.225395
5.3385239 -2.1325996 -0.619304 0 0 0 0 41.230347
6.399261 -2.2998655 -0.078651346 0 0 0 0 41.235291
6.4404631 -2.3473883 -0.29891935 0 0 0 0 41.240234
6.3928638 -2.3535504 -0.51082307 0 0 0 0 41.245186
5.3092122 -1.9745523 -0.6127702 0 0 0 0 41.25013
6.7604151 -2.2615039 -0.080537856 0 0 0 0 41.255081
6.6288757 -2.2462649 -0.30415121 0 0 0 0 41.260025
6.2448392 -2.1340251 -0.49578848 0 0 0 0 41.264977
5.2798839 -1.8205012 -0.60724586 0 0 0 0 41.26992
7.0747128 -2.1909494 -0.08120285 0 0 0 0 41.274864
7.1019044 -2.2263427 -0.32339799 0 0 0 0 41.279816
6.1696587 -1.9477947 -0.4870472 0 0 0 0 41.28476
5.2665081 -1.6775159 -0.60279584 0 0 0 0 41.289711
7.083447 -2.0220809 -0.077745102 0 0 0 0 41.294655
4.2475691 -1.2273748 -0.18867218 0 0 0 0 41.299599
4.061429 -1.1791778 -0.31702787 0 0 0 0 41.30455
4.0869637 -1.1948465 -0.46415067 0 0 0 0 41.309494
7.3179097 -1.9151913 -0.077084847 0 0 0 0 41.314445
4.2510252 -1.1234457 -0.18737637 0 0 0 0 41.319389
4.0518889 -1.0751919 -0.31469518 0 0 0 0 41.324333
4.0774398 -1.0868599 -0.46180561 0 0 0 0 41.329285
7.3146739 -1.7402701 -0.074572563 0 0 0 0 41.334229
7.3279119 -1.75857 -0.3256776 0 0 0 0 41.33918
7.3164783 -1.5691003 -0.071516506 0 0 0 0 41.066978
7.3327584 -1.582435 -0.32361105 0 0 0 0 41.07193
7.3201933 -1.4012089 -0.069058672 0 0 0 0 41.086769
7.3384929 -1.4095504 -0.3211433 0 0 0 0 41.091713
6.0511527 -1.1586536 -0.46801543 0 0 0 0 41.096664
7.3219004 -1.2353061 -0.067598924 0 0 0 0 41.10656
7.2862773 -1.2264224 -0.31748945 0 0 0 0 41.111504
7.3416133 -1.069483 -0.065184206 0 0 0 0 41.126343
7.3229723 -1.0626605 -0.31812519 0 0 0 0 41.131294
7.3473277 -0.90359765 -0.063729934 0 0 0 0 41.146133
7.3227029 -0.89274722 -0.31664237 0 0 0 0 41.151077
7.352037 -0.73970807 -0.062276486 0 0 0 0 41.165924
7.3264298 -0.7238481 -0.31617051 0 0 0 0 41.170868
7.3487473 -0.57578123 -0.061799139 0 0 0 0 41.185707
7.3694639 -0.41196066 -0.060383268 0 0 0 0 41.205498
7.331883 -0.38904145 -0.31522262 0 0 0 0 41.210442
7.1412125 -0.2410665 -0.058279987 0 0 0 0 41.225288
7.0916767 -0.21312021 -0.30407086 0 0 0 0 41.230232
7.1499119 -0.082189098 -0.057840973 0 0 0 0 41.245071
7.1383824 -0.05139868 -0.30572385 0 0 0 0 41.250023
7.1556106 0.075701088 -0.057394549 0 0 0 0 41.264862
7.1360955 0.11053137 -0.30624291 0 0 0 0 41.269806
7.1703181 0.23555511 -0.057963744 0 0 0 0 41.284653
7.1348119 0.27245709 -0.3067621 0 0 0 0 41.289597
7.1720281 0.39446238 -0.057498537 0 0 0 0 41.304436
6.9115019 0.42232302 -0.29771903 0 0 0 0 41.309387
7.1807518 0.55634212 -0.058040459 0 0 0 0 41.324226
7.2042847 0.60500324 -0.31095973 0 0 0 0 41.32917
7.1824703 0.71625227 -0.058567125 0 0 0 0 41.344017
7.1931982 0.87812608 -0.060109477 0 0 0 0 41.3638
7.1999459 1.043014 -0.060629111 0 0 0 0 41.383591
7.2066984 1.208905 -0.062143046 0 0 0 0 41.403381
7.2054501 1.3738314 -0.063635655 0 0 0 0 41.423164
4.3306375 0.91339612 -0.33726326 0 0 0 0 41.43306
7.2212253 1.5436853 -0.066156484 0 0 0 0 41.442955
6.172945 1.384975 -0.2738018 0 0 0 0 41.447899
4.3521457 1.025261 -0.3409695 0 0 0 0 41.45285
4.4500179 1.1013561 -0.51299763 0 0 0 0 41.457794
7.0798554 1.679231 -0.066353783 0 0 0 0 41.462738
6.1676188 1.5319356 -0.27632979 0 0 0 0 41.46769
4.3876801 1.143066 -0.3456938 0 0 0 0 41.472633
4.4555454 1.2162888 -0.51564866 0 0 0 0 41.477585
7.0475841 1.8373001 -0.06877467 0 0 0 0 41.482529
6.147294 1.6779598 -0.27781719 0 0 0 0 41.48748
4.4162173 1.2609018 -0.35039732 0 0 0 0 41.492424
4.4460688 1.3292851 -0.51726282 0 0 0 0 41.497368
6.5717726 1.8713344 -0.065369636 0 0 0 0 41.502319
6.2301006 1.8555399 -0.28448486 0 0 0 0 41.507263
4.4277582 1.3778067 -0.35305548 0 0 0 0 41.512215
4.440608 1.4452639 -0.51887661 0 0 0 0 41.517159
6.0818362 1.877442 -0.062008776 0 0 0 0 41.522102
5.8953724 1.9019274 -0.27141997 0 0 0 0 41.527054
4.4603362 1.5036235 -0.35774142 0 0 0 0 41.531998
4.4051094 1.5503678 -0.51744044 0 0 0 0 41.536949
5.6414475 1.8812394 -0.05976608 0 0 0 0 41.2854
5.4890537 1.9104904 -0.25526848 0 0 0 0 41.290344
4.4725256 1.6262305 -0.36142197 0 0 0 0 41.295296
4.3542295 1.6522083 -0.51502401 0 0 0 0 41.30024
5.3145843 1.9045914 -0.057816532 0 0 0 0 41.305183
5.1491876 1.925866 -0.24130702 0 0 0 0 41.310135
4.4880872 1.7511244 -0.36607221 0 0 0 0 41.315079
4.3207221 1.7583035 -0.5145995 0 0 0 0 41.32003
4.9876575 1.9139539 -0.056906167 0 0 0 0 41.324974
4.8122482 1.9252391 -0.22839907 0 0 0 0 41.329918
4.5106826 1.8829874 -0.37071788 0 0 0 0 41.334869
4.2812109 1.8624225 -0.51316285 0 0 0 0 41.339813
4.8119321 1.9696646 -0.057255305 0 0 0 0 41.344765
4.805831 2.0522182 -0.23098141 0 0 0 0 41.349709
4.5342951 2.0188487 -0.37635195 0 0 0 0 41.35466
4.2607422 1.9774683 -0.51474136 0 0 0 0 41.359604
4.8205309 2.0995767 -0.059867941 0 0 0 0 41.364548
4.6882114 2.1296704 -0.2284157 0 0 0 0 41.369499
4.5819755 2.1706102 -0.3839995 0 0 0 0 41.374443
4.2172403 2.0826061 -0.51328641 0 0 0 0 41.379395
4.8371639 2.2374563 -0.063475385 0 0 0 0 41.384338
4.5755935 2.2071028 -0.225861 0 0 0 0 41.389282
4.636692 2.3303425 -0.39263922 0 0 0 0 41.394234
4.1526885 2.1748316 -0.50981277 0 0 0 0 41.399178
4.8367786 2.3704104 -0.06705007 0 0 0 0 41.404129
4.5942354 2.3469803 -0.23046406 0 0 0 0 41.409073
4.6663904 2.4841785 -0.39922753 0 0 0 0 41.414024
4.1161976 2.281944 -0.50936633 0 0 0 0 41.418968
4.8494358 2.5123074 -0.070629925 0 0 0 0 41.423912
4.5928473 2.4789433 -0.23403552 0 0 0 0 41.428864
4.6971121 2.6430123 -0.40680078 0 0 0 0 41.433807
4.0626798 2.3821294 -0.50789309 0 0 0 0 41.438759
4.8490782 2.6502616 -0.074184597 0 0 0 0 41.443703
4.604517 2.6238515 -0.23859952 0 0 0 0 41.448647
4.6326404 2.7522399 -0.4052687 0 0 0 0 41.453598
4.033226 2.4972155 -0.50843632 0 0 0 0 41.458542
4.8527565 2.7962015 -0.078722797 0 0 0 0 41.463493
4.6372643 2.7866721 -0.24516223 0 0 0 0 41.468437
4.4989843 2.8167603 -0.39868662 0 0 0 0 41.473381
4.0639272 2.6520629 -0.51801586 0 0 0 0 41.478333
4.8604722 2.9491198 -0.082247578 0 0 0 0 41.483276
4.3872724 2.7737012 -0.23550627 0 0 0 0 41.488228
4.3342323 2.8574128 -0.3890925 0 0 0 0 41.493172
3.9963963 2.7463069 -0.51451647 0 0 0 0 41.498123
4.8732076 3.107022 -0.087767921 0 0 0 0 41.503067
4.1984119 2.7924752 -0.22991443 0 0 0 0 41.508011
4.0440898 2.8035908 -0.36745232 0 0 0 0 41.512962
3.936893 2.8475227 -0.51301467 0 0 0 0 41.517906
4.882967 3.2689345 -0.092264868 0 0 0 0 41.522858
4.0957608 2.8608832 -0.22939886 0 0 0 0 41.527802
3.8722379 2.8212802 -0.35690692 0 0 0 0 41.532745
3.8101795 2.8960123 -0.50249392 0 0 0 0 41.537697
4.8857408 3.4338815 -0.097730368 0 0 0 0 41.542641
4.9059768 3.5973666 -0.28226021 0 0 0 0 41.547592
3.718406 2.843895 -0.34739318 0 0 0 0 41.552536
3.6011879 2.875839 -0.48096371 0 0 0 0 41.557487
4.8935432 3.6048088 -0.10418796 0 0 0 0 41.562431
4.9128332 3.7802997 -0.2886751 0 0 0 0 41.567375
3.5665522 2.8615043 -0.33789888 0 0 0 0 41.572327
3.4152217 2.8625727 -0.46147296 0 0 0 0 41.577271
4.9033933 3.785727 -0.11061642 0 0 0 0 41.582222
4.9207182 3.9692311 -0.29607069 0 0 0 0 41.587166
3.4166825 2.876111 -0.32941765 0 0 0 0 41.59211
3.2563076 2.8632007 -0.44601053 0 0 0 0 41.597061
4.9112659 3.9706542 -0.11702369 0 0 0 0 41.602005
4.8674173 4.1144295 -0.30043459 0 0 0 0 41.606956
3.2838418 2.8976469 -0.32195941 0 0 0 0 41.6119
3.119453 2.8787415 -0.43355939 0 0 0 0 41.616844
4.9191713 4.1625843 -0.12440553 0 0 0 0 41.621796
4.5772176 4.0516505 -0.28880903 0 0 0 0 41.62674
2.9875896 2.8922625 -0.42112678 0 0 0 0 41.636635
4.5877843 4.0640216 -0.12178028 0 0 0 0 41.641586
4.3652678 4.0475426 -0.28320909 0 0 0 0 41.64653
2.8687484 2.9117336 -0.4107095 0 0 0 0 41.656425
4.775465 4.4281573 -0.13509907 0 0 0 0 41.661369
4.0131011 4.0805249 -0.41908905 0 0 0 0 41.671265
2.7569203 2.9351816 -0.40229723 0 0 0 0 41.676208
4.8336878 4.6888695 -0.14538874 0 0 0 0 41.68116
3.9648011 4.2237105 -0.42246097 0 0 0 0 41.691055
2.6470907 2.9576194 -0.39289212 0 0 0 0 41.695999
4.9412031 5.0133619 -0.1576049 0 0 0 0 41.700943
4.9604063 5.2672505 -0.16780002 0 0 0 0 41.720734
4.965589 5.5162058 -0.178968 0 0 0 0 41.740524
4.4014468 5.1422839 -0.33159956 0 0 0 0 41.745468
3.7396524 4.5926275 -0.42753258 0 0 0 0 41.75042
3.254636 4.2071357 -0.51542473 0 0 0 0 41.755363
4.9672046 5.7778816 -0.18991575 0 0 0 0 41.856979
4.2611933 5.217627 -0.33176085 0 0 0 0 41.861931
3.6997979 4.765573 -0.4346579 0 0 0 0 41.866875
3.2046366 4.3531537 -0.5196119 0 0 0 0 41.871826
4.8800187 5.9412594 -0.19808778 0 0 0 0 41.87677
4.1135468 5.2792692 -0.33209962 0 0 0 0 41.881714
3.603368 4.8739796 -0.43398687 0 0 0 0 41.886665
3.112128 4.4445415 -0.51700902 0 0 0 0 41.891609
4.6490393 5.9312906 -0.20042431 0 0 0 0 41.896561
3.991044 5.3717999 -0.33340427 0 0 0 0 41.901505
3.2412515 4.6035247 -0.40182012 0 0 0 0 41.906448
3.0427885 4.5738363 -0.51834303 0 0 0 0 41.9114
3.7015662 4.9455681 -0.16897437 0 0 0 0 41.916344
3.9057963 5.5211749 -0.33962229 0 0 0 0 41.921295
3.4044771 5.0838342 -0.43464226 0 0 0 0 41.926239
2.9533288 4.6752167 -0.5167101 0 0 0 0 41.93119
3.8295774 5.3689814 -0.18588488 0 0 0 0 41.936134
3.4087932 5.0623565 -0.30769774 0 0 0 0 41.941078
3.3463614 5.262094 -0.44183788 0 0 0 0 41.94603
2.8780043 4.8065429 -0.51801431 0 0 0 0 41.950974
3.3757732 4.9660335 -0.17489804 0 0 0 0 41.955925
3.539983 5.5277882 -0.33346987 0 0 0 0 41.960869
2.7915926 4.6244559 -0.37934944 0 0 0 0 41.965813
2.8208408 4.9737983 -0.52324677 0 0 0 0 41.970764
3.1826174 4.9199061 -0.17545977 0 0 0 0 41.975708
2.7365127 5.1031704 -0.52452546 0 0 0 0 41.990547
2.8694887 4.6643229 -0.16838194 0 0 0 0 41.995499
3.2995331 6.0338855 -0.35593426 0 0 0 0 42.020233
2.5923033 5.3723893 -0.41207457 0 0 0 0 42.044968
2.3686292 5.2867727 -0.50770557 0 0 0 0 42.049911
3.9934292 7.6213164 -0.29446104 0 0 0 0 42.054863
2.3858407 5.2522902 -0.39683855 0 0 0 0 42.064758
2.2065828 5.2544689 -0.4932985 0 0 0 0 42.069702
3.7644222 7.6033788 -0.29880044 0 0 0 0 42.074646
2.4151561 5.2498069 -0.30289823 0 0 0 0 42.079597
2.2450044 5.2699199 -0.39232254 0 0 0 0 42.084541
2.9514744 6.3160524 -0.25177902 0 0 0 0 42.094437
2.3268564 5.3862262 -0.31012812 0 0 0 0 42.099388
2.5128219 6.3028641 -0.46351847 0 0 0 0 42.104332
3.3435826 7.6053472 -0.30945089 0 0 0 0 42.114227
2.5360096 6.2663765 -0.36067149 0 0 0 0 42.119171
2.1181407 5.6985483 -0.41238633 0 0 0 0 42.124123
2.2414577 5.4322848 -0.22263768 0 0 0 0 42.13401
2.1817682 5.7669406 -0.33029944 0 0 0 0 42.138962
2.9458768 7.6362295 -0.32205975 0 0 0 0 42.153801
2.6835461 7.6348886 -0.43827891 0 0 0 0 42.158752
2.1349368 5.9348545 -0.25349274 0 0 0 0 42.173592
2.4845996 7.6268167 -0.43765861 0 0 0 0 42.178535
2.0316932 6.0823674 -0.2646254 0 0 0 0 42.193375
2.2978296 7.6556945 -0.43794394 0 0 0 0 42.198326
2.0576124 7.6621666 -0.52819669 0 0 0 0 42.20327
1.8256446 7.7266388 -0.62927181 0 0 0 0 42.208221
2.3561354 7.6440501 -0.34010753 0 0 0 0 42.213165
2.1109989 7.6725798 -0.43926814 0 0 0 0 42.218109
1.87184 7.6880331 -0.52449089 0 0 0 0 42.223061
1.6316777 7.7065144 -0.61569953 0 0 0 0 42.228004
2.1702828 7.6599512 -0.34743759 0 0 0 0 42.232956
1.9190915 7.6724868 -0.43863395 0 0 0 0 42.2379
1.6809062 7.6789184 -0.5178892 0 0 0 0 42.242851
1.4387203 7.6883888 -0.60212135 0 0 0 0 42.247795
1.9833794 7.6648583 -0.35380048 0 0 0 0 42.252739
1.7311763 7.671382 -0.43901286 0 0 0 0 42.25769
1.4950639 7.6897898 -0.51323068 0 0 0 0 42.262634
1.2559202 7.7042284 -0.5914526 0 0 0 0 42.267586
1.7954731 7.6697783 -0.36115804 0 0 0 0 42.27253
1.5503479 7.6892533 -0.44134432 0 0 0 0 42.277473
1.3112006 7.695652 -0.50759321 0 0 0 0 42.282425
1.0690418 7.7040915 -0.58082539 0 0 0 0 42.287369
1.6115795 7.6766787 -0.36751837 0 0 0 0 42.29232
1.364477 7.6971464 -0.44169334 0 0 0 0 42.297264
1.1283392 7.7025166 -0.50295305 0 0 0 0 42.302208
0.8882395 7.7199321 -0.57115799 0 0 0 0 42.307159
1.4276732 7.6815872 -0.37488338 0 0 0 0 42.312103
1.1805273 7.6890345 -0.44210202 0 0 0 0 42.317055
0.94652134 7.7193871 -0.50027853 0 0 0 0 42.321999
0.70634681 7.7167788 -0.56055176 0 0 0 0 42.32695
1.2404667 7.682766 -0.38320541 0 0 0 0 42.06469
0.99640155 7.7031417 -0.44540742 0 0 0 0 42.069641
0.76237786 7.7254333 -0.49663121 0 0 0 0 42.074585
0.52224666 7.7277694 -0.55190468 0 0 0 0 42.079529
1.0616003 7.6966343 -0.39156514 0 0 0 0 42.08448
0.81653827 7.7139974 -0.44777259 0 0 0 0 42.089424
0.58046305 7.7212787 -0.49203989 0 0 0 0 42.094376
0.33940575 7.7366095 -0.54326439 0 0 0 0 42.099319
0.8806892 7.7005124 -0.39895085 0 0 0 0 42.104263
0.63462049 7.7128644 -0.44917062 0 0 0 0 42.109215
0.40164334 7.7381206 -0.48938355 0 0 0 0 42.114159
0.15953425 7.7384357 -0.53365463 0 0 0 0 42.11911
0.69982517 7.7154021 -0.40829661 0 0 0 0 42.124054
0.45579317 7.7317266 -0.45250681 0 0 0 0 42.129005
0.21973054 7.7349768 -0.48578447 0 0 0 0 42.133949
-0.020322641 7.7432652 -0.52403247 0 0 0 0 42.138893
0.52093524 7.7242823 -0.41666654 0 0 0 0 42.143845
0.27392566 7.7416043 -0.45486265 0 0 0 0 42.148788
0.040877592 7.7448263 -0.48314753 0 0 0 0 42.15374
-0.20217252 7.7501116 -0.51539522 0 0 0 0 42.158684
0.34101155 7.7261715 -0.42505535 0 0 0 0 42.163628
0.0940051 7.7404766 -0.45725992 0 0 0 0 42.168579
-0.14197509 7.7546988 -0.48049644 0 0 0 0 42.173523
-0.3519448 7.1276546 -0.46602699 0 0 0 0 42.178474
0.16012371 7.736073 -0.43441141 0 0 0 0 42.183418
-0.084860303 7.7513509 -0.46061674 0 0 0 0 42.188362
-0.29581141 7.1242857 -0.43814728 0 0 0 0 42.193314
-0.51982045 7.1304407 -0.45744586 0 0 0 0 42.198257
-0.018785426 7.7409658 -0.44278839 0 0 0 0 42.203209
-0.25704387 7.4801335 -0.44697011 0 0 0 0 42.208153
-0.46170947 7.1260834 -0.4355751 0 0 0 0 42.213104
-0.6867038 7.1322284 -0.44986913 0 0 0 0 42.218048
-0.20169748 7.7458854 -0.4521513 0 0 0 0 42.222992
-0.41157258 7.1368189 -0.42962891 0 0 0 0 42.227943
-0.62861538 7.1268926 -0.43400139 0 0 0 0 42.232887
-0.85552454 7.148036 -0.44423583 0 0 0 0 42.237839
-0.3485314 7.1284943 -0.42478776 0 0 0 0 42.242783
-0.57849991 7.135643 -0.43206158 0 0 0 0 42.247726
-0.79846734 7.13872 -0.4323785 0 0 0 0 42.252678
-1.0263731 7.1568503 -0.43661869 0 0 0 0 42.257622
-0.51843256 7.1363544 -0.4331798 0 0 0 0 42.262573
-0.7473647 7.1484871 -0.43643755 0 0 0 0 42.267517
-0.9673779 7.138546 -0.43079823 0 0 0 0 42.272461
-1.2060519 7.2027254 -0.43284345 0 0 0 0 42.277412
-0.68635136 7.141212 -0.44258615 0 0 0 0 42.282356
-0.91731453 7.1433363 -0.43987113 0 0 0 0 42.287308
-1.1421156 7.175415 -0.43206877 0 0 0 0 42.292252
-1.352559 7.0723991 -0.41778219 0 0 0 0 42.297203
-0.85729468 7.1410885 -0.45199886 0 0 0 0 42.302147
-1.0901623 7.1602116 -0.44521686 0 0 0 0 42.307091
-1.3101723 7.1442375 -0.42859566 0 0 0 0 42.312042
-1.5498534 7.1993861 -0.41866514 0 0 0 0 42.316986
-1.0301505 7.1599851 -0.463337 0 0 0 0 42.321938
-1.2669948 7.18011 -0.45053768 0 0 0 0 42.326881
-1.4879652 7.1691256 -0.42889455 0 0 0 0 42.331825
-1.4169056 5.9014306 -0.33655262 0 0 0 0 42.336777
-1.3071876 7.7755499 -0.51425749 0 0 0 0 42.341721
-1.4360651 7.1499629 -0.45305592 0 0 0 0 42.346672
-1.3414445 5.78509 -0.34413552 0 0 0 0 42.351616
-1.9390577 7.3223176 -0.41289678 0 0 0 0 42.356567
-1.3673203 7.1007233 -0.4793748 0 0 0 0 42.361511
-1.3004911 5.7789793 -0.36822733 0 0 0 0 42.366455
-1.8594761 7.2349997 -0.43138006 0 0 0 0 42.371407
-1.8199011 6.2844954 -0.34784132 0 0 0 0 42.37635
-1.6029263 7.3840137 -0.50958186 0 0 0 0 42.381302
-1.4886016 5.95398 -0.38397092 0 0 0 0 42.386246
-1.766974 6.2723284 -0.37198588 0 0 0 0 42.39119
-2.0162647 6.3974872 -0.34777156 0 0 0 0 42.396141
-1.4288458 5.9128051 -0.41624278 0 0 0 0 42.401085
-1.7260146 6.2752705 -0.41004142 0 0 0 0 42.406036
-1.9574347 6.3693137 -0.37798974 0 0 0 0 42.41098
-2.6613951 7.8110003 -0.42072001 0 0 0 0 42.415924
-1.973794 7.3899727 -0.53327119 0 0 0 0 42.420876
-1.9007004 6.3281851 -0.41824865 0 0 0 0 42.425819
-2.6073685 7.8299127 -0.46674532 0 0 0 0 42.430771
-2.8840568 7.8581228 -0.41678414 0 0 0 0 42.435715
-1.8419154 6.3010678 -0.46446484 0 0 0 0 42.440666
-1.7896613 5.4854474 -0.36651245 0 0 0 0 42.44561
-2.8122668 7.8319621 -0.4670231 0 0 0 0 42.450554
-3.130461 7.9583793 -0.41558322 0 0 0 0 42.455505
-2.0364251 6.3951225 -0.48246166 0 0 0 0 42.460449
-3.0162425 7.8180075 -0.46635848 0 0 0 0 42.470345
-3.3601701 7.9955463 -0.41165435 0 0 0 0 42.475288
-1.789088 5.1955819 -0.39942861 0 0 0 0 42.48024
-3.2449272 7.8651996 -0.47039738 0 0 0 0 42.490135
-3.3495569 7.4793968 -0.37843782 0 0 0 0 42.495079
-1.904355 5.1321912 -0.40423691 0 0 0 0 42.500023
-2.1948938 5.4035578 -0.37536037 0 0 0 0 42.504974
-3.4994383 7.9485369 -0.47722438 0 0 0 0 42.509918
-2.5725043 5.4100838 -0.2681489 0 0 0 0 42.51487
-2.3082399 5.3211455 -0.37523869 0 0 0 0 42.524765
-2.5464692 5.441174 -0.32506078 0 0 0 0 42.529709
-2.5531137 5.0629234 -0.24638402 0 0 0 0 42.534653
-2.4899909 5.3927107 -0.38437471 0 0 0 0 43.071014
-3.6121333 7.2749491 -0.43655512 0 0 0 0 43.075958
-2.5387917 4.7653685 -0.22657841 0 0 0 0 43.08091
-2.4818175 5.461978 -0.46108109 0 0 0 0 43.085854
-3.5664086 7.267086 -0.52966154 0 0 0 0 43.090797
-2.5435526 4.8386469 -0.28823093 0 0 0 0 43.095749
-2.6886542 4.778183 -0.22397706 0 0 0 0 43.100693
-2.6744299 5.5331025 -0.47911313 0 0 0 0 43.105644
-2.5206864 4.8458004 -0.35622534 0 0 0 0 43.110588
-2.6815639 4.8254108 -0.28876647 0 0 0 0 43.115532
-2.5710278 5.0134282 -0.44436714 0 0 0 0 43.125427
-2.7330339 4.9660268 -0.3720074 0 0 0 0 43.130379
-2.7958217 4.7650423 -0.28755867 0 0 0 0 43.135323
-2.6507001 4.8758745 -0.44356748 0 0 0 0 43.145218
-3.6631889 6.2985082 -0.48179302 0 0 0 0 43.150162
-3.0895827 4.9947157 -0.30365154 0 0 0 0 43.155113
-2.8155627 4.8988433 -0.45787382 0 0 0 0 43.165009
-3.0985248 5.0501275 -0.39235374 0 0 0 0 43.169952
-3.0659997 4.7095494 -0.28775483 0 0 0 0 43.174896
-2.9001486 4.7793279 -0.45898926 0 0 0 0 43.184792
-3.0581186 4.7308588 -0.37364486 0 0 0 0 43.189743
-3.02738 4.730073 -0.46669477 0 0 0 0 43.204582
-5.5257373 8.1194315 -0.66041142 0 0 0 0 43.209526
-3.5675356 5.2893176 -0.53769249 0 0 0 0 43.224373
-6.5084238 8.1516628 -0.35190615 0 0 0 0 43.239212
-5.647058 7.9508667 -0.83547425 0 0 0 0 43.244156
-5.9519506 7.9706922 -0.86228734 0 0 0 0 43.263947
-6.4573202 8.1758738 -0.70980346 0 0 0 0 43.26889
-6.2668676 7.9865828 -0.89007908 0 0 0 0 43.283737
-6.6027579 8.0086031 -0.91977417 0 0 0 0 43.30352
-6.9417062 8.0206509 -0.95049399 0 0 0 0 43.323311
-7.5294237 7.4873896 -0.30355582 0 0 0 0 43.33815
-7.3046227 8.0398474 -0.98310274 0 0 0 0 43.343102
-7.5140095 7.4941812 -0.51249212 0 0 0 0 43.352989
-7.8803272 7.4873829 -0.30027834 0 0 0 0 43.357941
-7.3115091 7.669899 -0.96841347 0 0 0 0 43.362885
-7.5096984 7.4910913 -0.73543096 0 0 0 0 43.367836
-7.9018002 7.5234361 -0.52297616 0 0 0 0 43.37278
-8.1348057 7.3798327 -0.29273945 0 0 0 0 43.377724
-7.4974055 7.4970379 -0.97836089 0 0 0 0 43.382675
-7.8965631 7.5143933 -0.75793999 0 0 0 0 43.387619
-8.1424065 7.3978457 -0.52355361 0 0 0 0 43.39257
-8.5376062 7.4001336 -0.2912032 0 0 0 0 43.397514
-6.6771584 6.3610926 -0.85844684 0 0 0 0 43.402458
-8.1630926 7.4099927 -0.76934767 0 0 0 0 43.40741
-8.5681877 7.4303336 -0.53589118 0 0 0 0 43.412354
-8.9594517 7.4115438 -0.288634 0 0 0 0 43.417305
-6.9384947 6.3006968 -0.88071334 0 0 0 0 43.422249
-7.2200561 6.2484293 -0.66695684 0 0 0 0 43.4272
-8.9741669 7.4257131 -0.54643607 0 0 0 0 43.432144
-9.3724108 7.4019108 -0.28517273 0 0 0 0 43.437088
-7.0525341 6.1014123 -0.88401842 0 0 0 0 43.442039
-9.0249224 7.4431524 -0.8211053 0 0 0 0 43.446983
-9.3683147 7.3900328 -0.55613905 0 0 0 0 43.451935
-9.8980198 7.4579263 -0.28507099 0 0 0 0 43.456879
-8.0359898 6.6184044 -0.99558353 0 0 0 0 43.461823
-9.4071903 7.3934593 -0.84290189 0 0 0 0 43.466774
-9.9059677 7.4491925 -0.57398242 0 0 0 0 43.471718
-7.926074 6.2137756 -0.97144639 0 0 0 0 43.481613
-7.9416041 5.9199057 -0.96245581 0 0 0 0 43.501404
-12.759127 8.3143406 -0.3126753 0 0 0 0 43.516243
-12.566525 8.4562407 -1.5017381 0 0 0 0 43.269356
-17.066967 -11.806542 -0.78423977 0 0 0 0 44.020035
-16.202095 -11.967974 -1.383937 0 0 0 0 44.034874
-16.38858 -11.904423 -0.76600355 0 0 0 0 44.039825
-16.612179 -11.862674 -0.14403136 0 0 0 0 44.044769
-16.341492 -12.233072 -0.15152627 0 0 0 0 44.06456
-15.187323 -12.617012 -2.0122213 0 0 0 0 44.069504
-15.617716 -12.251156 -0.1551304 0 0 0 0 44.084343
-15.011348 -12.33756 -0.15962 0 0 0 0 44.104134
-14.521404 -12.494287 -0.16500664 0 0 0 0 44.123924
-13.465176 -12.649926 -1.2394087 0 0 0 0 44.13382
-14.101747 -12.697599 -0.17235175 0 0 0 0 44.143707
-13.537253 -12.760786 -0.17761955 0 0 0 0 44.163498
-12.573671 -12.684265 -0.68271607 0 0 0 0 44.178337
-12.97057 -12.791998 -0.18276612 0 0 0 0 44.183289
-11.711303 -12.671358 -1.1397328 0 0 0 0 44.193184
-12.06213 -12.748229 -0.6718148 0 0 0 0 44.198128
-10.283614 -11.978125 -1.5238487 0 0 0 0 44.208023
-10.569016 -11.988417 -1.0488771 0 0 0 0 44.212967
-10.925169 -12.094072 -0.62506306 0 0 0 0 44.217918
-8.7100334 -10.64927 -1.3147568 0 0 0 0 44.227806
-10.098207 -12.016222 -1.0246879 0 0 0 0 44.232758
-10.375858 -12.032303 -0.61076808 0 0 0 0 44.237701
-10.655449 -12.044415 -0.18682337 0 0 0 0 44.242653
-9.3305817 -11.984962 -1.4393083 0 0 0 0 44.247597
-9.6191587 -12.005095 -0.99836653 0 0 0 0 44.252548
-9.883832 -12.016191 -0.59947091 0 0 0 0 44.257492
-10.198719 -12.068022 -0.19257073 0 0 0 0 44.262436
-8.1441822 -10.992617 -1.2832885 0 0 0 0 44.267387
-9.1783266 -12.027733 -0.97605985 0 0 0 0 44.272331
-9.4440231 -12.034764 -0.59114248 0 0 0 0 44.277283
-9.7277994 -12.060726 -0.19724122 0 0 0 0 44.282227
-8.468751 -12.018247 -1.3665791 0 0 0 0 44.28717
-8.7554874 -12.04827 -0.95468527 0 0 0 0 44.292122
-9.0746908 -12.129909 -0.58689815 0 0 0 0 44.297066
-9.299037 -12.07818 -0.20387331 0 0 0 0 44.302017
-8.1487417 -12.175167 -1.3474323 0 0 0 0 44.306961
-8.337574 -12.056786 -0.93324637 0 0 0 0 44.311905
-8.6034288 -12.074702 -0.57537425 0 0 0 0 44.316856
-8.9195633 -12.143347 -0.21054064 0 0 0 0 44.3218
-8.0659857 -12.274358 -0.92919391 0 0 0 0 44.331696
-8.2894192 -12.220513 -0.57516229 0 0 0 0 44.336647
-8.490633 -12.13282 -0.21706268 0 0 0 0 44.341591
-8.2008076 -12.303455 -0.22587673 0 0 0 0 44.361382
-7.3027673 -12.803185 -1.3123032 0 0 0 0 44.366325
-8.2038088 -12.933288 -0.24564157 0 0 0 0 44.381165
-7.2522898 -12.932096 -0.92009461 0 0 0 0 44.39106
-7.8505239 -13.026315 -0.25436029 0 0 0 0 44.400955
-7.3778677 -12.896091 -0.25854042 0 0 0 0 44.420746
-5.4622974 -12.918987 -1.1762187 0 0 0 0 45.010773
-5.413753 -13.005749 -0.84486669 0 0 0 0 45.035507
-5.5533843 -12.930272 -0.30006087 0 0 0 0 45.065186
-3.6968882 -12.971903 -0.77655154 0 0 0 0 45.134445
-2.3230336 -12.246078 -0.91361254 0 0 0 0 45.188858
-2.5905709 -12.293304 -0.7048195 0 0 0 0 45.19381
-2.031244 -12.27104 -0.89591926 0 0 0 0 45.208649
-2.2894948 -12.270293 -0.69393629 0 0 0 0 45.2136
-2.5289145 -12.27652 -0.5240584 0 0 0 0 45.218544
-1.735088 -12.241046 -0.87598842 0 0 0 0 45.228439
-2.0050807 -12.345154 -0.68945199 0 0 0 0 45.233383
-2.2360551 -12.28041 -0.52427238 0 0 0 0 45.238335
-2.480406 -12.271565 -0.36230311 0 0 0 0 45.243279
-1.443233 -12.256021 -0.85825557 0 0 0 0 45.248222
-1.6984696 -12.242206 -0.67522097 0 0 0 0 45.253174
-1.9526328 -12.349232 -0.52775913 0 0 0 0 45.258118
-2.1895845 -12.275402 -0.37251157 0 0 0 0 45.263069
-1.1554185 -12.275968 -0.8425343 0 0 0 0 45.268013
-1.4126652 -12.2591 -0.66747648 0 0 0 0 45.272964
-1.6501967 -12.266206 -0.52560765 0 0 0 0 45.277908
-1.9019334 -12.305223 -0.38283384 0 0 0 0 45.282852
-0.87404591 -12.36086 -0.83109838 0 0 0 0 45.287804
-1.1259737 -12.291998 -0.66181463 0 0 0 0 45.292747
-1.3653872 -12.277058 -0.52683371 0 0 0 0 45.297699
-1.6088656 -12.272091 -0.39188337 0 0 0 0 45.302643
-0.57867074 -12.298897 -0.80902684 0 0 0 0 45.307587
-0.84343129 -12.346871 -0.65724456 0 0 0 0 45.312538
-1.0787066 -12.306924 -0.5291605 0 0 0 0 45.317482
-1.3271798 -12.29588 -0.40316123 0 0 0 0 45.322433
-0.29668412 -12.439788 -0.80186677 0 0 0 0 45.327377
-0.55235445 -12.322824 -0.64833784 0 0 0 0 45.332321
-0.79610324 -12.347765 -0.53252733 0 0 0 0 45.337273
-1.0415447 -12.326697 -0.41549137 0 0 0 0 45.342216
-0.27060848 -12.494678 -0.6503278 0 0 0 0 45.352112
-0.51016033 -12.337638 -0.5346691 0 0 0 0 45.357063
-0.75783378 -12.346513 -0.42676565 0 0 0 0 45.362007
-0.23949081 -13.255256 -0.57716763 0 0 0 0 45.376846
-0.47421333 -12.379329 -0.43910509 0 0 0 0 45.381798
0.62854272 -13.165589 -0.66628575 0 0 0 0 45.411476
0.67303622 -13.117305 -0.58034343 0 0 0 0 45.436211
2.4798155 -13.262423 -0.70917863 0 0 0 0 45.260269
4.822804 -28.618456 -1.323903 0 0 0 0 45.289948
2.5509832 -13.243421 -0.61262381 0 0 0 0 45.309738
4.9204025 -28.638294 -1.2966764 0 0 0 0 45.314682
2.5881038 -13.202728 -0.60770589 0 0 0 0 45.334473
3.8607469 -12.48319 -0.59836888 0 0 0 0 45.359207
4.1609893 -12.438295 -0.58243078 0 0 0 0 45.378998
3.8808339 -12.456461 -0.58145249 0 0 0 0 45.383942
3.698931 -12.721132 -0.61203063 0 0 0 0 45.388885
4.3347011 -12.028634 -0.5502634 0 0 0 0 45.398781
4.1937981 -12.446598 -0.57773286 0 0 0 0 45.403732
3.9356546 -12.445766 -0.60574871 0 0 0 0 45.408676
3.601083 -9.3093796 -0.41352144 0 0 0 0 45.418571
4.3233404 -11.909623 -0.54978251 0 0 0 0 45.423515
4.2575097 -12.445916 -0.61311424 0 0 0 0 45.428459
3.984412 -12.430926 -0.65300238 0 0 0 0 45.433411
3.8726108 -9.372263 -0.40696356 0 0 0 0 45.438354
3.6229892 -9.2995243 -0.42565936 0 0 0 0 45.443306
4.3437629 -11.800637 -0.58847213 0 0 0 0 45.44825
4.3131433 -12.443072 -0.67145509 0 0 0 0 45.453201
4.155097 -9.4412241 -0.40048194 0 0 0 0 45.458145
3.9073076 -9.3884535 -0.42827925 0 0 0 0 45.463089
3.6756701 -9.3057299 -0.46799564 0 0 0 0 45.46804
4.3502998 -11.663466 -0.64597076 0 0 0 0 45.472984
4.4702768 -9.5554047 -0.39535001 0 0 0 0 45.477936
4.1957169 -9.4634151 -0.43085298 0 0 0 0 45.48288
3.9609957 -9.3886318 -0.47859406 0 0 0 0 45.487823
3.7272198 -9.3208437 -0.52837157 0 0 0 0 45.492775
4.9512529 -9.9926424 -0.40442771 0 0 0 0 45.497719
4.5049462 -9.564517 -0.4346388 0 0 0 0 45.50267
4.2523346 -9.4685745 -0.4902066 0 0 0 0 45.507614
4.015521 -9.4017248 -0.54797548 0 0 0 0 45.512558
4.4415832 -8.4695883 -0.33218244 0 0 0 0 45.517509
4.3891649 -8.7899494 -0.3975392 0 0 0 0 45.522453
4.5685511 -9.5666885 -0.50200939 0 0 0 0 45.527405
4.3108873 -9.4726601 -0.56756395 0 0 0 0 45.532349
4.4593859 -8.0528679 -0.30732054 0 0 0 0 45.5373
4.4447055 -8.4084511 -0.37899759 0 0 0 0 45.542244
4.4044352 -8.6948004 -0.46324128 0 0 0 0 45.547188
4.6438861 -9.5958347 -0.59155786 0 0 0 0 45.552139
4.4789681 -7.6691504 -0.28461856 0 0 0 0 45.557083
4.4575758 -7.9796734 -0.35905355 0 0 0 0 45.562035
4.4638615 -8.3283052 -0.44978353 0 0 0 0 45.566978
4.446218 -8.6607332 -0.54934216 0 0 0 0 45.571922
4.5388947 -7.3826904 -0.26554075 0 0 0 0 45.576874
4.4810705 -7.6069584 -0.34141609 0 0 0 0 45.581818
4.4786749 -7.9065213 -0.4338764 0 0 0 0 45.586769
4.4769983 -8.2410364 -0.53751016 0 0 0 0 45.591713
4.7788172 -7.3893957 -0.25859234 0 0 0 0 45.596664
4.5834928 -7.3907423 -0.3318443 0 0 0 0 45.601608
4.4972062 -7.5267539 -0.4201811 0 0 0 0 45.606552
4.5016737 -7.8382988 -0.52572984 0 0 0 0 45.611504
5.0247188 -7.3991466 -0.25168529 0 0 0 0 45.616447
4.8234072 -7.3944163 -0.33188346 0 0 0 0 45.621399
4.6461067 -7.3838134 -0.41914788 0 0 0 0 45.626343
4.5073156 -7.4424396 -0.51290113 0 0 0 0 45.631287
5.2816038 -7.4119816 -0.24383992 0 0 0 0 45.636238
5.0733104 -7.399159 -0.33297032 0 0 0 0 45.641182
4.8880091 -7.3844657 -0.4271825 0 0 0 0 45.646133
4.7106347 -7.3788099 -0.52446955 0 0 0 0 45.651077
5.5464988 -7.4228711 -0.23702012 0 0 0 0 45.656021
5.3242645 -7.3969183 -0.33303037 0 0 0 0 45.660973
5.1409068 -7.3851929 -0.43626404 0 0 0 0 45.665916
4.9634457 -7.3874955 -0.54158908 0 0 0 0 45.670868
5.8194165 -7.4308257 -0.22922125 0 0 0 0 45.675812
5.6050401 -7.4198751 -0.33533514 0 0 0 0 45.680763
5.4057698 -7.3910055 -0.44542113 0 0 0 0 45.685707
5.2242904 -7.3912411 -0.55871958 0 0 0 0 45.690651
6.1041951 -7.4389381 -0.22047746 0 0 0 0 45.44577
5.8847728 -7.4299445 -0.33659708 0 0 0 0 45.450722
5.689415 -7.4100986 -0.45475838 0 0 0 0 45.455666
5.5019584 -7.4032898 -0.57601249 0 0 0 0 45.460609
6.2701006 -7.300169 -0.2085416 0 0 0 0 45.465561
6.174655 -7.4379401 -0.33784989 0 0 0 0 45.470505
5.9782104 -7.4250374 -0.4660396 0 0 0 0 45.475456
5.7807884 -7.4081221 -0.59520555 0 0 0 0 45.4804
6.278193 -6.9853663 -0.19214079 0 0 0 0 45.485352
6.2830348 -7.2257705 -0.32933593 0 0 0 0 45.490295
6.2532477 -7.4049001 -0.4751018 0 0 0 0 45.495239
6.0755639 -7.4200563 -0.61649883 0 0 0 0 45.500191
6.2961149 -6.6966252 -0.17689896 0 0 0 0 45.505135
6.2891297 -6.9089351 -0.31691393 0 0 0 0 45.510086
6.5630584 -7.416986 -0.48745888 0 0 0 0 45.51503
6.3783784 -7.4260507 -0.63779879 0 0 0 0 45.519974
6.2990699 -6.4037848 -0.16157404 0 0 0 0 45.524925
6.3001037 -6.6111326 -0.30459782 0 0 0 0 45.529869
6.8838882 -7.4261522 -0.49984917 0 0 0 0 45.534821
6.7031412 -7.4391932 -0.66022336 0 0 0 0 45.539764
6.4002838 -6.2215924 -0.14916579 0 0 0 0 45.544708
6.3100004 -6.3253183 -0.2933307 0 0 0 0 45.54966
6.3579001 -6.543911 -0.450596 0 0 0 0 45.554604
6.9535599 -7.3578725 -0.67590213 0 0 0 0 45.559555
6.7121701 -6.2357965 -0.14253707 0 0 0 0 45.564499
6.6337781 -6.3495526 -0.29679847 0 0 0 0 45.56945
6.3598466 -6.2500339 -0.44125551 0 0 0 0 45.574394
6.9528089 -7.0169764 -0.66733289 0 0 0 0 45.579338
6.9287057 -6.1543765 -0.13307217 0 0 0 0 45.58429
6.9139004 -6.3235097 -0.2978541 0 0 0 0 45.589233
6.9498839 -6.5179358 -0.4729605 0 0 0 0 45.594185
6.9549203 -6.6970949 -0.65987146 0 0 0 0 45.599129
6.9394908 -5.8885865 -0.11989944 0 0 0 0 45.604073
6.9386396 -6.0617938 -0.28875732 0 0 0 0 45.609024
6.9607854 -6.2311206 -0.46468833 0 0 0 0 45.613968
6.9698992 -6.397296 -0.65355343 0 0 0 0 45.618919
6.9392433 -5.6277189 -0.10770275 0 0 0 0 45.623863
6.9464431 -5.7919688 -0.27854994 0 0 0 0 45.628807
6.9636602 -5.9492512 -0.45640391 0 0 0 0 45.633759
6.9698625 -6.1014009 -0.64619005 0 0 0 0 45.638702
6.953867 -5.3869514 -0.095658727 0 0 0 0 45.643654
6.9571338 -5.5391588 -0.26943266 0 0 0 0 45.648598
6.972456 -5.6794176 -0.44919714 0 0 0 0 45.653549
6.9866614 -5.8296103 -0.64100641 0 0 0 0 45.658493
7.1783981 -5.3075929 -0.087232724 0 0 0 0 45.663437
7.0115533 -5.3266401 -0.26168191 0 0 0 0 45.668388
6.9891176 -5.4296327 -0.4431152 0 0 0 0 45.673332
6.9825115 -5.5516829 -0.63470507 0 0 0 0 45.678284
7.1830201 -5.0677562 -0.07614854 0 0 0 0 45.683228
7.1982961 -5.2119942 -0.25993383 0 0 0 0 45.688171
7.1937828 -5.322073 -0.44847414 0 0 0 0 45.693123
7.0141172 -5.3089833 -0.63171411 0 0 0 0 45.698067
7.2015519 -4.8420143 -0.065184966 0 0 0 0 45.703018
7.2089162 -4.9711828 -0.25186589 0 0 0 0 45.707962
7.2243266 -5.0903802 -0.4435308 0 0 0 0 45.712914
7.2605577 -5.2276506 -0.64936817 0 0 0 0 45.717857
7.1901536 -4.6060643 -0.055048384 0 0 0 0 45.722801
7.2174802 -4.739357 -0.24382998 0 0 0 0 45.727753
7.2339563 -4.8475509 -0.43744588 0 0 0 0 45.732697
7.2931137 -4.9929562 -0.64741576 0 0 0 0 45.737648
7.1956649 -4.3842297 -0.045044806 0 0 0 0 45.742592
7.218039 -4.5084729 -0.236763 0 0 0 0 45.747536
7.2465043 -4.6167374 -0.43242785 0 0 0 0 45.752487
7.2917895 -4.7430468 -0.64224946 0 0 0 0 45.757431
7.2140565 -4.1794734 -0.037173301 0 0 0 0 45.762383
7.2364993 -4.2927108 -0.22983846 0 0 0 0 45.767326
7.2490625 -4.3858609 -0.42636585 0 0 0 0 45.77227
6.5955873 -4.0686741 -0.57620192 0 0 0 0 45.777222
7.2174911 -3.9696205 -0.028213559 0 0 0 0 45.782166
7.2369862 -4.0738268 -0.22282313 0 0 0 0 45.787117
7.2665215 -4.169076 -0.42242947 0 0 0 0 45.792061
7.3308501 -4.2854886 -0.6372807 0 0 0 0 45.797012
6.3599544 -3.3148775 -0.015596678 0 0 0 0 45.801956
7.2454047 -3.8649919 -0.21688573 0 0 0 0 45.8069
7.2680306 -3.9461877 -0.41739553 0 0 0 0 45.811852
6.4948468 -3.5912008 -0.55954957 0 0 0 0 45.816795
6.3711343 -3.143059 -0.0088406689 0 0 0 0 45.821747
6.3799071 -3.2182848 -0.18326253 0 0 0 0 45.826691
6.3987379 -3.2825589 -0.36167124 0 0 0 0 45.831635
6.4135108 -3.3497605 -0.54907858 0 0 0 0 45.836586
6.3763294 -2.9702048 -0.0010527422 0 0 0 0 45.84153
6.3911018 -3.0434556 -0.17848943 0 0 0 0 45.846481
6.4149413 -3.1057582 -0.3579089 0 0 0 0 45.851425
6.4227877 -3.1609011 -0.54722887 0 0 0 0 45.856369
6.3774972 -2.8013184 0.0057344753 0 0 0 0 45.86132
6.4002876 -2.8706131 -0.17371537 0 0 0 0 45.866264
6.4221587 -2.9268909 -0.35509738 0 0 0 0 45.871216
6.4190731 -2.9719572 -0.54432338 0 0 0 0 45.87616
6.3896298 -2.6375027 0.01145488 0 0 0 0 45.881111
6.4074564 -2.700757 -0.16894533 0 0 0 0 45.886055
6.4243703 -2.7499945 -0.35127261 0 0 0 0 45.890999
6.3993812 -2.7809086 -0.54033965 0 0 0 0 45.89595
6.381784 -2.4715543 0.018269308 0 0 0 0 45.900894
6.4056287 -2.5308392 -0.16413589 0 0 0 0 45.905846
6.4365473 -2.578162 -0.34851059 0 0 0 0 45.910789
6.3846469 -2.5958889 -0.53740275 0 0 0 0 45.915733
6.3878384 -2.3130479 0.023816392 0 0 0 0 46.009399
6.419693 -2.3683717 -0.16060479 0 0 0 0 46.014343
6.4386549 -2.4076002 -0.34589291 0 0 0 0 46.019287
6.3887792 -2.4203248 -0.53576714 0 0 0 0 46.024239
6.7092185 -2.2623987 0.03071788 0 0 0 0 46.029182
6.5545158 -2.2493894 -0.15959847 0 0 0 0 46.034134
6.4448199 -2.239727 -0.34311506 0 0 0 0 46.039078
6.3590646 -2.2362096 -0.53076023 0 0 0 0 46.044029
7.0556545 -2.2039306 0.037553169 0 0 0 0 46.048973
7.0694938 -2.2480185 -0.16874023 0 0 0 0 46.053917
7.040544 -2.2628174 -0.37271115 0 0 0 0 46.058868
6.1387944 -1.9968356 -0.51069075 0 0 0 0 46.063812
7.0638428 -2.0361013 0.04432261 0 0 0 0 46.068764
7.0896754 -2.0792565 -0.16501546 0 0 0 0 46.073708
4.2181487 -1.2498953 -0.21706778 0 0 0 0 46.078651
7.2876263 -1.9277834 0.050909478 0 0 0 0 46.088547
7.319459 -1.9659393 -0.16642879 0 0 0 0 46.093498
4.158021 -1.1275464 -0.21222118 0 0 0 0 46.098442
4.0516644 -1.1072133 -0.3316882 0 0 0 0 46.103394
7.2878389 -1.7568961 0.056730602 0 0 0 0 46.108337
7.3137116 -1.7879988 -0.16254771 0 0 0 0 46.113281
7.2870512 -1.585997 0.061558627 0 0 0 0 46.128128
7.3189397 -1.6141353 -0.15872954 0 0 0 0 46.133072
7.297236 -1.4201798 0.067318439 0 0 0 0 46.147911
7.3271642 -1.4412929 -0.15492618 0 0 0 0 46.152863
7.2623267 -1.4317648 -0.37162447 0 0 0 0 46.157806
5.9456077 -1.1729062 -0.48988897 0 0 0 0 46.16275
7.3044205 -1.254337 0.072093293 0 0 0 0 46.167702
7.3303885 -1.2684106 -0.15209928 0 0 0 0 46.172646
7.2266335 -1.2476114 -0.36757874 0 0 0 0 46.177597
7.3196049 -1.0895555 0.077832267 0 0 0 0 46.187492
7.3475742 -1.1016265 -0.14935844 0 0 0 0 46.192436
7.3646865 -1.0956404 -0.37241238 0 0 0 0 46.19738
7.322783 -0.92568481 0.08261878 0 0 0 0 46.207275
7.3547964 -0.93077785 -0.14555311 0 0 0 0 46.212227
7.331964 -0.76185673 0.087382764 0 0 0 0 46.227066
7.3490038 -0.7618323 -0.14270087 0 0 0 0 46.23201
7.3171449 -0.59785408 0.091249794 0 0 0 0 46.246849
7.3672004 -0.59505635 -0.13995658 0 0 0 0 46.251801
7.333312 -0.43707567 0.095974319 0 0 0 0 46.26664
7.3724151 -0.42618883 -0.13714512 0 0 0 0 46.271591
7.1155233 -0.26761845 0.097719684 0 0 0 0 46.28643
7.1436968 -0.24967746 -0.13031745 0 0 0 0 46.291374
7.1216793 -0.10876206 0.10148229 0 0 0 0 46.306213
7.1598644 -0.0878805 -0.12858127 0 0 0 0 46.311165
7.1388316 0.049015909 0.10519592 0 0 0 0 46.326004
7.1650405 0.07398919 -0.12579638 0 0 0 0 46.330956
7.13798 0.20592171 0.10898267 0 0 0 0 46.345795
7.1702299 0.23786385 -0.12399869 0 0 0 0 46.350739
7.1421466 0.36479172 0.11276107 0 0 0 0 46.365578
7.1694164 0.40078115 -0.12217823 0 0 0 0 46.370529
7.1573162 0.52358294 0.11649544 0 0 0 0 46.385368
7.1906128 0.56454122 -0.12044309 0 0 0 0 46.390312
7.157486 0.68248636 0.11929572 0 0 0 0 46.405159
7.1908278 0.73045105 -0.11860634 0 0 0 0 46.410103
7.1586843 0.84437722 0.12310971 0 0 0 0 46.424942
7.2030678 0.89927465 -0.11680239 0 0 0 0 46.429893
7.1688933 1.0072035 0.12689322 0 0 0 0 46.444733
7.2082968 1.0661484 -0.11497647 0 0 0 0 46.449677
7.1730952 1.1690776 0.12969957 0 0 0 0 46.464523
7.1995373 1.2341225 -0.11308321 0 0 0 0 46.469467
7.1741719 1.3293501 0.13207094 0 0 0 0 47.078941
7.2106361 1.4013816 -0.11270667 0 0 0 0 47.083885
4.327889 0.92943907 -0.35960361 0 0 0 0 47.093781
7.1824789 1.4971917 0.13493524 0 0 0 0 47.098724
7.2249794 1.5751901 -0.11183578 0 0 0 0 47.103676
6.1047826 1.3976384 -0.29687688 0 0 0 0 47.10862
4.3567767 1.0461919 -0.36309481 0 0 0 0 47.113571
7.1998048 1.6669651 0.13777293 0 0 0 0 47.118515
7.0329843 1.7025391 -0.10730596 0 0 0 0 47.123459
6.1029415 1.5475876 -0.29705694 0 0 0 0 47.12841
4.3987002 1.1678514 -0.36761519 0 0 0 0 47.133354
7.1690636 1.8281065 0.13977812 0 0 0 0 47.138306
6.9992423 1.8637071 -0.10528576 0 0 0 0 47.14325
6.0279875 1.6800678 -0.29300714 0 0 0 0 47.148193
4.4146166 1.2877012 -0.37102905 0 0 0 0 47.153145
6.6652822 1.8588811 0.13316306 0 0 0 0 47.158089
6.4313436 1.8698847 -0.095749617 0 0 0 0 47.16304
6.1374106 1.8672084 -0.29947054 0 0 0 0 47.167984
4.4515839 1.4143969 -0.37549677 0 0 0 0 47.172935
7.2078519 2.1826155 0.14653035 0 0 0 0 47.177879
5.9705019 1.8832631 -0.086641282 0 0 0 0 47.182823
5.782805 1.9067438 -0.28268662 0 0 0 0 47.187775
4.4635282 1.5372763 -0.37887299 0 0 0 0 47.192719
7.2102342 2.3585069 0.14847827 0 0 0 0 47.19767
5.5726643 1.8981838 -0.079798289 0 0 0 0 47.202614
5.3879776 1.9155753 -0.26288825 0 0 0 0 47.207558
4.4815059 1.6641095 -0.38225237 0 0 0 0 47.212509
5.3784971 1.8905474 0.11502577 0 0 0 0 47.217453
5.2057729 1.9058779 -0.073127583 0 0 0 0 47.222404
5.0521894 1.9309826 -0.2463112 0 0 0 0 47.227348
4.5105424 1.798864 -0.38663545 0 0 0 0 47.232292
5.0525789 1.9009933 0.11053201 0 0 0 0 47.237244
4.8788676 1.9122809 -0.067637391 0 0 0 0 47.242188
4.7954955 1.9608167 -0.23400228 0 0 0 0 47.247139
4.534605 1.9366558 -0.39097783 0 0 0 0 47.252083
4.787755 1.9229755 0.10683402 0 0 0 0 47.257034
4.8136888 2.014713 -0.065778285 0 0 0 0 47.261978
4.7935271 2.0917804 -0.23426597 0 0 0 0 47.266922
4.5817604 2.0872822 -0.39735028 0 0 0 0 47.271873
4.8028049 2.054796 0.10849958 0 0 0 0 47.276817
4.822753 2.1495912 -0.066068381 0 0 0 0 47.281769
4.6310549 2.152931 -0.22719781 0 0 0 0 47.286713
4.6319828 2.2468898 -0.40468484 0 0 0 0 47.291656
4.8008275 2.1827462 0.11022164 0 0 0 0 47.296608
4.8248172 2.2835174 -0.065330409 0 0 0 0 47.301552
4.5738955 2.2573073 -0.22535765 0 0 0 0 47.306503
4.632072 2.3858523 -0.40690786 0 0 0 0 47.311447
4.8038712 2.3136635 0.11093976 0 0 0 0 47.316391
4.8409719 2.4293411 -0.065587334 0 0 0 0 47.321342
4.5890093 2.3991539 -0.22763053 0 0 0 0 47.326286
4.6924195 2.5613868 -0.41519526 0 0 0 0 47.331238
4.8139758 2.4515212 0.1126669 0 0 0 0 47.336182
4.8460913 2.5702491 -0.065820023 0 0 0 0 47.341133
4.600162 2.5450256 -0.22886118 0 0 0 0 47.346077
4.6353426 2.6757648 -0.41329437 0 0 0 0 47.351021
4.8261218 2.594363 0.11441472 0 0 0 0 47.355972
4.8542681 2.7181334 -0.066025406 0 0 0 0 47.360916
4.6153512 2.6958714 -0.23108007 0 0 0 0 47.365868
4.5933485 2.8010342 -0.41239801 0 0 0 0 47.370811
4.8332748 2.7382488 0.11519287 0 0 0 0 47.375755
4.864502 2.8730023 -0.066198841 0 0 0 0 47.380707
4.8947749 3.0137639 -0.24755237 0 0 0 0 47.385651
4.3785586 2.8145494 -0.39634579 0 0 0 0 47.390602
4.8324232 2.8811955 0.11600396 0 0 0 0 47.395546
4.8697343 3.027915 -0.067347221 0 0 0 0 47.400497
4.2750859 2.7733085 -0.21609609 0 0 0 0 47.405441
4.1285334 2.7953179 -0.37631506 0 0 0 0 47.410385
4.8446946 3.0390363 0.11784153 0 0 0 0 47.415337
4.869998 3.1858602 -0.067453861 0 0 0 0 47.42028
4.1586342 2.8371382 -0.21220151 0 0 0 0 47.425232
3.9477725 2.8135908 -0.36238408 0 0 0 0 47.430176
4.8449192 3.190975 0.11870272 0 0 0 0 47.43512
4.8783426 3.3537433 -0.067538768 0 0 0 0 47.440071
4.9067855 3.519556 -0.25474027 0 0 0 0 47.445015
3.7779994 2.8307881 -0.34950626 0 0 0 0 47.449966
4.8542519 3.3558381 0.12059767 0 0 0 0 47.45491
4.8857098 3.5246394 -0.068599835 0 0 0 0 47.459854
4.914258 3.7044582 -0.25672182 0 0 0 0 47.464806
3.6282792 2.855845 -0.33867264 0 0 0 0 47.469749
4.857584 3.5207529 0.12152251 0 0 0 0 47.474701
4.8901196 3.7005582 -0.06961669 0 0 0 0 47.479645
