# .PCD v0.7 - Point Cloud Data file format
VERSION 0.7
FIELDS x y z normal_x normal_y normal_z intensity curvature
SIZE 4 4 4 4 4 4 4 4
TYPE F F F F F F F F
COUNT 1 1 1 1 1 1 1 1
WIDTH 784
HEIGHT 1
VIEWPOINT 0 0 0 1 0 0 0
POINTS 784
DATA ascii
5.1111989 4.4886713 5.6713214 0 0 0 0 28.794289
5.4840646 3.83653 6.3783445 0 0 0 0 28.799236
5.4654684 4.2312837 6.2298326 0 0 0 0 28.804182
5.4508777 4.634069 6.1003075 0 0 0 0 28.80913
5.4556098 3.5487313 6.5958076 0 0 0 0 28.814077
5.4459367 3.9914639 6.4232244 0 0 0 0 28.819023
5.4313407 4.4022541 6.2966905 0 0 0 0 28.823971
5.4167519 4.8200684 6.1881485 0 0 0 0 28.828918
5.4334788 3.7056863 6.6426706 0 0 0 0 28.833864
5.417809 4.1574321 6.4840837 0 0 0 0 28.838812
5.4042158 4.582252 6.3785329 0 0 0 0 28.84376
5.3706279 5.000041 6.2670088 0 0 0 0 28.848705
5.3973455 3.8576074 6.6775537 0 0 0 0 28.853653
5.3856802 4.326395 6.5459437 0 0 0 0 28.858599
5.3580923 4.7522054 6.444406 0 0 0 0 28.863546
5.3265052 5.1880293 6.3568587 0 0 0 0 28.868494
5.3752151 4.0235748 6.7344089 0 0 0 0 28.87344
5.3445568 4.4893413 6.6028214 0 0 0 0 28.878387
5.3169689 4.9321809 6.5232639 0 0 0 0 28.883335
5.2913799 5.38905 6.4626875 0 0 0 0 28.888281
5.3440828 4.1875219 6.7842755 0 0 0 0 28.893229
5.3134289 4.6683211 6.6766715 0 0 0 0 28.898176
5.2858443 5.126194 6.6210976 0 0 0 0 28.903122
5.2462568 5.5890541 6.5665274 0 0 0 0 28.90807
5.3109503 4.3554716 6.8381405 0 0 0 0 28.913017
5.2843022 4.8543167 6.7605133 0 0 0 0 28.917963
5.2457194 5.3191886 6.7139421 0 0 0 0 28.922911
5.2011333 5.7960687 6.6783605 0 0 0 0 28.927858
5.2558203 4.5083642 6.8690448 0 0 0 0 28.932804
5.2461748 5.0392947 6.8403659 0 0 0 0 28.937752
5.2025957 5.5161853 6.8117862 0 0 0 0 28.942699
5.1520085 6.0080824 6.7941928 0 0 0 0 28.947645
5.1586928 4.6281409 6.8500266 0 0 0 0 28.952593
5.1530571 5.174118 6.8523288 0 0 0 0 28.957541
5.1244807 5.681087 6.8697009 0 0 0 0 28.962486
5.0658989 6.1829991 6.8701053 0 0 0 0 28.967434
5.0535674 4.7419004 6.8230238 0 0 0 0 28.972382
5.0389466 5.2888875 6.8413348 0 0 0 0 28.977327
4.9783883 5.7727985 6.8427653 0 0 0 0 28.982275
4.8868289 6.245646 6.8232355 0 0 0 0 28.987221
4.9554486 4.8616886 6.811008 0 0 0 0 28.992168
4.9058423 5.3856072 6.8083801 0 0 0 0 28.997116
4.8263035 5.854495 6.807848 0 0 0 0 29.002062
4.7207627 6.318336 6.7953434 0 0 0 0 29.00701
4.8483324 4.9744558 6.79001 0 0 0 0 29.011957
4.7717443 5.4783306 6.7764316 0 0 0 0 29.016903
4.6782227 5.9392099 6.7819233 0 0 0 0 29.021851
4.5467048 6.3770037 6.755475 0 0 0 0 29.026798
4.7352195 5.0812092 6.7620244 0 0 0 0 29.031744
4.6456504 5.5790834 6.7594666 0 0 0 0 29.036692
4.5211482 6.0119009 6.7440214 0 0 0 0 29.041639
4.3786497 6.4406943 6.725595 0 0 0 0 29.046585
4.6291113 5.1959934 6.7500243 0 0 0 0 29.051533
4.5095601 5.6698117 6.7305236 0 0 0 0 29.05648
4.3680806 6.0846095 6.7141161 0 0 0 0 29.061426
4.2066035 6.4943762 6.690731 0 0 0 0 29.066374
4.5140057 5.3027554 6.7280421 0 0 0 0 29.071321
4.3744764 5.7585483 6.7055817 0 0 0 0 29.076267
4.2130175 6.1533155 6.6822176 0 0 0 0 29.081215
4.023571 6.5250254 6.6379037 0 0 0 0 29.086163
4.3949056 5.4065146 6.7060666 0 0 0 0 29.091108
4.2333984 5.839273 6.6746554 0 0 0 0 29.096056
4.048964 6.2049952 6.6353469 0 0 0 0 29.101002
3.8545351 6.5737209 6.6070423 0 0 0 0 29.105949
4.2678118 5.4992542 6.6741123 0 0 0 0 29.110897
4.0853281 5.9099813 6.635747 0 0 0 0 29.115843
3.9448838 6.3498783 6.6943145 0 0 0 0 29.12079
3.6815071 6.61341 6.5721951 0 0 0 0 29.125738
4.1407218 5.5930023 6.6471567 0 0 0 0 29.130684
3.9732459 6.030808 6.6567488 0 0 0 0 29.135632
3.8737826 6.556879 6.8171816 0 0 0 0 29.140579
3.5064888 6.6400895 6.5293646 0 0 0 0 29.145525
4.0186343 5.69277 6.6301913 0 0 0 0 29.150473
3.9511175 6.30094 6.8415008 0 0 0 0 29.15542
3.6697669 6.5384445 6.7104282 0 0 0 0 29.160366
3.3364716 6.6717873 6.494523 0 0 0 0 29.165314
4.0214953 5.9809475 6.8299017 0 0 0 0 29.170261
3.7960589 6.3656478 6.8046064 0 0 0 0 29.175207
3.4537663 6.4899693 6.5777192 0 0 0 0 29.180155
3.1694586 6.7044997 6.4666781 0 0 0 0 29.185102
3.8994081 6.094739 6.8309212 0 0 0 0 29.190048
3.6420023 6.4333663 6.7737083 0 0 0 0 29.194996
3.2627594 6.4735746 6.4849501 0 0 0 0 29.199944
2.9964545 6.7211924 6.4258556 0 0 0 0 29.204889
3.7593322 6.181478 6.8039875 0 0 0 0 29.209837
3.487951 6.497087 6.7428145 0 0 0 0 29.214783
3.0967391 6.5002675 6.4381089 0 0 0 0 29.21973
2.8254571 6.7328906 6.3860373 0 0 0 0 29.224678
3.6152596 6.2642107 6.7740622 0 0 0 0 29.229624
3.3139169 6.5227447 6.675981 0 0 0 0 29.234571
2.9347222 6.5299788 6.4002604 0 0 0 0 29.239519
2.6604588 6.7546144 6.3592014 0 0 0 0 29.244465
3.4671948 6.3389382 6.7411494 0 0 0 0 29.249413
3.098922 6.4552546 6.5212879 0 0 0 0 29.25436
2.7767057 6.5657077 6.3714008 0 0 0 0 29.259306
2.4904718 6.7563167 6.3173919 0 0 0 0 29.264254
3.3179972 6.4118977 6.7090001 0 0 0 0 29.203705
2.9107757 6.4300723 6.415288 0 0 0 0 29.208652
2.6165521 6.592638 6.3383179 0 0 0 0 29.2136
2.3233387 6.7582288 6.2793431 0 0 0 0 29.218546
3.1659398 6.47962 6.6750984 0 0 0 0 29.223494
2.75175 6.4627786 6.3704329 0 0 0 0 29.228441
2.4585454 6.6183653 6.3074708 0 0 0 0 29.233387
2.1603544 6.7659559 6.2505217 0 0 0 0 29.238335
2.9669256 6.4431729 6.5413566 0 0 0 0 29.243282
2.5907333 6.4874845 6.3245878 0 0 0 0 29.248228
2.3025386 6.6501069 6.2846136 0 0 0 0 29.253176
1.9953799 6.7566676 6.2087207 0 0 0 0 29.258123
2.768918 6.398726 6.4036217 0 0 0 0 29.263069
2.435714 6.5242157 6.2927237 0 0 0 0 29.268017
2.1415451 6.6608291 6.2477851 0 0 0 0 29.272964
1.8314093 6.7463875 6.1709189 0 0 0 0 29.27791
2.6028919 6.4174018 6.3357863 0 0 0 0 29.282858
2.2826951 6.564959 6.2668529 0 0 0 0 29.287806
1.97956 6.659544 6.2039704 0 0 0 0 29.292751
1.6734384 6.7431288 6.1431031 0 0 0 0 29.297699
2.448858 6.4661331 6.3009067 0 0 0 0 29.302645
2.128686 6.5946994 6.2369952 0 0 0 0 29.307592
1.8225729 6.6682811 6.1721392 0 0 0 0 29.31254
1.5154738 6.7308664 6.1102967 0 0 0 0 29.317486
2.2968285 6.5138736 6.2700257 0 0 0 0 29.322433
1.9726788 6.6234398 6.207139 0 0 0 0 29.327381
1.6675875 6.6790285 6.1453032 0 0 0 0 29.332327
1.3575151 6.7106018 6.0734987 0 0 0 0 29.337275
2.1468005 6.5676303 6.249136 0 0 0 0 29.342222
1.8166788 6.6451817 6.176291 0 0 0 0 29.347168
1.5086114 6.6727591 6.1054893 0 0 0 0 29.352116
1.2015612 6.684339 6.0347047 0 0 0 0 29.357063
1.990779 6.6093712 6.2182641 0 0 0 0 29.362009
1.6586862 6.6549139 6.1374574 0 0 0 0 29.366957
1.3526382 6.6665001 6.0696712 0 0 0 0 29.371904
1.046608 6.6620884 6.0029039 0 0 0 0 29.37685
1.8327658 6.6401057 6.1814055 0 0 0 0 29.381798
1.5016927 6.6706581 6.1056147 0 0 0 0 29.386745
1.1976688 6.6602502 6.0388522 0 0 0 0 29.391691
0.89466125 6.6288352 5.9641123 0 0 0 0 29.396639
1.6757523 6.6788564 6.1555367 0 0 0 0 29.401587
1.3457061 6.6814079 6.0757761 0 0 0 0 29.406532
1.0427045 6.642993 5.9990444 0 0 0 0 29.41148
0.74471289 6.6035986 5.9353089 0 0 0 0 29.416428
1.5167489 6.7025967 6.1206861 0 0 0 0 29.421373
1.1887237 6.685154 6.040946 0 0 0 0 29.426321
0.89074069 6.6327529 5.9702249 0 0 0 0 29.431267
0.59677279 6.5643554 5.8975182 0 0 0 0 29.436214
1.355752 6.7153287 6.0778489 0 0 0 0 29.441162
1.0327474 6.6839042 6.0071197 0 0 0 0 29.446108
0.73878419 6.6095061 5.9324188 0 0 0 0 29.451056
0.44983518 6.5211134 5.8577299 0 0 0 0 29.456003
1.1987512 6.7460914 6.0559869 0 0 0 0 29.460949
0.87577343 6.6786528 5.9702969 0 0 0 0 29.465897
0.58882725 6.5932741 5.9046025 0 0 0 0 29.470844
0.3068918 6.4958997 5.8369174 0 0 0 0 29.47579
1.0367624 6.7538309 6.0161533 0 0 0 0 29.480738
0.71980846 6.6593952 5.925488 0 0 0 0 29.485685
0.43987507 6.5670366 5.8687954 0 0 0 0 29.490631
0.16396041 6.4486709 5.8011274 0 0 0 0 29.495579
0.87577647 6.761579 5.980319 0 0 0 0 29.500526
0.56683803 6.6601686 5.9026542 0 0 0 0 29.505472
0.29192847 6.5358038 5.8339911 0 0 0 0 29.51042
0.024029033 6.4004469 5.7643356 0 0 0 0 29.515368
0.71479869 6.7603264 5.942493 0 0 0 0 29.520313
0.41287655 6.6429276 5.865839 0 0 0 0 29.525261
0.14698343 6.5035782 5.8001852 0 0 0 0 29.530209
-0.11190275 6.3602419 5.7395301 0 0 0 0 29.535154
0.55382079 6.760078 5.9056644 0 0 0 0 29.540102
0.2599194 6.6226921 5.8310256 0 0 0 0 29.545048
0.002040172 6.4713573 5.7693772 0 0 0 0 29.549995
-0.24783054 6.3110313 5.7077327 0 0 0 0 29.554943
0.39285177 6.7478271 5.8638487 0 0 0 0 29.559889
0.10796559 6.5984592 5.7952142 0 0 0 0 29.564837
-0.13989733 6.4291353 5.7325773 0 0 0 0 29.569784
-0.38175446 6.256824 5.6749382 0 0 0 0 29.57473
0.23388053 6.746594 5.8350172 0 0 0 0 29.579678
-0.041985046 6.5722327 5.7614026 0 0 0 0 29.584625
-0.28083414 6.3879199 5.6987739 0 0 0 0 29.589571
-0.51267552 6.1986208 5.6411443 0 0 0 0 29.594519
0.073917016 6.7323546 5.7982006 0 0 0 0 29.599466
-0.19093384 6.5460124 5.7305889 0 0 0 0 29.604412
-0.41976798 6.3447113 5.6669693 0 0 0 0 29.60936
-0.64360404 6.1594386 5.6253281 0 0 0 0 29.614307
-0.084041253 6.7121181 5.7603869 0 0 0 0 29.619253
-0.33987656 6.5087872 5.6927857 0 0 0 0 29.624201
-0.55769861 6.2965031 5.6331682 0 0 0 0 29.629148
-0.7685203 6.0932422 5.5885353 0 0 0 0 29.634094
-0.24199726 6.6928897 5.727571 0 0 0 0 29.639042
-0.48681793 6.4745741 5.6619759 0 0 0 0 29.64399
-0.69262189 6.2342911 5.5903783 0 0 0 0 29.648935
-0.89043295 6.0180435 5.5447483 0 0 0 0 29.653883
-0.39995009 6.669663 5.693758 0 0 0 0 29.658829
-0.63175601 6.4353628 5.629169 0 0 0 0 29.663776
-0.82655203 6.1921024 5.567565 0 0 0 0 29.668724
-1.0123466 5.9478536 5.5079541 0 0 0 0 29.67367
-0.5545333 6.6303458 5.6537099 0 0 0 0 30.256248
-0.77536893 6.39112 5.5970435 0 0 0 0 30.261194
-0.9551906 6.1209116 5.5233803 0 0 0 0 30.266142
-1.1490481 5.9817972 5.5726123 0 0 0 0 30.271088
-0.71148431 6.6091676 5.6278706 0 0 0 0 30.276035
-0.9173063 6.3459501 5.5652132 0 0 0 0 30.280983
-1.0871252 6.0797634 5.5055385 0 0 0 0 30.285931
-1.2930002 6.0307217 5.6526999 0 0 0 0 30.290876
-0.86542594 6.5649815 5.5870466 0 0 0 0 30.295824
-1.0592419 6.2987838 5.5343828 0 0 0 0 30.30077
-1.2150533 6.0206089 5.4747076 0 0 0 0 30.305717
-1.4159245 5.9755845 5.6368628 0 0 0 0 30.310665
-1.0163637 6.5137992 5.5442257 0 0 0 0 30.315611
-1.1971736 6.2416172 5.4975572 0 0 0 0 30.320559
-1.3439842 5.9734664 5.4568663 0 0 0 0 30.325506
-1.5358466 5.9144478 5.6180267 0 0 0 0 30.330452
-1.1693037 6.4736266 5.5133944 0 0 0 0 30.3354
-1.3341039 6.1854582 5.4657283 0 0 0 0 30.340347
-1.4739165 5.9353342 5.450016 0 0 0 0 30.345293
-1.6537677 5.851315 5.5991898 0 0 0 0 30.350241
-1.3182389 6.4224553 5.4765687 0 0 0 0 30.355188
-1.4700328 6.1232977 5.4289017 0 0 0 0 30.360134
-1.6178592 5.944232 5.4911346 0 0 0 0 30.365082
-1.7666848 5.774179 5.5693593 0 0 0 0 30.370029
-1.4661723 6.3702893 5.4427414 0 0 0 0 30.374975
-1.5979553 6.0431356 5.3800836 0 0 0 0 30.379923
-1.7648032 5.9581327 5.5372491 0 0 0 0 30.384871
-1.8735998 5.6880431 5.5325317 0 0 0 0 30.389816
-1.6141037 6.3161273 5.4109139 0 0 0 0 30.394764
-1.7338862 5.9969969 5.3642402 0 0 0 0 30.399712
-1.8917285 5.9060044 5.5264049 0 0 0 0 30.404657
-1.9825172 5.611917 5.5066948 0 0 0 0 30.409605
-1.7610348 6.2629709 5.3820834 0 0 0 0 30.414551
-1.8598073 5.9178462 5.3224168 0 0 0 0 30.419498
-2.0146501 5.8408723 5.5055671 0 0 0 0 30.424446
-2.0854325 5.5267911 5.4738598 0 0 0 0 30.429392
-1.9009573 6.1858091 5.337266 0 0 0 0 30.43434
-1.9997398 5.8857231 5.325561 0 0 0 0 30.439287
-2.1325686 5.7637396 5.4757342 0 0 0 0 30.444233
-2.1913497 5.4516735 5.4530172 0 0 0 0 30.449181
-2.0428836 6.1236596 5.307436 0 0 0 0 30.454128
-2.149677 5.8766131 5.3526917 0 0 0 0 30.459074
-2.246485 5.6806083 5.4429021 0 0 0 0 30.464022
-2.2952673 5.3775611 5.4341707 0 0 0 0 30.468969
-2.1778035 6.0425076 5.2646151 0 0 0 0 30.473915
-2.3126206 5.89852 5.4118032 0 0 0 0 30.478863
-2.3634043 5.6104879 5.4240599 0 0 0 0 30.48381
-2.3941834 5.2944484 5.4083266 0 0 0 0 30.488756
-2.3177266 5.9763665 5.2377834 0 0 0 0 30.493704
-2.4555485 5.8634048 5.421948 0 0 0 0 30.498652
-2.4723191 5.5213628 5.389226 0 0 0 0 30.503597
-2.4941003 5.2183437 5.3914757 0 0 0 0 30.508545
-2.4496453 5.8962264 5.2019558 0 0 0 0 30.513493
-2.5814655 5.7842746 5.3941159 0 0 0 0 30.518438
-2.5812359 5.4402461 5.3633842 0 0 0 0 30.523386
-2.5880163 5.1312361 5.3636289 0 0 0 0 30.528332
-2.5875659 5.8290963 5.1821198 0 0 0 0 30.533279
-2.699378 5.6901445 5.3562884 0 0 0 0 30.538227
-2.6881506 5.3541317 5.3365431 0 0 0 0 30.543173
-2.6809316 5.0451336 5.3397784 0 0 0 0 30.54812
-2.7595041 5.8329926 5.2272458 0 0 0 0 30.553068
-2.822295 5.6140256 5.3364482 0 0 0 0 30.558014
-2.7960672 5.2750239 5.3176956 0 0 0 0 30.562962
-2.7718472 4.9590344 5.3169255 0 0 0 0 30.567909
-2.9344394 5.8368936 5.2783718 0 0 0 0 30.572855
-2.9372072 5.5189037 5.3016162 0 0 0 0 30.577803
-2.8979824 5.1869168 5.2908497 0 0 0 0 30.58275
-2.8597634 4.8719392 5.2940698 0 0 0 0 30.587696
-3.0813594 5.7797766 5.2775278 0 0 0 0 30.592644
-3.0471187 5.4207864 5.2657819 0 0 0 0 30.597591
-2.9938953 5.0888095 5.2570062 0 0 0 0 30.602537
-2.9466796 4.7848473 5.273212 0 0 0 0 30.607485
-3.2092698 5.6856527 5.2466993 0 0 0 0 30.612432
-3.161031 5.331677 5.2429404 0 0 0 0 30.617378
-3.0958109 5.0047116 5.2391534 0 0 0 0 30.622326
-3.0285957 4.6917558 5.2463541 0 0 0 0 30.627274
-3.3351803 5.5905333 5.2168689 0 0 0 0 30.632219
-3.2749438 5.2425704 5.221097 0 0 0 0 30.637167
-3.1917243 4.9126158 5.216301 0 0 0 0 30.642113
-3.1165133 4.610673 5.2344885 0 0 0 0 30.64706
-3.4570892 5.4914174 5.187036 0 0 0 0 30.652008
-3.3768542 5.1394649 5.1872559 0 0 0 0 30.656954
-3.2876394 4.8225231 5.195446 0 0 0 0 30.661901
-3.1914291 4.5135875 5.2066264 0 0 0 0 30.666849
-3.5759962 5.3873053 5.1562037 0 0 0 0 30.671795
-3.4837658 5.0443654 5.1644096 0 0 0 0 30.676743
-3.3815546 4.7324343 5.1765876 0 0 0 0 30.68169
-3.2723475 4.4265079 5.1897578 0 0 0 0 30.686636
-3.689903 5.2791967 5.1233692 0 0 0 0 30.691584
-3.5816751 4.9362664 5.1315656 0 0 0 0 30.696531
-3.4694684 4.6343465 5.1517305 0 0 0 0 30.701477
-3.3502648 4.3374319 5.1738882 0 0 0 0 30.706425
-3.8068106 5.1760936 5.0975308 0 0 0 0 30.711372
-3.6805859 4.8351741 5.1067152 0 0 0 0 30.716318
-3.5593832 4.5412636 5.1338687 0 0 0 0 30.721266
-3.4241836 4.2443557 5.1520171 0 0 0 0 30.726213
-3.776196 4.8841071 4.885273 0 0 0 0 30.467663
-3.7879863 4.7432556 5.0933957 0 0 0 0 30.47261
-3.640759 4.4383645 5.1065655 0 0 0 0 30.477558
-3.4945381 4.1494803 5.1307225 0 0 0 0 30.482504
-3.8740945 4.768002 4.8504453 0 0 0 0 30.487452
-3.736861 4.4631147 4.8786182 0 0 0 0 30.492399
-3.7236664 4.3402786 5.0867133 0 0 0 0 30.497345
-3.5694506 4.0614052 5.1188574 0 0 0 0 30.502293
-3.9769948 4.6599021 4.8256111 0 0 0 0 30.50724
-3.8187644 4.3530254 4.848774 0 0 0 0 30.512186
-3.712563 4.1371655 4.9428921 0 0 0 0 30.517134
-3.637363 3.9663308 5.0999918 0 0 0 0 30.522081
-4.079896 4.5548077 4.8057723 0 0 0 0 30.527027
-3.9166715 4.2609415 4.839921 0 0 0 0 30.531975
-3.7334671 3.9800715 4.8520494 0 0 0 0 30.536922
-3.698276 3.8662567 5.0741248 0 0 0 0 30.541868
-4.1697941 4.4357152 4.7749352 0 0 0 0 30.546816
-3.9995766 4.1548586 4.8170695 0 0 0 0 30.551762
-3.8103774 3.8849986 4.8381853 0 0 0 0 30.556709
-3.6691861 3.6771584 4.9312782 0 0 0 0 30.561657
-4.2716951 4.329628 4.7590928 0 0 0 0 30.566605
-4.0764813 4.0427775 4.789217 0 0 0 0 30.57155
-3.8862891 3.7919285 4.8263178 0 0 0 0 30.576498
-3.6861012 3.5410802 4.8564129 0 0 0 0 30.581444
-4.3545923 4.2055435 4.7282515 0 0 0 0 30.586391
-4.161387 3.9407039 4.7763596 0 0 0 0 30.591339
-3.9541998 3.6898594 4.8064504 0 0 0 0 30.596285
-3.7420182 3.4460175 4.8365335 0 0 0 0 30.601233
-4.4484921 4.0934639 4.7124047 0 0 0 0 30.60618
-4.2362914 3.8296318 4.7555017 0 0 0 0 30.611126
-4.0201116 3.5877934 4.7875805 0 0 0 0 30.616074
-3.8089359 3.3629615 4.8346491 0 0 0 0 30.621021
-4.5323911 3.9733877 4.6895566 0 0 0 0 30.625967
-4.3031974 3.7125607 4.7266421 0 0 0 0 30.630915
-4.0930233 3.4937325 4.7807064 0 0 0 0 30.635862
-3.8668535 3.2719059 4.8237653 0 0 0 0 30.640808
-4.60429 3.8453143 4.6577058 0 0 0 0 30.645756
-4.3831034 3.6074958 4.7167778 0 0 0 0 30.650703
-4.145936 3.3836706 4.7528324 0 0 0 0 30.655649
-3.9207723 3.1788516 4.8098783 0 0 0 0 30.660597
-4.6801896 3.7202449 4.6338534 0 0 0 0 30.665545
-4.4500098 3.4944334 4.6969113 0 0 0 0 30.67049
-4.2088485 3.2816131 4.7389555 0 0 0 0 30.675438
-3.9736917 3.0857995 4.7969894 0 0 0 0 30.680386
-4.7660899 3.6051803 4.6239953 0 0 0 0 30.685331
-4.5149159 3.3783734 4.6770434 0 0 0 0 30.690279
-4.2707624 3.1805589 4.7270751 0 0 0 0 30.695225
-4.0286112 2.9937499 4.7880993 0 0 0 0 30.700172
-5.0079932 3.6011229 4.76513 0 0 0 0 30.70512
-4.5718236 3.259316 4.6521721 0 0 0 0 30.710066
-4.324676 3.0735064 4.7091937 0 0 0 0 30.715014
-4.0705323 2.8936999 4.7662072 0 0 0 0 30.719961
-5.0858912 3.4750619 4.7502713 0 0 0 0 30.724907
-4.6307316 3.1422617 4.6322985 0 0 0 0 30.729855
-4.3805904 2.9694562 4.6953092 0 0 0 0 30.734802
-4.1204534 2.8006549 4.7573118 0 0 0 0 30.739748
-5.1467896 3.3380058 4.7244105 0 0 0 0 30.744696
-4.7056398 3.0372121 4.6324215 0 0 0 0 30.749643
-4.4325061 2.8634086 4.6804223 0 0 0 0 30.754589
-4.1643758 2.7046118 4.7444143 0 0 0 0 30.759537
-5.2146883 3.2059515 4.7065477 0 0 0 0 30.764484
-4.9015412 3.0051692 4.7515473 0 0 0 0 30.76943
-4.479423 2.7553639 4.6635323 0 0 0 0 30.774378
-4.2002997 2.6035678 4.7225146 0 0 0 0 30.779325
-5.2825885 3.0759015 4.6936808 0 0 0 0 30.784271
-4.9844465 2.899123 4.7616711 0 0 0 0 30.789219
-4.5173402 2.6423204 4.6396399 0 0 0 0 30.794167
-4.239224 2.5055273 4.7066131 0 0 0 0 30.799112
-5.3364887 2.937855 4.6718102 0 0 0 0 30.80406
-5.0323553 2.7730787 4.7407899 0 0 0 0 30.809006
-4.5692573 2.5382807 4.6327462 0 0 0 0 30.813953
-4.2791481 2.4084897 4.6957092 0 0 0 0 30.818901
-5.3973899 2.8038101 4.6569381 0 0 0 0 30.823847
-5.0812645 2.6490369 4.7239056 0 0 0 0 30.828794
-4.6201744 2.4342434 4.6278501 0 0 0 0 30.833742
-4.3160739 2.3104527 4.6818032 0 0 0 0 30.838688
-5.4542913 2.6687703 4.6450624 0 0 0 0 30.843636
-5.1341739 2.5269983 4.7140203 0 0 0 0 30.848583
-4.7250857 2.3572099 4.6769576 0 0 0 0 30.853529
-4.3569999 2.2164192 4.6758947 0 0 0 0 30.858477
-5.5141935 2.5357316 4.6361847 0 0 0 0 30.863424
-5.1770854 2.4019625 4.6981297 0 0 0 0 30.86837
-4.8449936 2.2841787 4.7430673 0 0 0 0 30.873318
-4.3879271 2.1163862 4.660984 0 0 0 0 30.878265
-5.5500984 2.3926973 4.6113005 0 0 0 0 30.883211
-5.2279959 2.2799287 4.6912389 0 0 0 0 30.888159
-4.9029107 2.1811471 4.7501678 0 0 0 0 30.893106
-4.4188552 2.0173552 4.6480713 0 0 0 0 30.898052
-5.6010032 2.2576661 4.603415 0 0 0 0 30.903
-5.2629094 2.1518981 4.6743431 0 0 0 0 30.907948
-4.9428296 2.0681164 4.7412653 0 0 0 0 30.912893
-4.4497848 1.9193261 4.637156 0 0 0 0 30.917841
-5.6399088 2.1166375 4.5875263 0 0 0 0 30.922787
-5.3008232 2.0268698 4.6624446 0 0 0 0 30.927734
-4.9827499 1.9560875 4.7343602 0 0 0 0 30.932682
-4.4797149 1.8212985 4.6272388 0 0 0 0 30.93763
-5.6730905 1.9745719 4.5695276 0 0 0 0 30.684872
-5.3430004 1.9018393 4.6564307 0 0 0 0 30.689819
-5.0079288 1.8390906 4.7173247 0 0 0 0 30.694767
-4.4998989 1.7203325 4.6081805 0 0 0 0 30.699713
-5.7129879 1.836544 4.560647 0 0 0 0 30.70466
-5.3699074 1.772812 4.6405387 0 0 0 0 30.709608
-5.0408421 1.7250626 4.7094264 0 0 0 0 30.714554
-4.5518165 1.6303072 4.6252751 0 0 0 0 30.719501
-5.7448859 1.6955196 4.5487633 0 0 0 0 30.724449
-5.3988147 1.6447861 4.6276455 0 0 0 0 30.729395
-5.0577602 1.6070361 4.6885219 0 0 0 0 30.734343
-4.5637445 1.5262794 4.6013598 0 0 0 0 30.73929
-5.7667871 1.5534992 4.5328741 0 0 0 0 30.744236
-5.236762 1.4647719 4.4567008 0 0 0 0 30.749184
-4.9087162 1.4400108 4.5165749 0 0 0 0 30.754131
-4.5746732 1.4232546 4.580441 0 0 0 0 30.759077
-5.5857282 1.3614988 4.3609262 0 0 0 0 30.764025
-5.2606735 1.3417525 4.4477983 0 0 0 0 30.768972
-4.9266367 1.3279899 4.5036635 0 0 0 0 30.773918
-4.6065979 1.3272322 4.5815258 0 0 0 0 30.778866
-5.6156325 1.2284824 4.3570299 0 0 0 0 30.783813
-5.2915845 1.2197342 4.4458961 0 0 0 0 30.788759
-4.9575543 1.218971 4.5047536 0 0 0 0 30.793707
-4.6335235 1.2282112 4.5796094 0 0 0 0 30.798653
-5.62954 1.09147 4.3441272 0 0 0 0 30.8036
-5.3015013 1.0947195 4.429985 0 0 0 0 30.808548
-4.9754763 1.1069531 4.4948382 0 0 0 0 30.813496
-4.6534519 1.1291913 4.5726876 0 0 0 0 30.818441
-5.6544452 0.95545846 4.342227 0 0 0 0 30.823389
-4.6753807 1.0301727 4.5687652 0 0 0 0 30.83823
-0.58955729 0.092957146 0.48463199 0 0 0 0 30.848124
-0.58354217 0.10198198 0.51862699 0 0 0 0 30.853071
-0.53555644 0.063938282 0.40463707 0 0 0 0 30.862965
-0.52754313 0.070959747 0.43163258 0 0 0 0 30.867912
-0.53952467 0.081980892 0.47663397 0 0 0 0 30.872858
-0.56550044 0.099007569 0.54363751 0 0 0 0 30.877806
-0.52652794 0.049938899 0.39665478 0 0 0 0 30.882753
-0.5175156 0.056959454 0.42164993 0 0 0 0 30.887699
-0.51450247 0.066980198 0.45264575 0 0 0 0 30.892647
-0.54047865 0.083005346 0.51764995 0 0 0 0 30.897594
-0.51849973 0.036939569 0.38967216 0 0 0 0 30.90254
-0.50848842 0.044959839 0.41366634 0 0 0 0 30.907488
-0.50547522 0.053979732 0.44366285 0 0 0 0 30.912434
-0.53645086 0.071003623 0.5116685 0 0 0 0 30.917381
-0.50644553 0.042979177 0.4436827 0 0 0 0 30.932222
-0.51642817 0.057001743 0.49068162 0 0 0 0 30.93717
-0.51144105 0.011940754 0.38370958 0 0 0 0 30.942116
-0.49243349 0.019960111 0.3987003 0 0 0 0 30.947063
-0.50241739 0.030978393 0.43870097 0 0 0 0 30.952011
-0.50040406 0.0440007 0.47469568 0 0 0 0 30.956957
-0.49537751 0.032999039 0.46771291 0 0 0 0 30.976746
-0.50638318 -0.01105797 0.37974605 0 0 0 0 30.981693
-0.49237511 -0.0010394152 0.39873779 0 0 0 0 30.986639
-0.48536503 0.0089782001 0.42273235 0 0 0 0 30.991587
-0.4973484 0.022998316 0.46873221 0 0 0 0 30.996534
-0.48532397 0.011997535 0.4567464 0 0 0 0 31.016321
-0.51631969 -0.036057156 0.38878885 0 0 0 0 31.021269
-0.49231619 -0.024038941 0.39877579 0 0 0 0 31.026215
-0.48130879 -0.012021938 0.41876781 0 0 0 0 31.031162
-0.48526785 -0.0080040209 0.45478275 0 0 0 0 31.055897
-0.53525412 -0.062057607 0.40383485 0 0 0 0 31.060844
-0.51025128 -0.048038781 0.41482058 0 0 0 0 31.065792
-0.4992449 -0.034022208 0.43481171 0 0 0 0 31.070738
-0.4932079 -0.029004099 0.46282205 0 0 0 0 31.095474
-0.62016213 -0.10206168 0.47291219 0 0 0 0 31.10042
-0.52418691 -0.074037716 0.42886397 0 0 0 0 31.105368
-0.50518507 -0.057021908 0.44085073 0 0 0 0 31.110315
-5.773169 -1.0994751 4.4493742 0 0 0 0 31.120209
-5.3732772 -0.88728601 4.4361095 0 0 0 0 31.125156
-0.50314736 -0.051004123 0.47286192 0 0 0 0 31.13505
-5.7490997 -1.2354565 4.454422 0 0 0 0 31.139996
-5.4651704 -1.0312797 4.5292072 0 0 0 0 31.144943
-0.58609462 -0.093022279 0.51492327 0 0 0 0 31.149891
-5.7140341 -1.3704209 4.4534054 0 0 0 0 31.231455
-5.448101 -1.1572591 4.5362039 0 0 0 0 31.236403
-0.6319657 -0.11502209 0.55800337 0 0 0 0 31.24135
-0.56298411 -0.082003728 0.53196597 0 0 0 0 31.246296
-5.6829724 -1.5044008 4.4574432 0 0 0 0 31.251244
-5.4220438 -1.2822456 4.5362411 0 0 0 0 31.256191
-5.1641216 -1.0611025 4.5950422 0 0 0 0 31.261137
-0.57595044 -0.097003542 0.54498935 0 0 0 0 31.266085
-5.6439147 -1.6353793 4.4584746 0 0 0 0 31.271032
-5.3909888 -1.4052303 4.5362744 0 0 0 0 31.275978
-5.1470671 -1.1780939 4.5980797 0 0 0 0 31.280926
-4.8871527 -0.93795401 4.6548743 0 0 0 0 31.285873
-5.6028576 -1.7683569 4.4605055 0 0 0 0 31.290819
-5.3579359 -1.5282146 4.5363054 0 0 0 0 31.295767
-5.1180196 -1.2910843 4.5931096 0 0 0 0 31.300713
-4.8771024 -1.0449499 4.6599107 0 0 0 0 31.30566
-5.5717978 -1.9033346 4.4725389 0 0 0 0 31.310608
-5.323885 -1.6501982 4.537334 0 0 0 0 31.315556
-5.0889721 -1.4050744 4.5891385 0 0 0 0 31.320501
-4.8630548 -1.1529461 4.6609445 0 0 0 0 31.325449
-5.5297441 -2.0333107 4.4795642 0 0 0 0 31.330395
-5.290833 -1.7731806 4.5433617 0 0 0 0 31.335342
-5.0599246 -1.5190631 4.5891662 0 0 0 0 31.34029
-4.8480077 -1.2609413 4.6639767 0 0 0 0 31.345236
-5.4786944 -2.1602857 4.4815841 0 0 0 0 31.350183
-5.2597818 -1.8971633 4.5513897 0 0 0 0 31.355131
-5.0308781 -1.6340516 4.5901928 0 0 0 0 31.360077
-4.8109708 -1.3639363 4.6469975 0 0 0 0 31.365025
-5.4366407 -2.2932608 4.4936075 0 0 0 0 31.369972
-5.2197347 -2.0171447 4.5554104 0 0 0 0 31.374918
-5.0118284 -1.7510394 4.6032224 0 0 0 0 31.379866
-4.8149166 -1.4789301 4.6720357 0 0 0 0 31.384813
-5.383594 -2.419235 4.4986234 0 0 0 0 31.389759
-5.1726909 -2.1361256 4.5554276 0 0 0 0 31.394707
-4.9787846 -1.8650262 4.6062441 0 0 0 0 31.399654
-4.7868767 -1.5849234 4.6690588 0 0 0 0 31.4046
-5.3335462 -2.548209 4.5096393 0 0 0 0 31.409548
-5.1376429 -2.2591059 4.5694485 0 0 0 0 31.414495
-4.9457412 -1.9800128 4.6112652 0 0 0 0 31.419441
-4.762835 -1.6929159 4.6720819 0 0 0 0 31.424389
-5.2765026 -2.6721818 4.5176497 0 0 0 0 31.429337
-5.081605 -2.3740857 4.5664587 0 0 0 0 31.434282
-4.9116993 -2.0939989 4.6172838 0 0 0 0 31.43923
-4.735796 -1.8009086 4.6731029 0 0 0 0 31.444176
-5.2174602 -2.7961547 4.5266585 0 0 0 0 31.449123
-5.0385623 -2.4940653 4.5774732 0 0 0 0 31.454071
-4.8696613 -2.2049844 4.6182976 0 0 0 0 31.459019
-4.7127547 -1.9099002 4.6811242 0 0 0 0 31.463964
-5.1534219 -2.9171276 4.5326629 0 0 0 0 31.468912
-4.9935198 -2.6150441 4.590486 0 0 0 0 31.473858
-4.833621 -2.3199699 4.6273131 0 0 0 0 31.478806
-4.6777201 -2.0158918 4.6791391 0 0 0 0 31.483753
-6.7205768 -4.0121293 5.9985514 0 0 0 0 31.488699
-4.9394836 -2.7310233 4.5964928 0 0 0 0 31.493647
-4.7835879 -2.4279544 4.6263204 0 0 0 0 31.498594
-4.6406865 -2.1218829 4.6771526 0 0 0 0 31.50354
-4.5295968 -2.8470662 4.1043968 0 0 0 0 31.508488
-4.4176803 -2.574003 4.1632514 0 0 0 0 31.513435
-4.7285576 -2.5349393 4.6223249 0 0 0 0 31.518381
-4.6076508 -2.2308731 4.683167 0 0 0 0 31.523329
-4.4835548 -2.9650414 4.1284051 0 0 0 0 31.528276
-4.3556519 -2.6719835 4.1612501 0 0 0 0 31.533222
-4.2557354 -2.4049318 4.2061143 0 0 0 0 31.53817
-4.5656199 -2.3358634 4.6811752 0 0 0 0 31.543118
-4.4185233 -3.0710163 4.1384029 0 0 0 0 31.548063
-4.32161 -2.7869635 4.1892624 0 0 0 0 31.553011
-4.2107038 -2.5049171 4.2121201 0 0 0 0 31.557957
-4.1247859 -2.2258675 4.2679873 0 0 0 0 31.562904
-4.3584905 -3.1799915 4.1544013 0 0 0 0 31.567852
-4.3685265 -2.9599423 4.2993178 0 0 0 0 31.5728
-4.247632 -2.6569006 4.3021669 0 0 0 0 31.577745
-4.0577712 -2.3068593 4.2399802 0 0 0 0 31.582693
-4.3344383 -3.3169658 4.2084193 0 0 0 0 31.587639
-4.6303287 -3.2919164 4.6284895 0 0 0 0 31.592587
-4.5514207 -2.990875 4.6723533 0 0 0 0 31.597534
-4.4675169 -2.6718316 4.7182102 0 0 0 0 31.60248
-3.453856 -2.7709537 3.4189513 0 0 0 0 31.607428
-4.5722976 -3.4078941 4.6474876 0 0 0 0 31.612375
-4.4883976 -3.0938594 4.6713476 0 0 0 0 31.617321
-4.4094958 -2.7708213 4.7092071 0 0 0 0 31.622269
-3.3688457 -2.8319347 3.4019303 0 0 0 0 31.627216
-4.5032725 -3.5178728 4.6574798 0 0 0 0 31.632162
-4.4323711 -3.202843 4.681345 0 0 0 0 31.63711
-4.366468 -2.8798106 4.7182107 0 0 0 0 31.642057
-3.2968292 -2.9009154 3.3999155 0 0 0 0 31.647003
-4.4402447 -3.6318512 4.6764736 0 0 0 0 31.651951
-4.3773437 -3.3148265 4.6953425 0 0 0 0 31.656898
-4.316443 -2.9867992 4.7232108 0 0 0 0 31.661844
-3.1478572 -2.9008989 3.3188565 0 0 0 0 31.666792
-3.2268622 -2.7628767 3.4638281 0 0 0 0 31.671738
-4.315321 -3.4218104 4.7033358 0 0 0 0 31.676685
-4.265419 -3.0937884 4.7292089 0 0 0 0 31.681633
-2.9369242 -2.8328869 3.1677594 0 0 0 0 31.686581
-3.1598477 -2.8308625 3.4588146 0 0 0 0 31.691526
-4.2522988 -3.5297942 4.7143273 0 0 0 0 31.696474
-4.2163949 -3.2027769 4.7402072 0 0 0 0 31.70142
-2.8740323 -2.9009907 3.1753044 0 0 0 0 32.224625
-3.0939851 -2.9009855 3.4583378 0 0 0 0 32.229568
-4.1856728 -3.6339736 4.7226119 0 0 0 0 32.234516
-4.1607151 -3.3099692 4.7465606 0 0 0 0 32.239464
-2.8130262 -2.9709861 3.1862857 0 0 0 0 32.244411
-2.8250465 -2.769984 3.2262595 0 0 0 0 32.249359
-3.0400038 -2.7599809 3.4942901 0 0 0 0 32.254303
-4.1047134 -3.4169691 4.7555394 0 0 0 0 32.259251
-2.7560196 -3.0449822 3.2032676 0 0 0 0 32.264198
-2.9619799 -3.03598 3.459296 0 0 0 0 32.269146
-2.9750021 -2.8259797 3.4872704 0 0 0 0 32.274094
-3.3809092 -2.9439757 3.9813449 0 0 0 0 32.279041
-2.9119427 -3.3689764 3.4793098 0 0 0 0 32.283985
-2.9299674 -3.1409776 3.5042837 0 0 0 0 32.288933
-2.9249966 -2.9049792 3.4992537 0 0 0 0 32.29388
-3.3788915 -3.0769758 4.0483389 0 0 0 0 32.298828
-2.788959 -3.3769748 3.4272707 0 0 0 0 32.303776
-2.8649654 -3.2139761 3.5132616 0 0 0 0 32.308723
-2.8719926 -2.9829791 3.5102358 0 0 0 0 32.313667
-2.8850176 -2.7479813 3.5192113 0 0 0 0 32.318615
-3.4187286 -4.3349638 4.3274369 0 0 0 0 32.323563
-2.8019638 -3.2879758 3.5262396 0 0 0 0 32.32851
-2.8259871 -3.0689795 3.5322189 0 0 0 0 32.333458
-2.9709752 -2.9599817 3.694227 0 0 0 0 32.338402
-3.6786211 -4.8859582 4.802494 0 0 0 0 32.343349
-3.3607688 -4.1269684 4.3443742 0 0 0 0 32.348297
-2.9149415 -3.3119791 3.7312341 0 0 0 0 32.353245
-3.1519067 -3.2839818 3.9992621 0 0 0 0 32.358192
-3.5766323 -4.9809585 4.823452 0 0 0 0 32.36314
-3.2807746 -4.21697 4.3633418 0 0 0 0 32.368084
-3.6657016 -4.3559732 4.8084016 0 0 0 0 32.373032
-3.7257299 -4.0599799 4.8263812 0 0 0 0 32.377979
-3.4696467 -5.0669603 4.8394089 0 0 0 0 32.382927
-3.1887848 -4.2939725 4.3683062 0 0 0 0 32.387875
-3.3047929 -4.1099796 4.4493032 0 0 0 0 32.392822
-3.6477389 -4.1599846 4.8323479 0 0 0 0 32.397766
-3.3636615 -5.1559634 4.859365 0 0 0 0 32.402714
-3.4446893 -4.8609724 4.8673491 0 0 0 0 32.407661
-3.1738162 -4.1339836 4.3912592 0 0 0 0 32.412609
-3.5717487 -4.2619901 4.8433146 0 0 0 0 32.417557
-3.2596762 -5.2489681 4.8863211 0 0 0 0 32.422501
-3.3467035 -4.9549775 4.8853078 0 0 0 0 32.427448
-3.091826 -4.217989 4.401226 0 0 0 0 32.432396
-3.4867611 -4.3569961 4.8462791 0 0 0 0 32.437344
-3.1506932 -5.3359742 4.9082751 0 0 0 0 32.442291
-3.2477188 -5.0469842 4.9052658 0 0 0 0 32.447239
-3.3327446 -4.7689943 4.8892555 0 0 0 0 32.452187
-3.1168506 -4.0800037 4.445189 0 0 0 0 32.45713
-3.0407116 -5.419982 4.9312291 0 0 0 0 32.462078
-3.1467359 -5.1369925 4.924222 0 0 0 0 32.467026
-3.2437592 -4.8680024 4.9092159 0 0 0 0 32.471973
-3.0148678 -4.1370115 4.4191523 0 0 0 0 32.476921
-2.928731 -5.5039916 4.9571819 0 0 0 0 32.481865
-3.0447538 -5.2270021 4.945179 0 0 0 0 32.486813
-3.1477761 -4.9620118 4.9241743 0 0 0 0 32.49176
-2.9408777 -4.2330198 4.437119 0 0 0 0 32.496708
-2.7687664 -5.4930024 4.8991265 0 0 0 0 32.501656
-2.9367738 -5.3090129 4.9621334 0 0 0 0 32.506603
-3.0517938 -5.0570226 4.9431324 0 0 0 0 32.511547
-3.1698132 -4.7910318 4.9291325 0 0 0 0 32.516495
-2.5998044 -5.4540148 4.8210707 0 0 0 0 32.521442
-2.8327932 -5.4020252 4.990088 0 0 0 0 32.52639
-2.9528131 -5.149035 4.9610891 0 0 0 0 32.531338
-3.0768311 -4.8880439 4.9410915 0 0 0 0 32.536285
-2.4818275 -5.5190287 4.8370233 0 0 0 0 32.541229
-2.7208159 -5.4800391 5.0070415 0 0 0 0 32.546177
-2.8558323 -5.2500482 4.9880457 0 0 0 0 32.551125
-2.9898486 -4.9980569 4.9680505 0 0 0 0 32.556072
-2.3638511 -5.5810442 4.8549762 0 0 0 0 32.56102
-2.5518548 -5.4400539 4.9169874 0 0 0 0 32.565964
-2.7518544 -5.3390636 5.006001 0 0 0 0 32.570911
-2.8918695 -5.0930715 4.9790077 0 0 0 0 32.575859
-2.2508736 -5.658062 4.8859296 0 0 0 0 32.580807
-2.4098861 -5.4470701 4.8759384 0 0 0 0 32.585754
-2.6438775 -5.4270802 5.0249553 0 0 0 0 32.590702
-2.7978904 -5.1990871 5.0039644 0 0 0 0 32.595646
-2.1358976 -5.731081 4.916882 0 0 0 0 32.600594
-2.2929113 -5.5100884 4.8858924 0 0 0 0 32.605541
-2.512907 -5.4650979 4.999907 0 0 0 0 32.610489
-2.6959136 -5.2971048 5.0219193 0 0 0 0 32.615437
-2.0169237 -5.7941022 4.9418344 0 0 0 0 32.620384
-2.1789362 -5.5781083 4.9038458 0 0 0 0 32.625328
-2.3479443 -5.4221148 4.9048576 0 0 0 0 32.630276
-2.5929375 -5.395124 5.0418735 0 0 0 0 32.635223
-1.8909513 -5.8451247 4.9587865 0 0 0 0 32.640171
-2.0679612 -5.6601305 4.9357991 0 0 0 0 32.645119
-2.2269716 -5.4771352 4.8998113 0 0 0 0 32.650066
-2.4759653 -5.467144 5.0398264 0 0 0 0 32.65501
-1.7719783 -5.9131503 4.9917388 0 0 0 0 32.659958
-1.9539875 -5.7351546 4.9647527 0 0 0 0 32.664906
-2.1169975 -5.5591578 4.9227648 0 0 0 0 32.669853
-2.304003 -5.4131618 4.9237785 0 0 0 0 32.674801
-1.6490068 -5.9711771 5.0186911 0 0 0 0 32.679749
-1.8320159 -5.7951798 4.9807053 0 0 0 0 32.684692
-2.0060241 -5.6441822 4.9507184 0 0 0 0 32.68964
-2.1830316 -5.474184 4.9177327 0 0 0 0 32.694588
-1.5218809 -6.0180731 5.0388155 0 0 0 0 32.600788
-1.7148932 -5.8740821 5.0148282 0 0 0 0 32.605736
-1.8899068 -5.7230902 4.9738393 0 0 0 0 32.610683
-2.0699198 -5.5580974 4.9328518 0 0 0 0 32.615631
-1.3969082 -6.0770988 5.0717673 0 0 0 0 32.620575
-1.5919209 -5.9331069 5.0357804 0 0 0 0 32.625523
-1.7719332 -5.7991133 4.9957924 0 0 0 0 32.63047
-1.962944 -5.6621199 4.9678059 0 0 0 0 32.635418
-1.2689373 -6.1261268 5.0977192 0 0 0 0 32.640366
-1.4689487 -5.9991331 5.0637331 0 0 0 0 32.645313
-1.6529602 -5.8791389 5.0247455 0 0 0 0 32.650257
-1.8469704 -5.7541442 4.9937587 0 0 0 0 32.655205
-1.1399674 -6.1691566 5.1206713 0 0 0 0 32.660152
-1.3419783 -6.0531616 5.0836854 0 0 0 0 32.6651
-1.5319884 -5.9561663 5.0526977 0 0 0 0 32.670048
-1.7259989 -5.8331699 5.0107112 0 0 0 0 32.674995
-1.0099976 -6.2151885 5.1506238 0 0 0 0 32.679939
-1.2160081 -6.114192 5.1126375 0 0 0 0 32.684887
-1.4050187 -6.0181952 5.0686493 0 0 0 0 32.689835
-1.6060276 -5.9251981 5.0406628 0 0 0 0 32.694782
-0.87802905 -6.253222 5.1745768 0 0 0 0 32.69973
-1.0860392 -6.1642246 5.1345901 0 0 0 0 32.704674
-1.2780491 -6.0902267 5.0966015 0 0 0 0 32.709621
-1.4820579 -6.0112281 5.0666137 0 0 0 0 32.714569
-0.74706066 -6.2962584 5.2055292 0 0 0 0 32.719517
-0.95607042 -6.2262592 5.1675425 0 0 0 0 32.724464
-1.1480807 -6.1542597 5.120553 0 0 0 0 32.729412
-1.3510898 -6.0812593 5.0825653 0 0 0 0 32.734356
-0.61409289 -6.3392973 5.2384825 0 0 0 0 32.739304
-0.82410282 -6.2792964 5.1964946 0 0 0 0 32.744251
-1.0171131 -6.2222953 5.1475043 0 0 0 0 32.749199
-1.2221222 -6.1652937 5.1115155 0 0 0 0 32.754147
-0.48012578 -6.3763375 5.2694364 0 0 0 0 32.759094
-0.68813646 -6.3113341 5.2094483 0 0 0 0 32.764038
-0.88414639 -6.2893329 5.1774559 0 0 0 0 32.768986
-1.0881559 -6.2483301 5.1404648 0 0 0 0 32.773933
-0.34615895 -6.427381 5.3143897 0 0 0 0 32.778881
-0.55317003 -6.3663759 5.2444005 0 0 0 0 32.783829
-0.74718058 -6.3503728 5.2054071 0 0 0 0 32.788776
-0.95419049 -6.3353691 5.1754146 0 0 0 0 32.79372
-0.20919341 -6.4354243 5.3253465 0 0 0 0 32.798668
-0.41820431 -6.4394212 5.2963519 0 0 0 0 32.803616
-0.60821569 -6.406415 5.2303591 0 0 0 0 32.808563
-0.81422633 -6.41541 5.2073636 0 0 0 0 32.813511
-0.072227895 -6.4544711 5.3473029 0 0 0 0 32.818459
-0.27823961 -6.4644656 5.310307 0 0 0 0 32.823402
-0.46825165 -6.4754601 5.2683101 0 0 0 0 32.82835
-0.67026311 -6.4794531 5.2283139 0 0 0 0 32.833298
0.064737402 -6.4795203 5.3782601 0 0 0 0 32.838245
-0.13727529 -6.507514 5.3432612 0 0 0 0 32.843193
-0.32428819 -6.5185061 5.2872634 0 0 0 0 32.848137
-0.52430093 -6.550499 5.2562633 0 0 0 0 32.853085
0.20270239 -6.4995713 5.4072175 0 0 0 0 32.858032
0.00368849 -6.5425639 5.3712168 0 0 0 0 32.86298
-0.17932558 -6.5765557 5.3222151 0 0 0 0 32.867928
-0.37633961 -6.6215472 5.2882128 0 0 0 0 32.872875
0.34066713 -6.5166245 5.4361763 0 0 0 0 32.877819
0.14665198 -6.5686154 5.3931732 0 0 0 0 32.882767
-0.031364042 -6.6386085 5.3611665 0 0 0 0 32.887714
-0.22437923 -6.6895986 5.3201623 0 0 0 0 32.892662
0.4806315 -6.5336804 5.466136 0 0 0 0 32.89761
0.29061493 -6.6016707 5.4251299 0 0 0 0 32.902557
0.11659741 -6.6816626 5.3881207 0 0 0 0 32.907501
-0.06941957 -6.7526517 5.3501124 0 0 0 0 32.912449
0.62059575 -6.547739 5.4980965 0 0 0 0 32.917397
0.4375771 -6.6387291 5.4620857 0 0 0 0 32.922344
0.26855826 -6.7257195 5.4200745 0 0 0 0 32.927292
0.086538643 -6.8257089 5.3910618 0 0 0 0 32.932236
0.76255977 -6.5607996 5.5300584 0 0 0 0 32.937183
0.58553922 -6.6657891 5.4930439 0 0 0 0 32.942131
0.42351839 -6.7697792 5.4530292 0 0 0 0 32.947079
0.24849726 -6.8747678 5.4150138 0 0 0 0 32.952026
0.90352368 -6.5708628 5.5630207 0 0 0 0 32.956974
0.73450124 -6.6878514 5.5230036 0 0 0 0 32.961922
0.57947773 -6.8148422 5.489984 0 0 0 0 32.966866
0.4124541 -6.9388309 5.4539638 0 0 0 0 32.971813
1.047487 -6.5849295 5.601984 0 0 0 0 32.976761
0.88446271 -6.7119169 5.5569634 0 0 0 0 32.981709
0.73843706 -6.8509068 5.5209398 0 0 0 0 32.986656
0.57841074 -6.993896 5.4889159 0 0 0 0 32.9916
1.7629701 -6.5613556 5.7533011 0 0 0 0 32.724163
1.6579535 -6.786365 5.7342906 0 0 0 0 32.729111
1.5679357 -7.0073743 5.7092781 0 0 0 0 32.734058
1.4579164 -7.2103815 5.6652675 0 0 0 0 32.739006
1.9059358 -6.5464144 5.7832642 0 0 0 0 32.74395
1.8159173 -6.788424 5.7662497 0 0 0 0 32.748898
1.7368979 -7.0234327 5.7432337 0 0 0 0 32.753845
1.6438773 -7.2534404 5.709218 0 0 0 0 32.758793
2.0499015 -6.5334759 5.8172278 0 0 0 0 32.763741
1.9728811 -6.7834849 5.7962103 0 0 0 0 32.768688
1.9108601 -7.0414948 5.7831893 0 0 0 0 32.773632
1.8368376 -7.3065042 5.7651682 0 0 0 0 32.77858
2.1948671 -6.5195394 5.8511939 0 0 0 0 32.783527
2.1338451 -6.7865491 5.8361712 0 0 0 0 32.788475
2.0848217 -7.0495591 5.8171473 0 0 0 0 32.793423
2.0597978 -7.4565787 5.9021091 0 0 0 0 32.79837
2.3388331 -6.4976048 5.8811607 0 0 0 0 32.803314
2.2948086 -6.7816162 5.8721342 0 0 0 0 32.808262
2.2587833 -7.0516267 5.8501062 0 0 0 0 32.81321
2.2997556 -7.6216607 6.055047 0 0 0 0 32.818157
2.4837992 -6.4776735 5.917129 0 0 0 0 32.823105
2.4567723 -6.7736855 5.9090977 0 0 0 0 32.828049
2.4377446 -7.0566974 5.8880663 0 0 0 0 32.832996
2.5067117 -7.6537361 6.1069989 0 0 0 0 32.837944
2.6277654 -6.4497433 5.9470997 0 0 0 0 32.842892
2.619736 -6.7637577 5.9460635 0 0 0 0 32.847839
2.6167061 -7.0567703 5.9270282 0 0 0 0 32.852787
2.7126679 -7.6678138 6.147954 0 0 0 0 32.857735
2.776732 -6.4328175 5.9910703 0 0 0 0 32.862679
2.7817001 -6.745832 5.9810309 0 0 0 0 32.867626
2.7976675 -7.0518465 5.9639916 0 0 0 0 32.872574
2.9246235 -7.6888967 6.1999087 0 0 0 0 32.877522
2.9206989 -6.397892 6.0210438 0 0 0 0 32.882469
2.9436646 -6.7229085 6.0140009 0 0 0 0 32.887413
2.9786291 -7.0429254 6.0019565 0 0 0 0 32.892361
3.1335795 -7.689981 6.2398677 0 0 0 0 32.897308
3.0616665 -6.3589683 6.0490208 0 0 0 0 32.902256
3.1066291 -6.697988 6.0489726 0 0 0 0 32.907204
3.1635909 -7.0320082 6.0429235 0 0 0 0 32.912148
3.3435354 -7.6890693 6.2828274 0 0 0 0 32.917095
3.2076337 -6.3260489 6.0849972 0 0 0 0 32.922043
3.2725937 -6.6760716 6.0899448 0 0 0 0 32.926991
3.3435533 -7.0080919 6.0758934 0 0 0 0 32.931938
3.5684905 -7.7031641 6.3427868 0 0 0 0 32.936886
3.352602 -6.2881312 6.1209764 0 0 0 0 32.941833
3.439559 -6.6481566 6.1279197 0 0 0 0 32.946777
3.5425138 -7.0151849 6.1398602 0 0 0 0 32.951725
3.7874465 -7.6972604 6.3907509 0 0 0 0 32.956673
3.4895716 -6.2332129 6.1419597 0 0 0 0 32.96162
3.6045246 -6.6132445 6.164897 0 0 0 0 32.966568
3.7234774 -6.9772739 6.1678352 0 0 0 0 32.971512
4.0074029 -7.68436 6.4387169 0 0 0 0 32.97646
3.6405404 -6.1993017 6.1859407 0 0 0 0 32.981407
3.7724907 -6.5793357 6.2048755 0 0 0 0 32.986355
3.9144406 -6.9503694 6.2118101 0 0 0 0 32.991302
