# .PCD v0.7 - Point Cloud Data file format
VERSION 0.7
FIELDS x y z normal_x normal_y normal_z intensity curvature
SIZE 4 4 4 4 4 4 4 4
TYPE F F F F F F F F
COUNT 1 1 1 1 1 1 1 1
WIDTH 933
HEIGHT 1
VIEWPOINT 0 0 0 1 0 0 0
POINTS 933
DATA ascii
-14.110288 17.409763 -0.7694149 0 0 0 0 54.803055
-14.408306 16.853588 -0.15278192 0 0 0 0 54.807999
-14.771705 16.379978 0.44906515 0 0 0 0 54.812943
-14.028472 17.492325 -1.4466045 0 0 0 0 54.817894
-14.32433 16.849518 -0.76647103 0 0 0 0 54.822838
-14.738172 16.445705 -0.15226433 0 0 0 0 54.827789
-15.11988 16.021049 0.45821837 0 0 0 0 54.832733
-14.266537 16.938932 -1.4458165 0 0 0 0 54.837685
-14.66616 16.441532 -0.77201122 0 0 0 0 54.842628
-13.639861 14.533636 -0.13422006 0 0 0 0 54.847572
-15.45191 15.639186 0.46458098 0 0 0 0 54.852524
-9.34025 10.571402 -0.92173094 0 0 0 0 54.857468
-13.554921 14.495839 -0.69969904 0 0 0 0 54.862419
-15.396021 15.653948 -0.15035102 0 0 0 0 54.867363
-15.764915 15.251435 0.47307205 0 0 0 0 54.872307
-11.442016 12.330856 -1.1161423 0 0 0 0 54.877258
-15.326852 15.632686 -0.78101432 0 0 0 0 54.882202
-15.705883 15.248164 -0.14974235 0 0 0 0 54.887154
-16.081892 14.861647 0.47955602 0 0 0 0 54.892097
-12.446147 12.779865 -1.1977593 0 0 0 0 54.897049
-15.669739 15.238677 -0.78763509 0 0 0 0 54.901993
-16.03787 14.866256 -0.14937662 0 0 0 0 54.906937
-16.393896 14.476884 0.48603758 0 0 0 0 54.911888
-12.769546 12.488942 -1.2108333 0 0 0 0 54.916832
-16.018723 14.861642 -0.79238087 0 0 0 0 54.921783
-16.355751 14.466415 -0.14983863 0 0 0 0 54.926727
-16.704899 14.092128 0.49352539 0 0 0 0 54.931671
-13.644526 12.714713 -1.27757 0 0 0 0 54.936623
-16.34252 14.451735 -0.79781485 0 0 0 0 54.941566
-16.683729 14.083527 -0.14844531 0 0 0 0 54.946518
-17.02289 13.707323 0.49997985 0 0 0 0 54.951462
-14.059196 12.481232 -1.2994292 0 0 0 0 54.956406
-16.669376 14.053808 -0.80333048 0 0 0 0 54.961357
-17.00362 13.687667 -0.14893728 0 0 0 0 54.966301
-17.34194 13.332517 0.50737363 0 0 0 0 54.971252
-14.388413 12.15826 -1.3123574 0 0 0 0 54.976196
-16.993216 13.653894 -0.8088187 0 0 0 0 54.981148
-17.328571 13.301783 -0.14850974 0 0 0 0 54.986092
-17.658913 12.945711 0.51384687 0 0 0 0 54.991035
-14.735714 11.854168 -1.3284826 0 0 0 0 54.995987
-17.331068 13.257893 -0.81539756 0 0 0 0 55.000931
-17.656519 12.916877 -0.1481016 0 0 0 0 55.005882
-17.954834 12.550018 0.52047664 0 0 0 0 55.010826
-15.056851 11.518233 -1.3412966 0 0 0 0 55.01577
-17.664927 12.862916 -0.8209613 0 0 0 0 55.020721
-17.985415 12.523957 -0.14865157 0 0 0 0 55.025665
-18.280859 12.174156 0.52684504 0 0 0 0 55.030617
-15.352923 11.168449 -1.3509059 0 0 0 0 55.035561
-18.001743 12.461913 -0.82750446 0 0 0 0 55.040504
-18.319349 12.138012 -0.14826527 0 0 0 0 55.045456
-18.59277 11.779362 0.53239262 0 0 0 0 55.0504
-17.972862 12.418756 -1.56824 0 0 0 0 55.055351
-18.346621 12.071866 -0.83314908 0 0 0 0 55.060295
-18.320576 12.007644 -1.5817785 0 0 0 0 55.075134
-0.33985344 0.21436602 0.024422623 0 0 0 0 55.08503
-0.36594662 0.22029588 0.037264973 0 0 0 0 55.089981
-0.30989704 0.19447127 0.01236206 0 0 0 0 54.839752
-0.29577079 0.18448013 0.00050740648 0 0 0 0 54.854591
-0.33591247 0.19039612 0.02428923 0 0 0 0 54.864487
-0.35297257 0.19137055 0.036206122 0 0 0 0 54.869431
-0.30774295 0.17248176 0.012548868 0 0 0 0 54.879326
-0.28761059 0.1605292 0.0017354577 0 0 0 0 54.894173
-0.34378532 0.17335151 0.024398355 0 0 0 0 54.90406
-0.38290441 0.18421064 0.037149884 0 0 0 0 54.909012
-0.32164249 0.16040426 0.012600588 0 0 0 0 54.918907
-0.30852655 0.15240754 0.00073027721 0 0 0 0 54.933746
-0.3847388 0.17112508 0.024259519 0 0 0 0 54.943642
-0.40580896 0.17208865 0.038156182 0 0 0 0 54.948586
-0.35657451 0.15520516 0.011508721 0 0 0 0 54.958481
-0.31640384 0.13636279 0.00083465892 0 0 0 0 54.97332
-0.42366493 0.16390885 0.024158241 0 0 0 0 54.983215
-0.41166496 0.15205432 0.038292035 0 0 0 0 54.988159
-0.39249536 0.14799979 0.010422692 0 0 0 0 54.998055
-0.37235269 0.13703009 -0.003395512 0 0 0 0 55.012894
-0.37441775 0.12517793 0.024675349 0 0 0 0 55.022789
-0.3764458 0.120235 0.036700193 0 0 0 0 55.02774
-0.35929066 0.11618645 0.011821273 0 0 0 0 55.037636
-0.33916309 0.10622833 -2.0908949e-06 0 0 0 0 55.052475
-0.34422964 0.097342834 0.025037088 0 0 0 0 55.06237
-0.35426897 0.095350072 0.036005143 0 0 0 0 55.067314
-0.33812347 0.09130735 0.01312155 0 0 0 0 55.077209
-0.32501188 0.084310576 0.0012466845 0 0 0 0 55.092049
-0.33308443 0.077402987 0.025259646 0 0 0 0 55.101944
-0.33511305 0.073454626 0.036278978 0 0 0 0 55.106888
-0.32498309 0.071384259 0.014354316 0 0 0 0 55.116783
-0.29886001 0.061465457 0.0035618427 0 0 0 0 55.131622
-0.31693891 0.057491139 0.025507864 0 0 0 0 55.141518
-0.31696811 0.054548252 0.035531551 0 0 0 0 55.146469
-0.30683735 0.051483557 0.01461283 0 0 0 0 55.156357
-0.29474071 0.045492794 0.0047279093 0 0 0 0 55.171204
-0.30380946 0.04056289 0.025724638 0 0 0 0 55.181099
-0.31884935 0.039536655 0.035661846 0 0 0 0 55.186043
-0.30771276 0.035477415 0.014754082 0 0 0 0 55.195938
-0.29261598 0.029503381 0.0048844423 0 0 0 0 55.210777
-0.31069013 0.02552345 0.025830319 0 0 0 0 55.220673
-0.31972522 0.024524851 0.034797501 0 0 0 0 55.225616
-0.29959312 0.019527182 0.015940795 0 0 0 0 55.235512
-0.29949617 0.014463765 0.004990452 0 0 0 0 55.250351
-0.30857071 0.010534099 0.025981411 0 0 0 0 55.260246
-0.32060021 0.0085187834 0.034939256 0 0 0 0 55.265198
-0.2994734 0.004526678 0.016082097 0 0 0 0 55.275085
-0.30037618 -0.00054245919 0.0051268642 0 0 0 0 55.289932
-0.30945137 -0.0034777776 0.025112046 0 0 0 0 55.29982
-0.30862275 -0.0095577547 0.016260318 0 0 0 0 56.102875
-0.29852164 -0.015559666 0.0063699116 0 0 0 0 56.117722
-0.31859431 -0.019556396 0.026302181 0 0 0 0 56.127609
-0.31963673 -0.02050226 0.036309518 0 0 0 0 56.132561
-0.30949306 -0.025564147 0.016406635 0 0 0 0 56.142456
-0.31847036 -0.034556977 0.026447836 0 0 0 0 56.167191
-0.32250693 -0.036520246 0.03644545 0 0 0 0 56.172134
-0.30636895 -0.040547185 0.016568307 0 0 0 0 56.18203
-0.30026728 -0.04657251 0.0066573177 0 0 0 0 56.196869
-0.32034016 -0.050569236 0.02658936 0 0 0 0 56.206764
-0.29714209 -0.062549435 0.0078256633 0 0 0 0 56.236443
-0.31920969 -0.066563927 0.026747068 0 0 0 0 56.246338
-0.33522904 -0.07060349 0.035693493 0 0 0 0 56.251289
-0.323084 -0.076647945 0.016807832 0 0 0 0 56.261185
-0.31907299 -0.083564438 0.026905984 0 0 0 0 56.285919
-0.33010423 -0.085574731 0.035866596 0 0 0 0 56.290863
-0.330935 -0.095695637 0.016936705 0 0 0 0 56.300758
-0.35187677 -0.10976516 0.025945228 0 0 0 0 56.325493
-0.35891351 -0.11174589 0.035926927 0 0 0 0 56.330437
-0.34875065 -0.11980838 0.016043343 0 0 0 0 56.340332
-0.31967798 -0.1206985 0.0062246812 0 0 0 0 56.355171
-0.3723869 -0.16103011 0.003243611 0 0 0 0 56.394753
-0.36454195 -0.15384349 0.02625661 0 0 0 0 56.404648
-0.37258461 -0.15483011 0.036226813 0 0 0 0 56.409592
-0.41126207 -0.18720041 0.0132298 0 0 0 0 56.419487
-0.34430099 -0.17085366 0.0055101286 0 0 0 0 56.434326
-0.42321342 -0.20219927 0.025292348 0 0 0 0 56.444221
-0.43326685 -0.2031856 0.037251737 0 0 0 0 56.449165
-0.37816423 -0.20393424 0.025601093 0 0 0 0 56.483795
-0.41013536 -0.21706298 0.035516679 0 0 0 0 56.488747
-0.37200719 -0.22389962 0.025812818 0 0 0 0 56.523369
-0.40098426 -0.23601077 0.03573817 0 0 0 0 56.52832
-11.565474 -7.7243018 -0.75060159 0 0 0 0 56.553055
-11.709556 -7.6760945 -0.41366073 0 0 0 0 56.557999
-11.839575 -7.6080122 -0.1107675 0 0 0 0 56.56295
-12.016506 -7.56216 0.20000845 0 0 0 0 56.567894
-11.382679 -8.0023355 -0.73709494 0 0 0 0 56.320885
-11.452047 -7.8967319 -0.40509093 0 0 0 0 56.325836
-11.605906 -7.8428631 -0.1122259 0 0 0 0 56.33078
-11.769855 -7.7810044 0.18853647 0 0 0 0 56.335732
-11.029784 -8.1621952 -0.71322304 0 0 0 0 56.340675
-11.234554 -8.1434917 -0.39841574 0 0 0 0 56.345627
-11.42126 -8.1078701 -0.11461622 0 0 0 0 56.350571
-11.519446 -7.9986711 0.17820932 0 0 0 0 56.355515
-10.911837 -8.4875288 -0.704597 0 0 0 0 56.360466
-10.999142 -8.3771362 -0.39071921 0 0 0 0 56.36541
-11.128096 -8.292222 -0.11491112 0 0 0 0 56.370361
-11.305933 -8.2335529 0.16779459 0 0 0 0 56.375305
-11.020089 -8.616684 -0.11833996 0 0 0 0 56.390144
-11.080477 -8.4583626 0.15738755 0 0 0 0 56.395096
-11.204641 -9.1828928 -0.12485989 0 0 0 0 56.409935
-11.040152 -8.8312578 0.14789499 0 0 0 0 56.414879
-10.925366 -9.3833275 -0.12611598 0 0 0 0 56.429726
-10.790791 -9.0389223 0.13752162 0 0 0 0 56.434669
-10.685872 -9.6190062 -0.12936546 0 0 0 0 56.449509
-10.545421 -9.2466125 0.12613201 0 0 0 0 56.45446
-10.420568 -9.8235178 -0.13066119 0 0 0 0 56.469299
-10.302032 -9.4573126 0.11475512 0 0 0 0 56.474243
-10.164192 -10.039084 -0.13293219 0 0 0 0 56.48909
-10.063643 -9.6670399 0.10335042 0 0 0 0 56.494034
-9.8989258 -10.23659 -0.13426058 0 0 0 0 56.508873
-9.8212957 -9.8697395 0.091929026 0 0 0 0 56.513824
-9.6396208 -10.439134 -0.13658519 0 0 0 0 56.528664
-9.5997925 -10.097569 0.079554036 0 0 0 0 56.533607
-9.086237 -10.929668 -0.58558929 0 0 0 0 56.538559
-9.4061193 -10.673835 -0.13984682 0 0 0 0 56.548447
-9.3683739 -10.311329 0.068151362 0 0 0 0 56.553398
-9.1845484 -10.919603 -0.14309976 0 0 0 0 56.568237
-9.1498222 -10.54617 0.055813469 0 0 0 0 56.573189
-8.9371471 -11.136217 -0.14638688 0 0 0 0 56.588028
-9.028594 -10.895584 0.044658188 0 0 0 0 56.592972
-7.9086895 -11.04038 -0.5104003 0 0 0 0 56.597923
-8.6847563 -11.35179 -0.14864825 0 0 0 0 56.607811
-7.5613327 -11.103232 -0.48907989 0 0 0 0 56.617706
-8.3748465 -11.486017 -0.15109338 0 0 0 0 56.627602
-7.3200293 -11.318759 -0.47439009 0 0 0 0 56.637497
-7.4968109 -11.180702 -0.29417866 0 0 0 0 56.642441
-7.7150183 -11.111084 -0.14477219 0 0 0 0 56.647392
-6.0441008 -9.859623 -0.38940018 0 0 0 0 56.657288
-7.2525415 -11.382264 -0.28855523 0 0 0 0 56.662231
-7.4389939 -11.263512 -0.14828056 0 0 0 0 56.667175
-7.6513848 -11.158891 -0.0040602805 0 0 0 0 56.672127
-4.9197006 -8.4744358 -0.31378105 0 0 0 0 56.677071
-5.624187 -9.3101082 -0.22243552 0 0 0 0 56.682022
-6.5162125 -10.386932 -0.13462019 0 0 0 0 56.686966
-7.421916 -11.376657 -0.017415121 0 0 0 0 56.69191
-4.0573964 -7.394918 -0.25570431 0 0 0 0 56.696861
-4.6800904 -8.177227 -0.18424353 0 0 0 0 56.701805
-5.3595243 -9.0028772 -0.11282292 0 0 0 0 56.706757
-6.2148776 -10.025476 -0.023141177 0 0 0 0 56.7117
-3.8650124 -7.4577241 -0.24421792 0 0 0 0 56.716652
-3.9840569 -7.3608923 -0.1564485 0 0 0 0 56.721596
-4.4917841 -7.9595823 -0.096495904 0 0 0 0 56.72654
-5.1415062 -8.7360592 -0.025216134 0 0 0 0 56.731491
-3.703264 -7.5787311 -0.23553567 0 0 0 0 56.736435
-3.8371503 -7.5030255 -0.15371737 0 0 0 0 56.741386
-3.9520888 -7.4033117 -0.088945575 0 0 0 0 56.74633
-4.327311 -7.754189 -0.026803665 0 0 0 0 56.751274
-3.5444181 -7.7157526 -0.22676693 0 0 0 0 56.756226
-3.6823204 -7.6321092 -0.15102065 0 0 0 0 56.761169
-3.8012323 -7.5324507 -0.091271125 0 0 0 0 56.766121
-3.9370425 -7.449894 -0.031508457 0 0 0 0 56.771065
-3.3855715 -7.851779 -0.21900113 0 0 0 0 56.776009
-3.5185308 -7.7551308 -0.14730941 0 0 0 0 56.78096
-3.650327 -7.6685934 -0.094549932 0 0 0 0 56.785904
-3.779213 -7.5680327 -0.040862106 0 0 0 0 56.790855
-3.2225714 -7.9825311 -0.20996809 0 0 0 0 56.551224
-3.361464 -7.888957 -0.14527506 0 0 0 0 56.556168
-3.4902837 -7.7924275 -0.097546965 0 0 0 0 56.561111
-3.6201568 -7.6869049 -0.049880348 0 0 0 0 56.566063
-3.060642 -8.1335468 -0.2021073 0 0 0 0 56.571007
-3.1956391 -8.0179806 -0.14252922 0 0 0 0 56.575958
-3.3284564 -7.9165125 -0.1008541 0 0 0 0 56.580902
-3.4711964 -7.828104 -0.059153046 0 0 0 0 56.585854
-2.8888175 -8.2674961 -0.19329432 0 0 0 0 56.590797
-3.0317714 -8.1530209 -0.14075379 0 0 0 0 56.595741
-3.1695323 -8.056613 -0.10407534 0 0 0 0 56.600693
-3.3093596 -7.9482245 -0.068482436 0 0 0 0 56.605637
-2.71698 -8.4034424 -0.18446559 0 0 0 0 56.610588
-2.8648663 -8.2950335 -0.13791567 0 0 0 0 56.615532
-3.0076129 -8.195694 -0.10728335 0 0 0 0 56.620476
-3.1445093 -8.0703249 -0.077780195 0 0 0 0 56.625427
-2.5480103 -8.5604105 -0.17651968 0 0 0 0 56.630371
-2.6979301 -8.4410515 -0.13604932 0 0 0 0 56.635323
-2.8377342 -8.3267317 -0.11149441 0 0 0 0 56.640266
-2.9845569 -8.2084589 -0.088002592 0 0 0 0 56.645218
-2.3730686 -8.7133341 -0.16756259 0 0 0 0 56.650162
-2.525034 -8.5810242 -0.13318442 0 0 0 0 56.655106
-2.6727819 -8.4707899 -0.11464857 0 0 0 0 56.660057
-2.8206029 -8.3465681 -0.098200172 0 0 0 0 56.665001
-2.1882029 -8.8531961 -0.15862854 0 0 0 0 56.669952
-2.3520353 -8.7370014 -0.13121676 0 0 0 0 56.674896
-2.4998233 -8.6138105 -0.11976229 0 0 0 0 56.67984
-2.651659 -8.482645 -0.10837978 0 0 0 0 56.684792
-1.9117558 -8.5964451 -0.14164114 0 0 0 0 56.689735
-2.1661837 -8.8688936 -0.12832427 0 0 0 0 56.694687
-2.3189161 -8.7487764 -0.123879 0 0 0 0 56.699631
-2.4816067 -8.6357203 -0.11944505 0 0 0 0 56.704575
-1.6308368 -8.2526579 -0.12416722 0 0 0 0 56.709526
-1.8731669 -8.5340843 -0.1187292 0 0 0 0 56.71447
-2.1321385 -8.8626986 -0.12709032 0 0 0 0 56.719421
-2.3046067 -8.7797508 -0.13052481 0 0 0 0 56.724365
-1.3767363 -7.9390345 -0.1076539 0 0 0 0 56.729317
-1.6011288 -8.2043905 -0.10821755 0 0 0 0 56.734261
-1.8381989 -8.5109119 -0.12259583 0 0 0 0 56.739204
-2.1090236 -8.8546619 -0.14092749 0 0 0 0 56.744156
-1.1414546 -7.6545329 -0.093063958 0 0 0 0 56.7491
-1.3528975 -7.9058504 -0.099643849 0 0 0 0 56.754051
-1.567191 -8.1702671 -0.11915844 0 0 0 0 56.758995
-1.8122034 -8.4778938 -0.14257284 0 0 0 0 56.763939
-0.92607433 -7.3861556 -0.079483546 0 0 0 0 56.76889
-1.1196092 -7.6173973 -0.091090083 0 0 0 0 56.773834
-1.3229166 -7.8747797 -0.11558816 0 0 0 0 56.778786
-1.5470628 -8.1553125 -0.14405641 0 0 0 0 56.78373
-0.73787123 -7.2519641 -0.069220304 0 0 0 0 56.788681
-0.90718049 -7.3520732 -0.083507702 0 0 0 0 56.793625
-1.0936213 -7.5833793 -0.11207526 0 0 0 0 56.798569
-1.3018171 -7.8508487 -0.14553723 0 0 0 0 56.80352
-0.57144654 -7.3189197 -0.060827073 0 0 0 0 56.808464
-0.72566944 -7.2639575 -0.078994989 0 0 0 0 56.813416
-0.88209486 -7.33009 -0.10942386 0 0 0 0 56.818359
-1.0783582 -7.5825138 -0.1469138 0 0 0 0 56.823303
-0.38689965 -7.0767393 -0.050252959 0 0 0 0 56.828255
-0.5555535 -7.2749209 -0.075928025 0 0 0 0 56.833199
-0.70438278 -7.2710276 -0.10975092 0 0 0 0 56.83815
-0.86786562 -7.3202543 -0.14832436 0 0 0 0 56.843094
-0.21419892 -6.8606286 -0.039582495 0 0 0 0 56.848038
-0.37482464 -7.058794 -0.070213646 0 0 0 0 56.852989
-0.53529322 -7.2730274 -0.11174419 0 0 0 0 56.857933
-0.69007277 -7.269227 -0.15460043 0 0 0 0 56.862885
-0.037011195 -5.2483649 -0.017579557 0 0 0 0 56.867828
-0.20306194 -6.8487186 -0.064511381 0 0 0 0 56.87278
-0.35364625 -7.0399184 -0.11013098 0 0 0 0 56.877724
-0.52103376 -7.2582579 -0.16167374 0 0 0 0 56.882668
0.08233247 -5.137598 -0.010555134 0 0 0 0 56.887619
-0.028956471 -5.2274537 -0.039592043 0 0 0 0 56.892563
-0.18287505 -6.8278732 -0.10844699 0 0 0 0 56.897514
-0.34131756 -7.0341783 -0.16301546 0 0 0 0 56.902458
0.19646996 -4.9928608 -0.0037712567 0 0 0 0 56.907402
0.088450603 -5.1237226 -0.036534607 0 0 0 0 56.912354
-0.014645146 -5.2346048 -0.077395782 0 0 0 0 56.917297
-0.1725854 -6.8131628 -0.16439916 0 0 0 0 56.922249
0.30370802 -4.8641706 0.0020743718 0 0 0 0 56.927193
0.2026096 -4.9800034 -0.032744713 0 0 0 0 56.932137
0.10261544 -5.1048861 -0.076501414 0 0 0 0 56.937088
-0.0063685831 -5.2268558 -0.12532586 0 0 0 0 56.942032
0.406993 -4.7435031 0.0079479991 0 0 0 0 56.946983
0.30983913 -4.847331 -0.029924409 0 0 0 0 56.951927
0.2168867 -4.9771848 -0.075611174 0 0 0 0 56.956879
0.11297421 -5.1081429 -0.12735149 0 0 0 0 56.961823
0.50422227 -4.6138711 0.013731848 0 0 0 0 56.966766
0.41417 -4.7316756 -0.027014036 0 0 0 0 56.971718
0.32312045 -4.8435307 -0.074802801 0 0 0 0 56.976662
0.22517729 -4.9674654 -0.12855406 0 0 0 0 56.981613
0.59752887 -4.4972615 0.019575132 0 0 0 0 56.986557
0.51152998 -4.6210613 -0.024110818 0 0 0 0 56.991501
0.42641333 -4.7198935 -0.073948346 0 0 0 0 56.996452
0.33246368 -4.8408175 -0.12969635 0 0 0 0 57.001396
0.69000262 -4.4066691 0.023576409 0 0 0 0 57.006348
0.60376769 -4.4904766 -0.021361295 0 0 0 0 57.011292
0.52373528 -4.6012912 -0.073095642 0 0 0 0 57.016243
0.43476704 -4.7171979 -0.13084751 0 0 0 0 57.021187
0.80905002 -4.5009828 0.028145736 0 0 0 0 56.780968
0.69677591 -4.4109511 -0.020012356 0 0 0 0 56.785919
0.61451072 -4.4837766 -0.072997145 0 0 0 0 56.790863
0.53047007 -4.5876565 -0.13279918 0 0 0 0 56.795815
0.94081116 -4.6231637 0.032683697 0 0 0 0 56.800758
0.81634921 -4.4982314 -0.019758563 0 0 0 0 56.80571
0.70804805 -4.3992081 -0.07295236 0 0 0 0 56.810654
0.62388712 -4.481102 -0.13489151 0 0 0 0 56.815598
1.0775074 -4.734313 0.037182946 0 0 0 0 56.820549
0.94607335 -4.6104484 -0.019292027 0 0 0 0 56.825493
0.83070952 -4.4965 -0.077618197 0 0 0 0 56.830444
0.71845305 -4.3995395 -0.13682245 0 0 0 0 56.835388
1.2058872 -4.7935047 0.04231637 0 0 0 0 56.840332
1.087888 -4.7365971 -0.019669972 0 0 0 0 56.845284
0.96245551 -4.6067419 -0.08315134 0 0 0 0 56.850227
0.83902329 -4.4778686 -0.14561631 0 0 0 0 56.855179
1.2911868 -4.6739492 0.047103379 0 0 0 0 56.860123
1.2152418 -4.7868261 -0.019596796 0 0 0 0 56.865067
1.1002147 -4.7189455 -0.088636599 0 0 0 0 56.870018
0.9718399 -4.5951347 -0.1560984 0 0 0 0 56.874962
1.4061639 -4.6662197 0.051749248 0 0 0 0 56.879913
1.2995639 -4.6692886 -0.016802946 0 0 0 0 56.884857
1.2306392 -4.7771802 -0.09249562 0 0 0 0 56.889809
1.1126692 -4.713357 -0.16752778 0 0 0 0 56.894753
1.5384899 -4.7163835 0.056852456 0 0 0 0 56.899696
1.4155812 -4.664577 -0.016131964 0 0 0 0 56.904648
1.3169898 -4.6626434 -0.091672309 0 0 0 0 56.909592
1.2410743 -4.7646284 -0.17544018 0 0 0 0 56.914543
1.6259612 -4.6248178 0.0608266 0 0 0 0 56.919487
1.5499471 -4.7167597 -0.01600384 0 0 0 0 56.924431
1.4299695 -4.6489687 -0.09407331 0 0 0 0 56.929382
1.329471 -4.655098 -0.17757472 0 0 0 0 56.934326
1.7103953 -4.5272694 0.064746514 0 0 0 0 56.939278
1.6333388 -4.6102304 -0.014145749 0 0 0 0 56.944221
1.5673879 -4.705163 -0.098902203 0 0 0 0 56.949173
1.4445034 -4.6464353 -0.18393256 0 0 0 0 56.954117
1.7867917 -4.4227753 0.067578427 0 0 0 0 56.959061
1.7198251 -4.5186887 -0.013177275 0 0 0 0 56.964012
1.6528143 -4.602634 -0.09900818 0 0 0 0 56.968956
1.5818841 -4.6926546 -0.19282287 0 0 0 0 56.973907
1.8652418 -4.3282614 0.071483761 0 0 0 0 56.978851
1.7982205 -4.4131885 -0.011340947 0 0 0 0 56.983795
1.7331971 -4.4931355 -0.099185891 0 0 0 0 56.988747
1.6683211 -4.5901322 -0.19492351 0 0 0 0 56.99369
1.9376601 -4.2277899 0.074318178 0 0 0 0 56.998642
1.8756814 -4.3186927 -0.0094411997 0 0 0 0 57.003586
1.8166871 -4.4006228 -0.10024048 0 0 0 0 57.00853
1.7527814 -4.4916205 -0.19701013 0 0 0 0 57.013481
2.0131559 -4.1402979 0.07725054 0 0 0 0 57.018425
1.945056 -4.2092524 -0.0086801788 0 0 0 0 57.023376
1.8961648 -4.3071275 -0.10032356 0 0 0 0 57.02832
1.8332162 -4.3891335 -0.19914426 0 0 0 0 57.033272
2.0907118 -4.063787 0.081263043 0 0 0 0 57.038216
2.0266352 -4.1337361 -0.007639294 0 0 0 0 57.043159
1.9554118 -4.1767488 -0.099750333 0 0 0 0 57.048111
1.9126986 -4.2946506 -0.20123374 0 0 0 0 57.053055
2.1622119 -3.9773183 0.084179364 0 0 0 0 57.058006
2.0839536 -4.0163617 -0.0059956517 0 0 0 0 57.06295
2.0450804 -4.1141958 -0.10058341 0 0 0 0 57.067894
1.974981 -4.1692595 -0.20161295 0 0 0 0 57.072845
2.2297051 -3.889873 0.087067075 0 0 0 0 57.077789
2.1736646 -3.9627938 -0.0047720671 0 0 0 0 57.082741
2.1034095 -3.9968274 -0.10093471 0 0 0 0 57.087685
2.0626237 -4.0997376 -0.20550103 0 0 0 0 57.092628
2.3012578 -3.8124022 0.090039782 0 0 0 0 57.09758
2.2441919 -3.8783488 -0.0048489762 0 0 0 0 57.102524
2.1951492 -3.945266 -0.10268717 0 0 0 0 57.107475
2.1421876 -4.0182581 -0.20850907 0 0 0 0 57.112419
2.3708031 -3.732949 0.091988668 0 0 0 0 57.117371
2.3157253 -3.7958908 -0.0039079743 0 0 0 0 57.122314
2.2707245 -3.8677964 -0.10369228 0 0 0 0 57.127258
2.2147088 -3.9308145 -0.21059391 0 0 0 0 57.13221
2.4332933 -3.6455319 0.09484797 0 0 0 0 57.137154
2.3832638 -3.7144563 -0.0029829142 0 0 0 0 57.142105
2.3392322 -3.7793694 -0.10480587 0 0 0 0 57.147049
2.2862289 -3.8433764 -0.21268456 0 0 0 0 57.151993
2.5038855 -3.5740709 0.096852638 0 0 0 0 57.156944
2.4528134 -3.6350086 -0.0020343943 0 0 0 0 57.161888
2.4047334 -3.690954 -0.10493639 0 0 0 0 57.16684
2.3618083 -3.7649188 -0.21569616 0 0 0 0 57.171783
2.5654044 -3.4916584 0.099737577 0 0 0 0 57.176735
2.5143254 -3.5486159 -0.0021747067 0 0 0 0 57.181679
2.4763186 -3.6155064 -0.10595147 0 0 0 0 57.186623
2.4252899 -3.6715283 -0.21786964 0 0 0 0 57.191574
2.4908738 -3.2351007 0.097763136 0 0 0 0 57.196518
2.5748367 -3.4632223 -0.0013146088 0 0 0 0 57.201469
2.5398295 -3.5281079 -0.10708728 0 0 0 0 57.206413
2.4908135 -3.5851245 -0.21998799 0 0 0 0 57.211357
2.5534689 -3.1646872 0.099727616 0 0 0 0 57.216309
2.5103617 -3.2195785 0.00084642682 0 0 0 0 57.221252
2.5751274 -3.4078696 -0.10658866 0 0 0 0 57.226204
2.5664268 -3.5126643 -0.22296204 0 0 0 0 57.231148
2.6100385 -3.0903101 0.10163317 0 0 0 0 57.236092
2.5709372 -3.1441901 0.00076793769 0 0 0 0 57.241043
2.5338228 -3.1940711 -0.10211158 0 0 0 0 57.245987
2.5593357 -3.3326621 -0.21907946 0 0 0 0 57.250938
2.6740844 -3.0232034 0.10609212 0 0 0 0 58.058304
2.633004 -3.0731437 0.003193672 0 0 0 0 58.063255
2.5948913 -3.1170719 -0.10072714 0 0 0 0 58.068199
2.5568774 -3.1700463 -0.2115881 0 0 0 0 58.073143
2.727622 -2.9468305 0.10796094 0 0 0 0 58.078094
2.694586 -3.0027266 0.0041483892 0 0 0 0 58.083038
2.6604984 -3.0486431 -0.10173598 0 0 0 0 58.08799
2.6224713 -3.0976315 -0.21462324 0 0 0 0 58.092934
2.7902417 -2.883399 0.10996746 0 0 0 0 58.097878
2.7501354 -2.9263542 0.0040285988 0 0 0 0 58.102829
2.725117 -2.9812264 -0.10374407 0 0 0 0 58.107773
2.6860645 -3.025229 -0.21767011 0 0 0 0 58.112724
2.8468215 -2.8130116 0.11089287 0 0 0 0 58.117668
2.8117473 -2.8599422 0.0040094792 0 0 0 0 58.12262
2.7816594 -2.9028544 -0.10487148 0 0 0 0 58.127563
2.743619 -2.9468644 -0.22079168 0 0 0 0 58.132507
2.9094331 -2.7485785 0.11289252 0 0 0 0 58.137459
2.870333 -2.7895489 0.0039463001 0 0 0 0 58.142403
2.8372197 -2.8274879 -0.10598507 0 0 0 0 58.147354
2.8102298 -2.8774412 -0.22380173 0 0 0 0 58.152298
2.9710374 -2.6831512 0.11487961 0 0 0 0 58.157242
2.9279115 -2.7181613 0.0038704972 0 0 0 0 58.162193
2.8998232 -2.7580822 -0.10801858 0 0 0 0 58.167137
2.8708143 -2.8040559 -0.2268732 0 0 0 0 58.172089
3.0225961 -2.6097944 0.11575554 0 0 0 0 58.177032
2.9945457 -2.6547217 0.0028998179 0 0 0 0 58.181984
2.9634321 -2.6896694 -0.11003978 0 0 0 0 58.186928
2.9273667 -2.7266891 -0.22899477 0 0 0 0 58.191872
3.080179 -2.5403981 0.11669254 0 0 0 0 58.196823
3.0491166 -2.5823522 0.0027995675 0 0 0 0 58.201767
3.0240219 -2.6192684 -0.11109186 0 0 0 0 58.206718
2.9899626 -2.6552896 -0.23204184 0 0 0 0 58.211662
3.1367686 -2.4730008 0.11863679 0 0 0 0 58.216606
3.1066926 -2.510963 0.0027231236 0 0 0 0 58.221558
3.0856295 -2.5508673 -0.113125 0 0 0 0 58.226501
3.0515633 -2.5839024 -0.23609485 0 0 0 0 58.231453
3.1893246 -2.3996356 0.11951768 0 0 0 0 58.236397
3.1672933 -2.4435532 0.0026905139 0 0 0 0 58.241341
3.1411917 -2.4755042 -0.11523979 0 0 0 0 58.246292
3.1111448 -2.5105209 -0.23917308 0 0 0 0 58.251236
3.2489245 -2.3332243 0.12048564 0 0 0 0 58.256187
3.2218676 -2.3711884 0.0015895704 0 0 0 0 58.261131
3.1997728 -2.4041142 -0.11631081 0 0 0 0 58.266083
3.1727316 -2.4381258 -0.24223322 0 0 0 0 58.271027
3.3025045 -2.2638514 0.12139849 0 0 0 0 58.27597
3.2744157 -2.2958298 0.0014566255 0 0 0 0 58.280922
3.256346 -2.3307436 -0.11840703 0 0 0 0 58.285866
3.2333179 -2.3657365 -0.24529941 0 0 0 0 58.290817
3.3570645 -2.1914713 0.12229686 0 0 0 0 58.295761
3.3380198 -2.2284052 0.00044088668 0 0 0 0 58.300705
3.3159182 -2.2573526 -0.12048603 0 0 0 0 58.305656
3.2979088 -2.2933273 -0.2493425 0 0 0 0 58.3106
3.4146492 -2.1230712 0.1232392 0 0 0 0 58.315552
3.399617 -2.1599932 -0.00059330021 0 0 0 0 58.320496
3.3775084 -2.1859546 -0.12354021 0 0 0 0 58.325439
3.3604991 -2.2209306 -0.25339738 0 0 0 0 58.330391
3.4802523 -2.0576181 0.12424804 0 0 0 0 58.335335
3.4531753 -2.0866256 -0.000707837 0 0 0 0 58.340286
3.4421048 -2.1165299 -0.1255637 0 0 0 0 58.34523
3.4170511 -2.1435654 -0.25652105 0 0 0 0 58.350182
3.5308034 -1.9842622 0.12511568 0 0 0 0 58.355125
3.5117388 -2.0132318 -0.0017934777 0 0 0 0 58.360069
3.4946556 -2.0401826 -0.12770434 0 0 0 0 58.365021
3.4746141 -2.0671997 -0.26063243 0 0 0 0 58.369965
3.5913794 -1.9148405 0.1260682 0 0 0 0 58.374916
3.574327 -1.9438114 -0.0028291265 0 0 0 0 58.37986
3.5582244 -1.9667631 -0.12976094 0 0 0 0 58.384804
3.5452206 -1.9967556 -0.2656278 0 0 0 0 58.389755
3.651947 -1.8434247 0.12600714 0 0 0 0 58.394699
3.6348951 -1.8714032 -0.0038967913 0 0 0 0 58.399651
3.6298306 -1.8982974 -0.13273729 0 0 0 0 58.404594
3.6067698 -1.9193561 -0.26872304 0 0 0 0 58.409546
3.7064893 -1.7690408 0.12689058 0 0 0 0 58.41449
3.6994624 -1.7989683 -0.0049412888 0 0 0 0 58.419434
3.6803467 -1.8169614 -0.13492408 0 0 0 0 58.424385
3.6673231 -1.8409758 -0.27383107 0 0 0 0 58.429329
3.7710619 -1.6985978 0.12685923 0 0 0 0 58.43428
3.7610154 -1.723559 -0.0070236558 0 0 0 0 58.439224
3.746912 -1.7415339 -0.13897713 0 0 0 0 58.444168
3.7318764 -1.7635621 -0.27790922 0 0 0 0 58.44912
3.8306022 -1.6241801 0.12777142 0 0 0 0 58.454063
3.8115358 -1.6442143 -0.0081977407 0 0 0 0 58.459015
3.8084519 -1.6641247 -0.14107321 0 0 0 0 58.463959
3.7974281 -1.6851479 -0.28298846 0 0 0 0 58.468903
3.6505387 -1.4523576 0.12161429 0 0 0 0 58.473854
3.7838202 -1.5303658 -0.0080659473 0 0 0 0 58.478798
3.8740029 -1.5876956 -0.1441393 0 0 0 0 58.483749
3.8609602 -1.6047394 -0.28709319 0 0 0 0 58.488693
3.4314554 -1.2777921 0.11520402 0 0 0 0 58.493645
3.5305552 -1.3349696 -0.0068172906 0 0 0 0 58.498589
3.6537292 -1.3980308 -0.13465646 0 0 0 0 58.503532
3.7950935 -1.4731013 -0.28130758 0 0 0 0 58.508484
3.2485309 -1.1279927 0.10916973 0 0 0 0 58.513428
3.3355198 -1.1751959 -0.0049895532 0 0 0 0 58.518379
3.4235129 -1.2184265 -0.12416943 0 0 0 0 58.523323
3.5366912 -1.2756006 -0.25910673 0 0 0 0 58.528267
4.0834479 -1.320708 0.1278113 0 0 0 0 58.311058
3.1753626 -1.0384177 -0.00438652 0 0 0 0 58.316002
3.2512479 -1.072678 -0.11670455 0 0 0 0 58.320946
3.3252292 -1.1100377 -0.24201334 0 0 0 0 58.325897
4.1429491 -1.2392975 0.12767684 0 0 0 0 58.330841
4.1408849 -1.2522758 -0.017240008 0 0 0 0 58.335793
4.1367712 -1.2612411 -0.15819548 0 0 0 0 58.340736
4.148767 -1.2771759 -0.31001022 0 0 0 0 58.345688
4.2104564 -1.1588345 0.12759545 0 0 0 0 58.350632
4.216404 -1.1717751 -0.01927462 0 0 0 0 58.355576
2.8814409 -0.80290544 -0.10057226 0 0 0 0 58.360527
4.2152538 -1.1887554 -0.31515077 0 0 0 0 58.365471
4.2669291 -1.072449 0.12640938 0 0 0 0 58.370422
4.2768836 -1.0853709 -0.021437246 0 0 0 0 58.375366
4.2747622 -1.0893515 -0.16641444 0 0 0 0 58.38031
4.2807202 -1.0973406 -0.32031763 0 0 0 0 58.385262
2.594975 -0.58945191 0.08839678 0 0 0 0 58.390205
2.6145613 -0.59792507 -0.0014233022 0 0 0 0 58.395157
2.6531601 -0.60827482 -0.091118805 0 0 0 0 58.400101
2.6737757 -0.61578196 -0.18693934 0 0 0 0 58.405045
2.4954884 -0.50909597 0.085319564 0 0 0 0 58.409996
2.5330639 -0.51942575 -0.0003820319 0 0 0 0 58.41494
2.5676196 -0.52578205 -0.087127887 0 0 0 0 58.419891
2.6072421 -0.53515941 -0.18182389 0 0 0 0 58.424835
2.4120522 -0.43663669 0.082387842 0 0 0 0 58.429787
2.4425848 -0.4429926 -0.00038173547 0 0 0 0 58.434731
2.4690981 -0.4463748 -0.08319483 0 0 0 0 58.439674
2.4986596 -0.45078444 -0.17298324 0 0 0 0 58.444626
2.3196349 -0.36723691 0.079421833 0 0 0 0 58.44957
2.3361123 -0.36865786 0.00053636252 0 0 0 0 58.454521
2.3686018 -0.37098143 -0.07924851 0 0 0 0 58.459465
2.4071453 -0.37531283 -0.16598435 0 0 0 0 58.464409
2.2462616 -0.30471405 0.076612666 0 0 0 0 58.46936
2.2577088 -0.30414808 0.00068415439 0 0 0 0 58.474304
2.2861614 -0.30347815 -0.076144524 0 0 0 0 58.479256
2.1779132 -0.24615927 0.073858321 0 0 0 0 58.489151
2.1883364 -0.24458024 0.00091695244 0 0 0 0 58.494095
2.212759 -0.24191676 -0.072948873 0 0 0 0 58.499039
2.1105967 -0.19259858 0.071142182 0 0 0 0 58.508934
2.1219888 -0.18800017 0.00018624988 0 0 0 0 58.513885
2.1313756 -0.18340832 -0.069781475 0 0 0 0 58.518829
2.0402801 -0.14005151 0.069413804 0 0 0 0 58.528725
2.061667 -0.13637473 0.00052320911 0 0 0 0 58.533669
2.0690224 -0.12878308 -0.067476757 0 0 0 0 58.53862
1.9930071 -0.093361303 0.066860035 0 0 0 0 58.548508
1.9993576 -0.086762965 0.00086070079 0 0 0 0 58.553459
2.0087013 -0.079145215 -0.065127753 0 0 0 0 58.558403
2.0237448 -0.05014731 0.066791743 0 0 0 0 58.568298
2.0341005 -0.042536594 -0.0011907369 0 0 0 0 58.57325
2.0334256 -0.031984773 -0.067258455 0 0 0 0 58.578194
2.0524814 -0.0059528598 0.065704741 0 0 0 0 58.588089
2.0678241 0.0036902346 -0.0022618335 0 0 0 0 58.593033
2.0841606 0.014339691 -0.070229262 0 0 0 0 58.597984
2.0962043 0.039346982 0.065699205 0 0 0 0 58.607872
2.1115465 0.050976258 -0.0042808186 0 0 0 0 58.612823
2.1268759 0.063612066 -0.073267683 0 0 0 0 58.617767
2.13692 0.086620808 0.064662367 0 0 0 0 58.627663
2.1582549 0.10028236 -0.006295769 0 0 0 0 58.632607
2.1675777 0.11487168 -0.076331615 0 0 0 0 58.637558
2.1766222 0.13588841 0.063605897 0 0 0 0 58.647453
2.2019432 0.15256913 -0.0083489148 0 0 0 0 58.652397
2.2122593 0.16915788 -0.079392448 0 0 0 0 58.657349
2.2243035 0.18820895 0.06257619 0 0 0 0 58.667236
2.2456248 0.20585634 -0.010409016 0 0 0 0 58.672188
2.256927 0.22544447 -0.082467079 0 0 0 0 58.677132
2.2659717 0.24249043 0.061497241 0 0 0 0 58.687027
2.284286 0.26211098 -0.012519337 0 0 0 0 58.691971
2.3035872 0.28373787 -0.086543597 0 0 0 0 58.696922
2.310626 0.29879206 0.060422257 0 0 0 0 58.706818
2.3289392 0.32039869 -0.015607907 0 0 0 0 58.711761
2.35622 0.34607109 -0.090611994 0 0 0 0 58.716713
2.3712461 0.36019945 0.059407905 0 0 0 0 58.726601
2.3985453 0.38585144 -0.018596064 0 0 0 0 58.731552
2.4138327 0.41143772 -0.094671361 0 0 0 0 58.736496
2.4278593 0.42258111 0.058362912 0 0 0 0 58.746391
2.4581375 0.45323887 -0.021657314 0 0 0 0 58.751335
2.4784107 0.48284411 -0.099730194 0 0 0 0 58.756287
2.4764526 0.48791039 0.057249747 0 0 0 0 58.766182
2.5067236 0.5205611 -0.023784153 0 0 0 0 58.771126
2.5469682 0.5572775 -0.10478593 0 0 0 0 58.77607
2.5792618 0.59289342 -0.19282815 0 0 0 0 58.781021
2.5367754 0.55805433 0.054540657 0 0 0 0 58.465721
2.5600419 0.59265053 -0.028547201 0 0 0 0 58.470665
2.6032629 0.63338345 -0.11055823 0 0 0 0 58.475616
2.6405318 0.67402351 -0.20060419 0 0 0 0 58.48056
2.5913334 0.63041246 0.052417163 0 0 0 0 58.485512
2.6295598 0.67209929 -0.031629931 0 0 0 0 58.490456
2.6667738 0.71577942 -0.1156964 0 0 0 0 58.495399
2.7200203 0.76349652 -0.2096955 0 0 0 0 58.500351
2.6508517 0.7078104 0.051288959 0 0 0 0 58.505295
2.6950634 0.75451583 -0.035756581 0 0 0 0 58.510246
2.7442431 0.80526036 -0.12179982 0 0 0 0 58.51519
2.7914827 0.85592461 -0.21785441 0 0 0 0 58.520142
2.7213359 0.79127389 0.049184669 0 0 0 0 58.525085
2.7745137 0.84502423 -0.039855234 0 0 0 0 58.530029
2.8246789 0.90075487 -0.12892632 0 0 0 0 58.534981
2.8698981 0.95539886 -0.22601977 0 0 0 0 58.539925
2.8007791 0.88178998 0.046085816 0 0 0 0 58.544876
2.8519363 0.94051349 -0.044999667 0 0 0 0 58.54982
2.9020875 1.0002303 -0.13609783 0 0 0 0 58.554764
2.9662516 1.0669711 -0.23716055 0 0 0 0 58.559715
2.8771894 0.9762938 0.043941934 0 0 0 0 58.564659
2.9323196 1.0410297 -0.049160611 0 0 0 0 58.569611
2.9954221 1.1118041 -0.14425662 0 0 0 0 58.574554
3.0625587 1.1855439 -0.24834903 0 0 0 0 58.579506
2.9555531 1.0778115 0.041762136 0 0 0 0 58.58445
3.0246477 1.1516116 -0.055318814 0 0 0 0 58.589394
3.0957034 1.2314245 -0.15242864 0 0 0 0 58.594345
3.1628177 1.3121369 -0.26056847 0 0 0 0 58.599289
3.0498624 1.1884277 0.038615402 0 0 0 0 58.60424
3.1239095 1.2722399 -0.061503835 0 0 0 0 58.609184
3.2019169 1.362078 -0.1616402 0 0 0 0 58.614128
3.2839758 1.4558543 -0.27477959 0 0 0 0 58.61908
3.1500986 1.3100837 0.035429146 0 0 0 0 58.624023
3.2261174 1.4008884 -0.067725793 0 0 0 0 58.628975
3.3130832 1.5007583 -0.17187688 0 0 0 0 58.633919
3.4160469 1.613638 -0.29002115 0 0 0 0 58.638863
3.2512999 1.4377404 0.031207729 0 0 0 0 58.643814
3.3532174 1.5476882 -0.075922586 0 0 0 0 58.648758
3.4481149 1.6615831 -0.18412147 0 0 0 0 58.653709
3.5580359 1.7854747 -0.30729908 0 0 0 0 58.658653
3.3684011 1.580503 0.02697858 0 0 0 0 58.663605
3.4812503 1.7044955 -0.084181823 0 0 0 0 58.668549
3.6010392 1.8395201 -0.19737557 0 0 0 0 58.673492
3.7258701 1.9834622 -0.3276003 0 0 0 0 58.678444
3.4974153 1.7363452 0.022731585 0 0 0 0 58.683388
3.620183 1.8763759 -0.092478476 0 0 0 0 58.688339
3.744916 2.024399 -0.21073112 0 0 0 0 58.693283
3.1569076 1.7771035 -0.27556124 0 0 0 0 58.698227
3.6423087 1.9112865 0.01744963 0 0 0 0 58.703178
3.7809801 2.0713813 -0.10380179 0 0 0 0 58.708122
3.1312535 1.7866356 -0.17474851 0 0 0 0 58.713074
3.2639229 1.9407376 -0.28899553 0 0 0 0 58.718018
3.8040743 2.1063337 0.011131728 0 0 0 0 58.722969
3.1056721 1.7931074 -0.082915246 0 0 0 0 58.727913
4.1251049 2.4867167 -0.24551919 0 0 0 0 58.732857
3.7395687 2.3485384 -0.3408829 0 0 0 0 58.737808
3.0850906 1.7976266 0.010960991 0 0 0 0 58.742752
4.1700726 2.5388291 -0.12857164 0 0 0 0 58.747704
3.5016072 2.2228906 -0.20842294 0 0 0 0 58.752647
3.6859677 2.4402118 -0.34079084 0 0 0 0 58.757591
4.2010765 2.5788984 -0.0046258024 0 0 0 0 58.762543
4.4043059 2.8232908 -0.14506455 0 0 0 0 58.767487
4.0287786 2.6931062 -0.25042531 0 0 0 0 58.772438
3.6104538 2.5157599 -0.33772203 0 0 0 0 58.777382
4.2570167 2.7462521 -0.011391593 0 0 0 0 58.782326
3.749135 2.5241425 -0.12392237 0 0 0 0 58.787277
3.9591937 2.7826684 -0.25141668 0 0 0 0 58.792221
3.5508847 2.6013992 -0.33662799 0 0 0 0 58.797173
4.5628176 3.0912249 -0.022867931 0 0 0 0 58.802116
3.8011076 2.6874599 -0.13168748 0 0 0 0 58.807068
3.8667154 2.8540924 -0.25042373 0 0 0 0 58.812012
3.5072403 2.7001295 -0.33752915 0 0 0 0 58.816956
4.2612634 3.0262349 -0.027201103 0 0 0 0 58.821907
4.3029485 3.1946063 -0.16109382 0 0 0 0 58.826851
3.7911696 2.9366202 -0.25040653 0 0 0 0 58.831802
3.4406958 2.7817214 -0.33645269 0 0 0 0 58.836746
4.2981591 3.2004564 -0.035132505 0 0 0 0 58.84169
4.1925044 3.2638855 -0.16419658 0 0 0 0 58.846642
3.7146285 3.0191338 -0.25139707 0 0 0 0 58.851585
3.3890634 2.8774045 -0.33638433 0 0 0 0 58.856537
4.2026854 3.2778075 -0.042201221 0 0 0 0 58.861481
4.1059465 3.3503213 -0.16727464 0 0 0 0 58.866425
3.6221735 3.087548 -0.25138888 0 0 0 0 58.871376
3.3155506 2.9529555 -0.3343119 0 0 0 0 58.87632
4.1102099 3.3551772 -0.049253922 0 0 0 0 58.881271
4.0014944 3.4206376 -0.17035231 0 0 0 0 58.886215
3.5784633 3.1972642 -0.25437099 0 0 0 0 58.891167
3.2549758 3.0395782 -0.33423883 0 0 0 0 58.896111
4.4443612 3.8003182 -0.065250002 0 0 0 0 58.901054
3.9129744 3.5020516 -0.17441177 0 0 0 0 58.906006
3.5178323 3.2938743 -0.25636724 0 0 0 0 58.91095
3.1794612 3.1151142 -0.33218166 0 0 0 0 58.915901
4.3100362 3.8544099 -0.072399624 0 0 0 0 58.920845
3.7459021 3.5109766 -0.17345116 0 0 0 0 58.925789
3.4403002 3.375371 -0.2583639 0 0 0 0 58.93074
3.1198583 3.2057416 -0.33213344 0 0 0 0 58.935684
4.2274456 3.9565208 -0.080925241 0 0 0 0 58.689011
3.422853 3.3566723 -0.1636651 0 0 0 0 58.693962
3.0427601 3.1257181 -0.23136711 0 0 0 0 58.698906
3.0453179 3.2820718 -0.33040759 0 0 0 0 58.703857
3.3915493 3.3161345 -0.067553133 0 0 0 0 58.708801
2.9896357 3.06796 -0.1462698 0 0 0 0 58.713745
3.2852273 3.538142 -0.26068646 0 0 0 0 58.718697
2.9777656 3.3656495 -0.3303518 0 0 0 0 58.72364
3.7919624 3.8826513 -0.089972079 0 0 0 0 58.728592
3.5330822 3.800281 -0.18895915 0 0 0 0 58.733536
3.2096784 3.6226552 -0.26268575 0 0 0 0 58.73848
2.844666 3.3718557 -0.3211647 0 0 0 0 58.743431
2.9386945 3.1421793 -0.070027985 0 0 0 0 58.748375
3.2400157 3.6484354 -0.17965716 0 0 0 0 58.753326
2.8203895 3.3353009 -0.23404026 0 0 0 0 58.75827
2.8247523 3.5157053 -0.32723626 0 0 0 0 58.763222
2.9229035 3.2700377 -0.078964785 0 0 0 0 58.768166
2.8091114 3.3107438 -0.15991978 0 0 0 0 58.773109
3.0327384 3.764528 -0.26365998 0 0 0 0 58.778061
2.3682303 3.092052 -0.27606875 0 0 0 0 58.783005
2.8107874 3.2912865 -0.083756089 0 0 0 0 58.787956
3.2576416 4.0264587 -0.20107192 0 0 0 0 58.7929
2.3807981 3.0956166 -0.20699726 0 0 0 0 58.797844
2.6846085 3.6878223 -0.32720044 0 0 0 0 58.802795
2.7641866 3.3889465 -0.091675542 0 0 0 0 58.807739
2.3944387 3.0961275 -0.14689884 0 0 0 0 58.812691
2.8746607 3.9295018 -0.26768535 0 0 0 0 58.817635
2.6060917 3.7643304 -0.3261708 0 0 0 0 58.822586
2.4388611 3.1288497 -0.085834697 0 0 0 0 58.82753
3.067723 4.1701965 -0.20914616 0 0 0 0 58.832474
2.7871873 4.0009379 -0.26867613 0 0 0 0 58.837425
2.5394547 3.8599098 -0.32620141 0 0 0 0 58.842369
2.3466988 3.1572261 -0.090558499 0 0 0 0 58.847321
2.9663255 4.2325206 -0.21315971 0 0 0 0 58.852264
2.7095997 4.0914249 -0.27173916 0 0 0 0 58.857208
2.0984674 3.3543625 -0.27238536 0 0 0 0 58.86216
2.2823296 3.2187717 -0.097342685 0 0 0 0 58.867104
2.8777947 4.3159227 -0.21824142 0 0 0 0 58.872055
2.3091919 3.666023 -0.23622626 0 0 0 0 58.876999
2.3862901 4.0339336 -0.32627097 0 0 0 0 58.881943
2.2119865 3.2752838 -0.10312983 0 0 0 0 58.886894
2.3090458 3.6364231 -0.17900799 0 0 0 0 58.891838
2.5306153 4.2402592 -0.27479464 0 0 0 0 58.89679
2.3047559 4.1134114 -0.32628688 0 0 0 0 58.901733
2.2030303 3.4291685 -0.11421371 0 0 0 0 58.906685
2.7007158 4.4857159 -0.22943118 0 0 0 0 58.911629
2.4687982 4.3668342 -0.28001481 0 0 0 0 58.916573
2.2221951 4.1958885 -0.32533124 0 0 0 0 58.921524
2.0633783 3.3772457 -0.11568054 0 0 0 0 58.926468
2.4380827 4.2670665 -0.21750307 0 0 0 0 58.931419
2.3585336 4.4051208 -0.27992547 0 0 0 0 58.936363
2.1455526 4.2923899 -0.32643771 0 0 0 0 58.941307
2.3510869 4.0549521 -0.15056163 0 0 0 0 58.946259
2.4870138 4.5952821 -0.23743752 0 0 0 0 58.951202
2.2433155 4.43538 -0.27881265 0 0 0 0 58.956154
2.0441904 4.3427539 -0.3233794 0 0 0 0 58.961098
2.6422815 4.8136506 -0.19098136 0 0 0 0 58.966042
2.1100116 4.1179628 -0.21043031 0 0 0 0 58.970993
2.176475 4.5659122 -0.2850962 0 0 0 0 58.975937
1.9783317 4.4743047 -0.3276647 0 0 0 0 58.980888
2.1328499 4.0984554 -0.16214451 0 0 0 0 58.985832
2.2900751 4.7429342 -0.24861072 0 0 0 0 58.990784
2.0760484 4.6292543 -0.28612429 0 0 0 0 58.995728
1.8838072 4.5506983 -0.32674724 0 0 0 0 59.000671
2.4176354 4.9220777 -0.20805579 0 0 0 0 59.005623
2.1235411 4.6678624 -0.24509032 0 0 0 0 59.010567
1.9952728 4.7486982 -0.29142031 0 0 0 0 59.015518
1.8050066 4.6721673 -0.33004597 0 0 0 0 59.020462
2.1228023 4.5851912 -0.19751564 0 0 0 0 59.025406
2.0832133 4.8785143 -0.25976878 0 0 0 0 59.030357
1.894797 4.8210235 -0.2945143 0 0 0 0 59.035301
1.7172927 4.7785907 -0.33129755 0 0 0 0 59.040253
2.201813 5.0585442 -0.22727674 0 0 0 0 59.045197
1.9807146 4.9568057 -0.26591715 0 0 0 0 59.050148
1.8080597 4.9334326 -0.29880241 0 0 0 0 59.055092
1.6236377 4.8759732 -0.33252519 0 0 0 0 59.060036
1.8802148 5.0351095 -0.27205551 0 0 0 0 59.069931
1.7045422 5.011735 -0.30195996 0 0 0 0 59.074883
1.5367805 5.0053854 -0.33593416 0 0 0 0 59.079826
1.7845465 5.1404305 -0.28035253 0 0 0 0 59.089722
1.6117957 5.1260953 -0.30730245 0 0 0 0 59.094666
1.4439492 5.1297641 -0.33834714 0 0 0 0 59.099617
1.670186 5.1966453 -0.28542703 0 0 0 0 59.109505
1.506209 5.2153745 -0.31155244 0 0 0 0 59.114456
1.3441768 5.2450953 -0.34074244 0 0 0 0 59.1194
1.4025078 5.3216653 -0.31591046 0 0 0 0 59.134247
1.2374307 5.3553853 -0.34214777 0 0 0 0 59.139191
1.2948052 5.4289212 -0.32130188 0 0 0 0 59.15403
1.3351992 5.4345956 -0.30690956 0 0 0 0 60.019333
1.1826105 5.5354033 -0.32659611 0 0 0 0 60.024284
1.2215928 5.5267591 -0.31528488 0 0 0 0 60.039124
1.0621316 5.6045542 -0.32985145 0 0 0 0 60.044067
0.90041757 5.7232966 -0.34972671 0 0 0 0 60.049019
1.1030898 5.6038876 -0.32358566 0 0 0 0 60.058914
0.94435912 5.7177076 -0.33540744 0 0 0 0 60.063858
0.98353034 5.6890068 -0.33195263 0 0 0 0 60.078697
0.86088616 5.787096 -0.34143466 0 0 0 0 60.098488
0.47313714 6.0532227 -0.3688187 0 0 0 0 60.157852
0.33479768 6.1052098 -0.37607798 0 0 0 0 60.177643
-0.47068402 6.74646 -0.39688116 0 0 0 0 60.261742
-0.91563106 7.2884636 -0.38366452 0 0 0 0 60.286476
-1.363521 7.851171 -0.4066503 0 0 0 0 60.32605
-1.3239713 6.7178817 -0.33819506 0 0 0 0 60.34584
-1.2799705 6.7747111 -0.40334147 0 0 0 0 60.36068
-2.4441888 7.6007724 -0.36792392 0 0 0 0 60.444778
-2.2577519 6.9830661 -0.66000342 0 0 0 0 60.249756
-4.9633346 10.890317 -0.51961327 0 0 0 0 60.284386
-4.8423634 10.167996 -0.66771722 0 0 0 0 60.319016
-6.4334183 11.377001 -0.77488548 0 0 0 0 60.37838
-6.551466 10.853131 -0.50184155 0 0 0 0 60.383331
-6.4860597 10.870772 -0.74661303 0 0 0 0 60.39817
-11.168101 17.555559 -0.82932949 0 0 0 0 60.403114
-6.9290605 11.021476 -0.76662725 0 0 0 0 60.417953
-12.577653 18.793211 -0.88653618 0 0 0 0 60.422905
-12.591099 18.995564 -1.3652296 0 0 0 0 60.437744
-12.982578 18.469404 -0.86792976 0 0 0 0 60.442696
-12.936238 18.566132 -1.35147 0 0 0 0 60.457535
-13.329925 18.061022 -0.8453362 0 0 0 0 60.462479
-4.0592251 6.2643385 -0.77063411 0 0 0 0 60.46743
-13.300642 18.177534 -1.3411312 0 0 0 0 60.477318
-13.774239 17.7959 -0.83041221 0 0 0 0 60.482269
-4.6202416 6.7617359 -0.85791391 0 0 0 0 60.487213
-13.74168 17.88534 -1.3389901 0 0 0 0 60.497108
-14.099542 17.383661 -0.80864739 0 0 0 0 60.50206
-5.2081351 7.2419276 -0.94625324 0 0 0 0 60.507004
-14.071829 17.460987 -1.3271686 0 0 0 0 60.516899
-14.324001 16.850157 -0.7823438 0 0 0 0 60.521843
-6.051744 8.000989 -1.0792961 0 0 0 0 60.526794
-6.8115525 8.5020103 -0.8918699 0 0 0 0 60.531738
-14.268921 16.879644 -1.3043374 0 0 0 0 60.536682
-14.645382 16.451923 -0.76265222 0 0 0 0 60.541634
-6.79497 8.5429239 -1.1871188 0 0 0 0 60.546577
-8.0937004 9.6258631 -1.0394443 0 0 0 0 60.551529
-14.598217 16.479277 -1.2946813 0 0 0 0 60.556473
-13.525146 14.508356 -0.66932225 0 0 0 0 60.561417
-9.6298456 10.909719 -1.2128613 0 0 0 0 60.571312
-13.525519 14.576667 -1.161944 0 0 0 0 60.576263
-15.294215 15.671371 -0.72742122 0 0 0 0 60.581207
-11.632324 12.56288 -1.4390379 0 0 0 0 60.591103
-15.265898 15.695441 -1.2785482 0 0 0 0 60.596046
-15.625768 15.30104 -0.70999646 0 0 0 0 60.600998
-12.412597 12.787804 -1.5038527 0 0 0 0 60.610893
-15.585189 15.29812 -1.2708462 0 0 0 0 60.615837
-15.958246 14.922682 -0.69451803 0 0 0 0 60.620781
-12.719511 12.49348 -1.5107945 0 0 0 0 60.630676
-15.926641 14.925619 -1.2654691 0 0 0 0 60.635628
-16.2787 14.541408 -0.67893922 0 0 0 0 60.640572
-7.1699152 7.072331 -1.1370333 0 0 0 0 60.645515
-12.9993 12.178375 -1.5134072 0 0 0 0 60.650467
-14.13741 12.643411 -1.0912198 0 0 0 0 60.655411
-16.5861 14.153223 -0.66322386 0 0 0 0 60.660362
-7.3497057 6.9089236 -1.1470506 0 0 0 0 60.665306
-13.276028 11.856282 -1.516948 0 0 0 0 60.670258
-14.453279 12.335077 -1.0891243 0 0 0 0 60.675201
-16.896452 13.760007 -0.64848936 0 0 0 0 60.680145
-7.1645069 6.4185219 -1.0992875 0 0 0 0 60.685097
-11.435363 9.7409563 -1.2785174 0 0 0 0 60.690041
-16.903559 13.752423 -1.2506144 0 0 0 0 60.694992
-17.226957 13.389635 -0.63505286 0 0 0 0 60.699936
-7.7492714 6.6093812 -1.1729307 0 0 0 0 60.464218
-13.860248 11.25089 -1.528174 0 0 0 0 60.46917
-17.217211 13.360373 -1.2442042 0 0 0 0 60.474113
-17.545746 13.010594 -0.6197753 0 0 0 0 60.479065
-12.130254 9.8397646 -1.827823 0 0 0 0 60.484009
-14.780055 11.421758 -1.6044651 0 0 0 0 60.488953
-17.539526 12.969999 -1.2405732 0 0 0 0 60.493904
-17.86817 12.627287 -0.60719562 0 0 0 0 60.498848
-12.359101 9.5399847 -1.8372035 0 0 0 0 60.503799
-15.130972 11.13208 -1.6167303 0 0 0 0 60.508743
-17.877859 12.584495 -1.2390801 0 0 0 0 60.513695
-18.192604 12.246956 -0.5956496 0 0 0 0 60.518639
-12.563818 9.2193956 -1.8432747 0 0 0 0 60.523582
-15.496908 10.84827 -1.6321357 0 0 0 0 60.528534
-18.214195 12.199999 -1.2375803 0 0 0 0 60.533478
-18.489851 11.83982 -0.58273089 0 0 0 0 60.538429
-12.756511 8.8958902 -1.8492453 0 0 0 0 60.543373
-15.84567 10.537601 -1.6442341 0 0 0 0 60.548317
-12.998356 8.5999889 -1.8617345 0 0 0 0 60.563164
-11.277043 -7.8214865 -1.4269546 0 0 0 0 61.110405
-11.695415 -7.730679 -0.2473325 0 0 0 0 61.125252
-11.016517 -8.0405073 -1.403574 0 0 0 0 61.130196
-11.192198 -8.0377312 -0.99673295 0 0 0 0 61.135139
-11.373622 -8.0342989 -0.62993723 0 0 0 0 61.140091
-11.455713 -7.9500499 -0.2510891 0 0 0 0 61.145035
-10.844418 -8.327261 -1.3922668 0 0 0 0 61.149986
-10.936647 -8.2508593 -0.98342472 0 0 0 0 61.15493
-11.06037 -8.2020407 -0.62158757 0 0 0 0 61.159882
-11.235943 -8.1785631 -0.25490415 0 0 0 0 61.164825
-11.316094 -8.9620695 -1.0295885 0 0 0 0 61.174721
-10.904242 -8.4829884 -0.62142563 0 0 0 0 61.179665
-11.035032 -8.4252195 -0.25970322 0 0 0 0 61.184616
-11.036551 -9.175004 -1.0141126 0 0 0 0 61.194504
-11.35305 -9.0807829 -0.27987197 0 0 0 0 61.204399
-10.758055 -9.3799505 -0.99969816 0 0 0 0 61.214294
-11.141104 -9.3303652 -0.28556609 0 0 0 0 61.22419
-10.474588 -9.5808573 -0.98527586 0 0 0 0 61.234085
-10.861535 -9.5284424 -0.29019281 0 0 0 0 61.24398
-10.25174 -9.8282509 -0.97690183 0 0 0 0 61.253868
-10.556227 -9.6913185 -0.29390788 0 0 0 0 61.263763
-9.9991159 -10.046408 -0.96654433 0 0 0 0 61.273659
-10.390929 -9.9842653 -0.30357066 0 0 0 0 61.283554
-9.7147579 -10.231299 -0.95222086 0 0 0 0 61.293449
-10.037044 -10.334321 -0.64256668 0 0 0 0 61.298393
-9.4888821 -10.479677 -0.94580364 0 0 0 0 61.313232
-9.7080193 -10.466933 -0.63533527 0 0 0 0 61.318184
-9.0119562 -10.70575 -1.2749023 0 0 0 0 61.328079
-9.2194262 -10.674693 -0.93449283 0 0 0 0 61.333023
-9.4652491 -10.695229 -0.63495249 0 0 0 0 61.337967
-8.9816322 -10.91197 -0.92706931 0 0 0 0 61.352814
-9.1085434 -10.784622 -0.62685245 0 0 0 0 61.357758
-8.7161579 -11.108018 -0.916767 0 0 0 0 61.372597
-8.9559641 -11.11663 -0.63327843 0 0 0 0 61.377548
-9.1186819 -11.011581 -0.33813399 0 0 0 0 61.382492
-7.9534273 -10.957462 -1.1787827 0 0 0 0 61.387444
-8.4526453 -11.308084 -0.90744245 0 0 0 0 61.392387
-8.6993408 -11.323814 -0.63294709 0 0 0 0 61.397331
-5.7545977 -8.3468399 -0.860762 0 0 0 0 61.407227
-5.8776283 -8.2730274 -0.63512093 0 0 0 0 61.412178
-5.601058 -8.5507135 -0.85414129 0 0 0 0 61.427017
-5.7270784 -8.4739609 -0.63354337 0 0 0 0 61.431961
-7.6954393 -11.044249 -0.59423852 0 0 0 0 61.436913
-7.9826255 -11.105482 -0.34667304 0 0 0 0 61.441856
-5.4483857 -8.770607 -0.849401 0 0 0 0 61.446808
-5.5685706 -8.6688318 -0.63195449 0 0 0 0 61.451752
-7.4064436 -11.168159 -0.59130758 0 0 0 0 61.456696
-7.6025119 -11.104757 -0.34907731 0 0 0 0 61.461647
-5.2951427 -9.0025959 -0.84131712 0 0 0 0 62.659142
-5.4104977 -8.8877869 -0.62901425 0 0 0 0 62.664085
-6.6481886 -10.559737 -0.54441547 0 0 0 0 62.669029
-7.3755751 -11.327877 -0.35540205 0 0 0 0 62.673981
-4.2594585 -7.6623611 -0.68862188 0 0 0 0 62.678925
-4.7824426 -8.2904673 -0.56828839 0 0 0 0 62.683876
-5.4290314 -9.0916042 -0.45644903 0 0 0 0 62.68882
-6.1722221 -9.974227 -0.31163898 0 0 0 0 62.693764
-3.8630903 -7.3569164 -0.6382072 0 0 0 0 62.698715
-4.0171208 -7.3589001 -0.48725408 0 0 0 0 62.703659
-4.5041642 -7.9589057 -0.38889137 0 0 0 0 62.708611
-5.1171236 -8.7177286 -0.27015001 0 0 0 0 62.713554
-3.7080534 -7.4876986 -0.63102251 0 0 0 0 62.718506
-3.8325093 -7.4344525 -0.48030105 0 0 0 0 62.72345
-3.9429581 -7.3622742 -0.35163337 0 0 0 0 62.728394
-4.2782364 -7.6889524 -0.23537529 0 0 0 0 62.733345
-3.5539606 -7.6254864 -0.6237855 0 0 0 0 62.738289
-3.676482 -7.5602565 -0.47714663 0 0 0 0 62.74324
-3.7839575 -7.4810867 -0.35251451 0 0 0 0 62.748184
-3.9122405 -7.4260869 -0.22883709 0 0 0 0 62.753128
-3.3909736 -7.7511873 -0.61457866 0 0 0 0 62.75808
-3.5194309 -7.6880593 -0.47496599 0 0 0 0 62.763023
-3.6367791 -7.621006 -0.35530779 0 0 0 0 62.767975
-3.7591736 -7.5479922 -0.2357333 0 0 0 0 62.772919
-3.2298937 -7.8869162 -0.60730231 0 0 0 0 62.777863
-3.3583777 -7.8168211 -0.47174621 0 0 0 0 62.782814
-3.4777074 -7.7468309 -0.3581264 0 0 0 0 62.787758
-3.6040597 -7.6748877 -0.24357225 0 0 0 0 62.792709
-3.0657973 -8.024621 -0.59998554 0 0 0 0 62.797653
-3.1992619 -7.9526038 -0.46948093 0 0 0 0 62.802605
-3.3176575 -7.8696465 -0.36095896 0 0 0 0 62.807549
-3.4449985 -7.7947512 -0.25143638 0 0 0 0 62.812492
-2.9026456 -8.1683388 -0.59362411 0 0 0 0 62.817444
