# .PCD v0.7 - Point Cloud Data file format
VERSION 0.7
FIELDS x y z normal_x normal_y normal_z intensity curvature
SIZE 4 4 4 4 4 4 4 4
TYPE F F F F F F F F
COUNT 1 1 1 1 1 1 1 1
WIDTH 977
HEIGHT 1
VIEWPOINT 0 0 0 1 0 0 0
POINTS 977
DATA ascii
6.0262437 0.38326889 5.087388 0 0 0 0 22.472952
6.0433207 0.17409073 4.7380133 0 0 0 0 22.4779
6.0438976 0.0092420904 4.426475 0 0 0 0 22.482847
6.0516281 -0.13963246 4.1399102 0 0 0 0 22.487795
6.0598822 0.51303625 5.1321511 0 0 0 0 22.492743
6.0680428 0.30693641 4.7667446 0 0 0 0 22.497686
6.0766802 0.14597617 4.4532146 0 0 0 0 22.502634
6.0934629 0.00098495395 4.1676617 0 0 0 0 22.507582
6.08255 0.64392966 5.1688843 0 0 0 0 22.512529
6.0937691 0.44077477 4.7974768 0 0 0 0 22.517477
6.1064935 0.28575656 4.4819407 0 0 0 0 22.522425
6.1203275 0.14278224 4.1873736 0 0 0 0 22.527369
6.1092224 0.77678901 5.2126236 0 0 0 0 22.532316
6.1245127 0.57756567 4.8352141 0 0 0 0 22.537264
6.1343021 0.42556438 4.5106621 0 0 0 0 22.542212
6.1522098 0.28753236 4.2140918 0 0 0 0 22.547159
6.1378989 0.91062754 5.2583666 0 0 0 0 22.552103
6.1642661 0.71726424 4.8829684 0 0 0 0 22.557051
6.1741152 0.56824523 4.5514069 0 0 0 0 22.561998
6.1920953 0.43419552 4.2478251 0 0 0 0 22.566946
6.1655869 1.0464908 5.3081026 0 0 0 0 22.571894
6.1810346 0.85522157 4.9126701 0 0 0 0 22.576841
6.1979623 0.71211314 4.5821104 0 0 0 0 22.581785
6.222013 0.58298194 4.2775302 0 0 0 0 22.586733
6.1943631 1.1830931 5.3592706 0 0 0 0 22.305227
6.2118444 0.99675512 4.9588413 0 0 0 0 22.310175
6.2297955 0.85658944 4.6212845 0 0 0 0 22.315123
6.2548833 0.73140365 4.3107033 0 0 0 0 22.320066
6.2211256 1.3229724 5.4109864 0 0 0 0 22.325014
6.2426758 1.1405679 5.0055561 0 0 0 0 22.329962
6.2597003 1.0043979 4.660985 0 0 0 0 22.334909
6.2888622 0.88415384 4.3484001 0 0 0 0 22.339857
6.251895 1.4648144 5.4687085 0 0 0 0 22.344801
6.2775412 1.2883437 5.0582709 0 0 0 0 22.349749
6.2996507 1.1581045 4.7126956 0 0 0 0 22.354696
6.3248639 1.0398915 4.3910947 0 0 0 0 22.359644
6.2736974 1.6087675 5.5224037 0 0 0 0 22.364592
6.298409 1.4352872 5.1029544 0 0 0 0 22.369539
6.323595 1.3100007 4.7543726 0 0 0 0 22.374483
6.3538952 1.1977159 4.4307675 0 0 0 0 22.379431
6.3055205 1.7566159 5.5871143 0 0 0 0 22.384378
6.3162942 1.5842769 5.1496267 0 0 0 0 22.389326
6.3545675 1.4658247 4.8040581 0 0 0 0 22.394274
6.3899655 1.360471 4.4794459 0 0 0 0 22.399221
6.3323598 1.9055239 5.6488109 0 0 0 0 22.404165
6.3682604 1.7448877 5.2253528 0 0 0 0 22.409113
6.3936033 1.6285685 4.8637457 0 0 0 0 22.414061
6.4230576 1.5252671 4.5281129 0 0 0 0 22.419008
6.3532104 2.0555103 5.7094908 0 0 0 0 22.423956
6.4032369 1.9046981 5.29004 0 0 0 0 22.428904
6.4176307 1.7894903 4.9144025 0 0 0 0 22.433847
6.4551873 1.6940882 4.5807676 0 0 0 0 22.438795
6.384119 2.2123947 5.7821784 0 0 0 0 22.443743
6.4352436 2.0675547 5.3567133 0 0 0 0 22.44869
6.4446902 1.9543884 4.9710574 0 0 0 0 22.453638
6.4943585 1.8678374 4.6414275 0 0 0 0 22.458582
6.4130473 2.371309 5.8558564 0 0 0 0 22.46353
6.4592414 2.2295084 5.4193707 0 0 0 0 22.468477
6.49686 2.1320133 5.0507412 0 0 0 0 22.473425
6.5345697 2.0455818 4.7050815 0 0 0 0 22.478373
6.4430156 2.5342181 5.932528 0 0 0 0 22.48332
6.4963317 2.4013257 5.4960346 0 0 0 0 22.488264
6.5350285 2.3088081 5.123394 0 0 0 0 22.493212
6.5668263 2.2274368 4.7697053 0 0 0 0 22.498159
6.476028 2.7021062 6.0161948 0 0 0 0 22.503107
6.5284438 2.5752103 5.5726819 0 0 0 0 22.508055
6.5642152 2.4867129 5.1920228 0 0 0 0 22.513002
6.6171589 2.4180915 4.8493519 0 0 0 0 22.517946
6.5040512 2.8710587 6.0988474 0 0 0 0 22.522894
6.5595851 2.7521136 5.6513205 0 0 0 0 22.527842
6.6095099 2.6764524 5.2786617 0 0 0 0 22.532789
6.642468 2.6050436 4.914948 0 0 0 0 22.537737
6.5391579 3.0489497 6.1934958 0 0 0 0 22.542685
6.6068339 2.9408522 5.7479687 0 0 0 0 22.547628
6.6387949 2.8643818 5.3562665 0 0 0 0 22.552576
6.6828899 2.8038383 4.9965515 0 0 0 0 22.557524
6.5632524 3.2249665 6.2801228 0 0 0 0 22.562471
6.6360874 3.1288068 5.8355756 0 0 0 0 22.567419
6.6741467 3.0592527 5.4418697 0 0 0 0 22.572367
6.7203665 3.0076787 5.0801349 0 0 0 0 22.577311
6.5954466 3.4109058 6.3777442 0 0 0 0 22.582258
6.6683722 3.3207378 5.9291811 0 0 0 0 22.587206
6.7115755 3.2621212 5.536458 0 0 0 0 22.592154
6.7689338 3.2214105 5.1777215 0 0 0 0 22.597101
6.631691 3.6028161 6.4843616 0 0 0 0 22.602045
6.7027469 3.5206528 6.026772 0 0 0 0 22.606993
6.7530885 3.4729526 5.6370368 0 0 0 0 22.61194
6.8095474 3.439249 5.275279 0 0 0 0 22.616888
6.6820664 3.8085907 6.6099782 0 0 0 0 22.621836
6.7421985 3.7295389 6.1383529 0 0 0 0 22.626783
6.7856112 3.6849015 5.7365918 0 0 0 0 22.631727
6.8482389 3.6641223 5.3758149 0 0 0 0 22.636675
6.7023644 4.0047002 6.7115483 0 0 0 0 22.641623
6.7837262 3.9454088 6.2539215 0 0 0 0 22.64657
6.8443704 3.9205818 5.86515 0 0 0 0 22.651518
6.8920178 3.8979559 5.4863405 0 0 0 0 22.656466
6.7428222 4.2176051 6.8361244 0 0 0 0 22.661409
6.8213139 4.1673455 6.3744664 0 0 0 0 22.666357
6.8760362 4.1465731 5.9756694 0 0 0 0 22.671305
6.9328814 4.1398425 5.6018395 0 0 0 0 22.676252
6.7873774 4.440486 6.9716859 0 0 0 0 22.6812
6.8660297 4.4012127 6.5039983 0 0 0 0 22.686148
6.9188752 4.3894634 6.1031723 0 0 0 0 22.691092
6.9889131 4.398581 5.7363334 0 0 0 0 22.696039
6.8259759 4.6674495 7.1082234 0 0 0 0 22.700987
6.8947139 4.6322761 6.6275001 0 0 0 0 22.705935
6.9547467 4.6354461 6.2306523 0 0 0 0 22.710882
7.0360055 4.662436 5.8697929 0 0 0 0 22.715826
6.8143067 4.8659463 7.1967149 0 0 0 0 22.720774
6.952662 4.8900428 6.7840056 0 0 0 0 22.725721
7.0128593 4.9052067 6.3841257 0 0 0 0 22.730669
7.0842328 4.9393067 6.0142231 0 0 0 0 22.735617
6.7603827 5.0378852 7.2431736 0 0 0 0 22.740564
6.9845619 5.1421132 6.9254637 0 0 0 0 22.745508
7.0529666 5.1741891 6.531559 0 0 0 0 22.750456
7.1386046 5.2301297 6.1706338 0 0 0 0 22.755404
6.6329398 5.1575952 7.2175908 0 0 0 0 22.760351
7.0316596 5.4140429 7.0889082 0 0 0 0 22.765299
7.1002502 5.4601183 6.6939673 0 0 0 0 22.770247
7.1891022 5.5330286 6.3360047 0 0 0 0 22.77519
6.4570174 5.2337546 7.1362796 0 0 0 0 22.531183
7.072886 5.691896 7.253571 0 0 0 0 22.536131
7.1618242 5.7667165 6.8765993 0 0 0 0 22.541079
7.2397971 5.8457069 6.5075893 0 0 0 0 22.546026
6.3930502 5.4008327 7.1827211 0 0 0 0 22.550974
7.0204244 5.9029126 7.3289232 0 0 0 0 22.555922
7.18927 6.0619135 7.0399213 0 0 0 0 22.560865
7.2795477 6.1657724 6.6808753 0 0 0 0 22.565813
6.2766552 5.5264583 7.1751466 0 0 0 0 22.570761
6.8499393 6.0161734 7.2862506 0 0 0 0 22.575708
7.2642822 6.4106317 7.2592192 0 0 0 0 22.580656
7.341692 6.5226359 6.8891196 0 0 0 0 22.585604
6.1420727 5.6342616 7.1455765 0 0 0 0 22.590548
6.650116 6.0987334 7.2125893 0 0 0 0 22.595495
7.2657738 6.7101607 7.4174709 0 0 0 0 22.600443
7.4009881 6.8935633 7.1063218 0 0 0 0 22.605391
6.0145197 5.7470021 7.1290112 0 0 0 0 22.610338
6.5512624 6.2752585 7.2529244 0 0 0 0 22.615282
7.081471 6.8416476 7.3907185 0 0 0 0 22.62023
7.4766469 7.2983565 7.3534756 0 0 0 0 22.625177
5.8394814 5.8132148 7.0564551 0 0 0 0 22.630125
5.1234479 5.1252909 5.7915497 0 0 0 0 22.635073
6.8789501 6.9543281 7.3489738 0 0 0 0 22.64002
7.4312248 7.6034646 7.4946022 0 0 0 0 22.644964
5.7492633 5.9605823 7.0878906 0 0 0 0 22.649912
6.706707 7.0946965 7.3422294 0 0 0 0 22.659807
7.1845999 7.7077007 7.4417739 0 0 0 0 22.664755
5.6793194 6.1347628 7.1503057 0 0 0 0 22.669703
5.342248 5.9151568 5.9960842 0 0 0 0 22.679594
6.9510684 7.821794 7.4029527 0 0 0 0 22.684542
5.420187 6.0997887 6.9738159 0 0 0 0 22.689489
5.8685827 6.684299 7.1153674 0 0 0 0 22.694437
6.2466798 7.2365937 7.2018323 0 0 0 0 22.699385
6.7133603 7.9219208 7.3591595 0 0 0 0 22.704329
5.3441629 6.2680326 7.0332336 0 0 0 0 22.709276
6.1056952 7.4056497 7.2390919 0 0 0 0 22.719172
6.4867077 8.0289288 7.3283763 0 0 0 0 22.724119
5.2043424 6.360888 7.0096974 0 0 0 0 22.729063
5.900857 7.4963341 7.2004046 0 0 0 0 22.738958
6.2488532 8.1190481 7.287611 0 0 0 0 22.743906
5.068593 6.4617181 6.9981499 0 0 0 0 22.748854
5.3855004 6.9977727 7.0625129 0 0 0 0 22.753801
5.699996 7.5869803 7.1697278 0 0 0 0 22.758745
6.0109382 8.2051659 7.2488575 0 0 0 0 22.763693
4.9084687 6.5277686 6.9516363 0 0 0 0 22.768641
5.2166691 7.0920162 7.0429044 0 0 0 0 22.773588
5.5031633 7.6815886 7.1470518 0 0 0 0 22.778536
5.7698374 8.2762995 7.2041368 0 0 0 0 22.783484
4.694531 6.5183191 6.8311911 0 0 0 0 22.788427
4.9584303 7.0560875 6.8984222 0 0 0 0 22.793375
5.292037 7.7503228 7.1044097 0 0 0 0 22.798323
5.5327749 8.3523998 7.1694136 0 0 0 0 22.80327
4.5474858 6.5942383 6.8036842 0 0 0 0 22.808218
4.7853832 7.1323462 6.8688521 0 0 0 0 22.813166
5.0015402 7.6947989 6.9549022 0 0 0 0 22.81811
5.2212582 8.2981815 7.0298529 0 0 0 0 22.823057
4.3994207 6.6691709 6.7781777 0 0 0 0 22.828005
4.6143289 7.2095919 6.8462849 0 0 0 0 22.832952
4.7952857 7.7544622 6.915297 0 0 0 0 22.8379
4.9768109 8.3423195 6.980197 0 0 0 0 22.842844
4.2574062 6.7500463 6.7626719 0 0 0 0 22.847792
4.4330511 7.266921 6.8077464 0 0 0 0 22.852739
4.5859051 7.8041501 6.8727112 0 0 0 0 22.857687
4.7444386 8.3943205 6.9415503 0 0 0 0 22.862635
4.1031704 6.8110299 6.7301884 0 0 0 0 22.867582
4.2578473 7.3321953 6.7802014 0 0 0 0 22.872526
4.3835764 7.859766 6.8401275 0 0 0 0 22.877474
4.5038261 8.4263973 6.8939362 0 0 0 0 22.882421
3.9529822 6.8769722 6.7037029 0 0 0 0 22.887369
4.0846319 7.3974471 6.7566628 0 0 0 0 22.892317
4.1761174 7.9044256 6.8015604 0 0 0 0 22.897264
4.2733097 8.4683695 6.8593216 0 0 0 0 22.902208
3.8028033 6.9449253 6.6832123 0 0 0 0 22.907156
3.9022226 7.4457812 6.7211466 0 0 0 0 22.912104
3.9675231 7.9380817 6.7590199 0 0 0 0 22.917051
4.0376253 8.4963837 6.8187313 0 0 0 0 22.921999
3.6505513 7.0068917 6.6597323 0 0 0 0 22.926947
3.7217703 7.491086 6.6866431 0 0 0 0 22.93189
3.7650385 7.982686 6.7294655 0 0 0 0 22.936838
3.8027823 8.5113649 6.7731771 0 0 0 0 22.941786
3.4961798 7.0588675 6.6312747 0 0 0 0 22.946733
3.5433269 7.5383739 6.6581402 0 0 0 0 22.951681
3.561398 8.0142832 6.6939435 0 0 0 0 22.956625
3.5689187 8.5253334 6.730629 0 0 0 0 22.961573
3.346945 7.1238027 6.6147957 0 0 0 0 22.96652
3.3648431 7.5826569 6.6296453 0 0 0 0 22.971468
3.3556576 8.0378933 6.6564374 0 0 0 0 22.976416
3.3358979 8.5262699 6.6831164 0 0 0 0 22.981363
3.1915493 7.174789 6.5893393 0 0 0 0 22.986307
3.1831987 7.6129498 6.5921793 0 0 0 0 22.991255
3.1559424 8.0644331 6.6239386 0 0 0 0 22.996202
3.1048017 8.5211697 6.634625 0 0 0 0 23.00115
3.0291159 7.2067828 6.5498104 0 0 0 0 22.974436
3.0047488 7.645175 6.5616088 0 0 0 0 22.979383
2.9533014 8.0809593 6.5893478 0 0 0 0 22.984327
2.8758128 8.5080004 6.5860457 0 0 0 0 22.989275
2.8757372 7.2607574 6.532351 0 0 0 0 22.994223
2.8230283 7.6704717 6.5281563 0 0 0 0 22.99917
2.7441401 8.0685472 6.532928 0 0 0 0 23.004118
2.6444676 8.4828825 6.5336056 0 0 0 0 23.009066
2.7161772 7.2987771 6.5039186 0 0 0 0 23.014009
2.6443436 7.6997395 6.5007014 0 0 0 0 23.018957
2.54317 8.0750818 6.4984784 0 0 0 0 23.023905
2.521986 8.8090916 6.7555156 0 0 0 0 23.028852
2.5565743 7.3337951 6.4764943 0 0 0 0 23.0338
2.4634759 7.7130022 6.4632826 0 0 0 0 23.038744
2.3400176 8.0656099 6.4540658 0 0 0 0 23.043692
2.2884109 8.764966 6.6951213 0 0 0 0 23.048639
2.3989551 7.3677835 6.4500775 0 0 0 0 23.053587
2.2867484 7.7402482 6.4418378 0 0 0 0 23.058535
2.142899 8.0600719 6.4166574 0 0 0 0 23.063482
2.0588791 8.7258053 6.643723 0 0 0 0 23.068426
2.2413607 7.4047804 6.4286537 0 0 0 0 23.073374
2.1057193 7.7404919 6.401453 0 0 0 0 23.078321
1.9498799 8.0645065 6.3912334 0 0 0 0 23.083269
1.8394623 8.6975346 6.6033216 0 0 0 0 23.088217
2.0764675 7.4148116 6.3872819 0 0 0 0 23.093164
1.9288019 7.7517095 6.3730497 0 0 0 0 23.098108
1.7577543 8.0599117 6.361835 0 0 0 0 23.103056
1.5594232 8.3403826 6.3196249 0 0 0 0 23.108004
1.9187808 7.444798 6.3658762 0 0 0 0 23.112951
1.7518245 7.7579155 6.3426595 0 0 0 0 23.117899
1.5624121 8.0363226 6.3214779 0 0 0 0 23.122847
1.3508692 8.3009605 6.2802773 0 0 0 0 23.12779
1.7590109 7.4677978 6.3414841 0 0 0 0 23.132738
1.5736639 7.7481074 6.303308 0 0 0 0 23.137686
1.3701303 8.0187073 6.2881126 0 0 0 0 23.142633
1.1452885 8.2605085 6.2469392 0 0 0 0 23.147581
1.5960833 7.4768085 6.3081203 0 0 0 0 23.152525
1.3944578 7.7353134 6.2669616 0 0 0 0 23.157473
1.1775839 7.9780545 6.242806 0 0 0 0 23.16242
0.9426651 8.2160034 6.2106185 0 0 0 0 23.167368
1.4352558 7.4958162 6.2857351 0 0 0 0 23.172316
1.2213598 7.7324572 6.2386036 0 0 0 0 23.177263
0.99010813 7.9443521 6.2054935 0 0 0 0 23.182207
0.74393266 8.1624374 6.1723309 0 0 0 0 23.187155
1.2742811 7.5017991 6.2553844 0 0 0 0 23.192102
1.0450852 7.7146192 6.204277 0 0 0 0 23.19705
0.80569261 7.9166236 6.1751733 0 0 0 0 23.201998
0.54712766 8.1028357 6.1330624 0 0 0 0 23.206945
1.1100423 7.4837728 6.208087 0 0 0 0 23.211889
0.87388784 7.7037239 6.1749449 0 0 0 0 23.216837
0.62312931 7.8758454 6.1378903 0 0 0 0 23.221785
0.35305539 8.0191536 6.0788622 0 0 0 0 23.226732
0.95005512 7.4897447 6.1827383 0 0 0 0 23.23168
0.7004528 7.6718187 6.1336608 0 0 0 0 23.236628
0.44142917 7.8230348 6.0946407 0 0 0 0 23.241571
0.16427013 7.9624605 6.0486054 0 0 0 0 23.246519
0.78892988 7.4837098 6.1514173 0 0 0 0 23.251467
0.53009576 7.6478953 6.1023641 0 0 0 0 23.256414
0.26314878 7.7865152 6.0669441 0 0 0 0 23.261362
-0.0194172 7.8939548 6.0110555 0 0 0 0 23.266306
0.62799799 7.4689784 6.1136122 0 0 0 0 23.271254
0.36193639 7.6182427 6.0696511 0 0 0 0 23.276201
0.086332157 7.7246189 6.0247812 0 0 0 0 23.281149
-0.20262007 7.800108 5.9599628 0 0 0 0 23.286097
0.46993655 7.4699097 6.0923247 0 0 0 0 23.291044
0.19240491 7.5792661 6.0314436 0 0 0 0 23.295988
-0.086528867 7.6586623 5.9806376 0 0 0 0 23.300936
-0.38150874 7.7352681 5.933804 0 0 0 0 23.305883
0.31065938 7.4518204 6.0600848 0 0 0 0 23.310831
0.027790319 7.5332165 5.9912653 0 0 0 0 23.315779
-0.25925443 7.6057348 5.9504604 0 0 0 0 23.320726
-0.55574864 7.6383018 5.8847384 0 0 0 0 23.32567
0.15031379 7.4277315 6.0248585 0 0 0 0 23.330618
-0.13658938 7.5092115 5.9710307 0 0 0 0 23.335566
-0.42707062 7.5447283 5.9163146 0 0 0 0 23.340513
-0.7278043 7.5583415 5.8506331 0 0 0 0 23.345461
-0.0058962395 7.4166193 6.0026078 0 0 0 0 23.350409
-0.30017075 7.4671612 5.9398441 0 0 0 0 23.355352
-0.592933 7.4796896 5.8811831 0 0 0 0 23.3603
-0.89593518 7.4723291 5.8175521 0 0 0 0 23.365248
-0.16330361 7.3874826 5.9674006 0 0 0 0 23.370195
-0.46186781 7.415071 5.9046884 0 0 0 0 23.375143
-0.75679183 7.4156327 5.8510542 0 0 0 0 23.380091
-1.0610323 7.3892808 5.7874689 0 0 0 0 23.385035
-0.32074177 7.3563485 5.9351997 0 0 0 0 23.389982
-0.621499 7.3689628 5.8745213 0 0 0 0 23.39493
-0.91774249 7.3435249 5.8179517 0 0 0 0 23.399878
-1.2184492 7.2770796 5.7384782 0 0 0 0 23.404825
-0.47717303 7.3262043 5.9059978 0 0 0 0 23.409769
-0.77928889 7.3088069 5.8373947 0 0 0 0 23.414717
-1.074857 7.2563381 5.7748961 0 0 0 0 23.419664
-1.3775766 7.191958 5.7134132 0 0 0 0 23.424612
-0.63263279 7.2940469 5.8788033 0 0 0 0 23.42956
-0.93509382 7.2476263 5.8022742 0 0 0 0 23.434507
-1.2279172 7.174108 5.7368369 0 0 0 0 23.439451
-1.5298755 7.090714 5.676404 0 0 0 0 23.444399
-0.78837502 7.240768 5.8385501 0 0 0 0 24.030645
-1.0937769 7.2012839 5.7840009 0 0 0 0 24.035589
-1.3858539 7.1025968 5.7146258 0 0 0 0 24.040537
-1.6773026 6.9698591 5.6293354 0 0 0 0 24.045485
-0.94088638 7.2024856 5.8103771 0 0 0 0 24.050432
-1.2447219 7.1239381 5.7409277 0 0 0 0 24.05538
-1.5300856 7.0001516 5.6666284 0 0 0 0 24.060328
-1.8273515 6.8885593 5.6142731 0 0 0 0 24.065271
-1.0934051 7.1642079 5.7862048 0 0 0 0 24.070219
-1.3925762 7.055573 5.7068386 0 0 0 0 24.075167
-1.6761333 6.9157634 5.634582 0 0 0 0 24.080114
-2.0092556 6.9208765 5.6958652 0 0 0 0 24.085062
-1.2421508 7.1038404 5.7460947 0 0 0 0 24.09001
-1.5365903 6.9721365 5.664794 0 0 0 0 24.094954
-1.8268999 6.8594913 5.6284566 0 0 0 0 24.099901
-2.1825299 6.9170136 5.7495642 0 0 0 0 24.104849
-1.39176 7.0575147 5.7209477 0 0 0 0 24.109797
-1.6824726 6.9017477 5.6347136 0 0 0 0 24.114744
-2.015377 6.9319382 5.7329373 0 0 0 0 24.119688
-2.3248146 6.8135791 5.7245727 0 0 0 0 24.124636
-1.5356343 6.9850664 5.6758766 0 0 0 0 24.129583
-1.8311574 6.8514366 5.624578 0 0 0 0 24.134531
-2.1758828 6.9028411 5.7557254 0 0 0 0 24.139479
-2.4504738 6.6728697 5.6707058 0 0 0 0 24.144426
-1.6803892 6.924654 5.6427741 0 0 0 0 24.14937
-2.0146735 6.9177794 5.7130852 0 0 0 0 24.154318
-2.3160915 6.8043637 5.7247257 0 0 0 0 24.159266
-2.5750408 6.5411658 5.6258192 0 0 0 0 24.164213
-1.8299909 6.8803377 5.6276221 0 0 0 0 24.169161
-2.186692 6.9348845 5.7637372 0 0 0 0 24.174109
-2.4484184 6.6937637 5.6837707 0 0 0 0 24.179052
-2.7053974 6.4305758 5.6008682 0 0 0 0 24.184
-1.9930904 6.886282 5.6553197 0 0 0 0 24.188948
-2.3258166 6.8423786 5.7277246 0 0 0 0 24.193895
-2.5816293 6.5952039 5.656785 0 0 0 0 24.198843
-2.8288205 6.3128843 5.5699482 0 0 0 0 24.203791
-2.1824043 6.9717035 5.7527699 0 0 0 0 24.208735
-2.4658415 6.7599025 5.7016854 0 0 0 0 24.213682
-2.7119019 6.4905972 5.6268191 0 0 0 0 24.21863
-2.9433999 6.1800647 5.5310831 0 0 0 0 24.223577
-2.3380661 6.9234581 5.7446151 0 0 0 0 24.228525
-2.6000409 6.6603265 5.6646991 0 0 0 0 24.233469
-2.8255053 6.3527255 5.5709686 0 0 0 0 24.238417
-3.0617945 6.0653234 5.5071654 0 0 0 0 24.243364
-2.4722273 6.824851 5.6946273 0 0 0 0 24.248312
-2.7234507 6.5395789 5.6117864 0 0 0 0 24.25326
-2.9654584 6.2803006 5.5719032 0 0 0 0 24.258207
-2.8707991 5.37363 4.9522958 0 0 0 0 24.263151
-2.605382 6.7272372 5.6486382 0 0 0 0 24.268099
-2.8545725 6.4479847 5.5857868 0 0 0 0 24.273046
-3.0828319 6.1655216 5.5389881 0 0 0 0 24.277994
-2.9750202 5.2737446 4.9373689 0 0 0 0 24.282942
-2.7492421 6.6598158 5.6315536 0 0 0 0 24.287889
-2.9807727 6.3483133 5.5538168 0 0 0 0 24.292833
-3.1864083 6.0295305 5.4871521 0 0 0 0 24.297781
-3.387234 5.6946936 5.4225359 0 0 0 0 24.302729
-2.8794186 6.5601625 5.5875759 0 0 0 0 24.307676
-3.1167717 6.2698088 5.5447745 0 0 0 0 24.312624
-3.3125355 5.9399099 5.4801564 0 0 0 0 24.317572
-3.5054431 5.5989947 5.4235702 0 0 0 0 24.322515
-3.0144517 6.4756036 5.5605507 0 0 0 0 24.327463
-3.2390125 6.1660819 5.5128212 0 0 0 0 24.332411
-3.4228871 5.8270521 5.453249 0 0 0 0 24.337358
-3.5980065 5.4659047 5.3887477 0 0 0 0 24.342306
-3.1426179 6.3779397 5.5255704 0 0 0 0 24.34725
-3.3562894 6.0592976 5.4828854 0 0 0 0 24.352198
-3.5253778 5.7000732 5.4163918 0 0 0 0 24.357145
-3.6934934 5.3408699 5.3638997 0 0 0 0 24.362093
-3.2727251 6.2863116 5.4975715 0 0 0 0 24.367041
-3.4716053 5.948482 5.4509625 0 0 0 0 24.371988
-3.6287687 5.583127 5.3895078 0 0 0 0 24.376932
-3.7781045 5.2026782 5.3281045 0 0 0 0 24.38188
-3.405755 6.2027345 5.4785466 0 0 0 0 24.386827
-3.5888433 5.8457069 5.4280157 0 0 0 0 24.391775
-3.7321405 5.4681859 5.3666182 0 0 0 0 24.396723
-3.8636253 5.0735164 5.3012857 0 0 0 0 24.40167
-3.5211027 6.0868864 5.4346361 0 0 0 0 24.406614
-3.6962154 5.7287836 5.3931231 0 0 0 0 24.411562
-3.8275778 5.3461347 5.3377619 0 0 0 0 24.41651
-3.9540505 4.9544373 5.2864313 0 0 0 0 24.421457
-3.6383839 5.9780788 5.399703 0 0 0 0 24.426405
-3.8015926 5.6118426 5.3622336 0 0 0 0 24.431353
-3.9190395 5.2210274 5.3059201 0 0 0 0 24.436296
-4.0286312 4.8181286 5.2536507 0 0 0 0 24.441244
-3.7595875 5.8773346 5.3737426 0 0 0 0 24.446192
-3.8941104 5.4797153 5.3174076 0 0 0 0 24.451139
-4.0065341 5.0928726 5.2750931 0 0 0 0 24.456087
-4.0982084 4.6817589 5.22088 0 0 0 0 24.461031
-3.8817656 5.7796116 5.3537722 0 0 0 0 24.465979
-4.0093074 5.381937 5.3094501 0 0 0 0 24.470926
-4.0939674 4.9707294 5.2502513 0 0 0 0 24.475874
-4.1915274 4.5737433 5.2219906 0 0 0 0 24.480822
-3.9861836 5.6566262 5.3118987 0 0 0 0 24.485769
-4.0899091 5.2406516 5.2586694 0 0 0 0 24.490713
-4.1873388 4.8556776 5.2363791 0 0 0 0 24.495661
-4.2531166 4.4352741 5.1882401 0 0 0 0 24.500608
-4.2759042 4.7418127 5.2207661 0 0 0 0 24.255747
-4.3179531 4.3041172 5.1637397 0 0 0 0 24.260695
-4.3177652 4.5760326 5.1511297 0 0 0 0 24.275534
-3.9154811 3.7298868 4.5910344 0 0 0 0 24.280481
-4.4459801 4.0483136 5.1221862 0 0 0 0 24.300268
-4.5362568 5.3459764 5.3479042 0 0 0 0 24.305216
-4.5005336 3.9157901 5.0984392 0 0 0 0 24.320055
-3.6878438 4.1491847 4.2226391 0 0 0 0 24.325003
-4.5847793 4.6809816 5.1824603 0 0 0 0 24.32995
-4.5391688 3.7730429 5.0597501 0 0 0 0 24.339846
-5.186686 5.579464 5.7960725 0 0 0 0 24.344793
-4.6345539 4.5233097 5.1217856 0 0 0 0 24.349737
-4.6065817 3.6557176 5.0569377 0 0 0 0 24.359632
-4.8307419 4.9658875 5.2613549 0 0 0 0 24.36458
-4.7467651 4.4275436 5.1348286 0 0 0 0 24.369528
-3.9525175 3.3411179 4.2651248 0 0 0 0 24.374475
-4.8172364 4.7312784 5.1209984 0 0 0 0 24.384367
-4.8014312 4.2809587 5.0881152 0 0 0 0 24.389315
-4.7465463 3.8341489 5.0403056 0 0 0 0 24.394262
-4.9225879 4.6193733 5.1120949 0 0 0 0 24.404158
-3.9231801 3.3391731 4.07128 0 0 0 0 24.409101
-4.8010716 3.7026143 5.0155535 0 0 0 0 24.414049
-4.1066842 2.8298187 4.3221178 0 0 0 0 24.418997
-3.7920301 3.3970549 3.8434615 0 0 0 0 24.423944
-4.9404922 4.0182347 5.0385485 0 0 0 0 24.428892
-4.8824053 3.593468 5.0236902 0 0 0 0 24.433836
-5.0119839 3.8909087 5.02075 0 0 0 0 24.448679
-4.0501108 2.8414912 4.100296 0 0 0 0 24.453627
-5.0804739 3.7635479 5.0039573 0 0 0 0 24.468466
-4.0416102 2.7021441 4.0346904 0 0 0 0 24.473413
-5.2189403 4.0690532 4.9869823 0 0 0 0 24.483309
-3.8776045 2.7365232 3.7509952 0 0 0 0 24.488256
-4.1136565 2.6179314 4.053782 0 0 0 0 24.4932
-5.2944875 3.9357564 4.9651885 0 0 0 0 24.503096
-3.992362 2.6838882 3.8039212 0 0 0 0 24.508043
-5.0982952 3.0883818 4.9686232 0 0 0 0 24.512991
-5.3928862 3.8197801 4.9683042 0 0 0 0 24.522882
-4.0613956 2.5986168 3.8130212 0 0 0 0 24.52783
-5.1497569 2.9628363 4.9588575 0 0 0 0 24.532778
-5.3126006 3.2335765 4.9269137 0 0 0 0 24.547617
-5.0448461 2.7541449 4.8036189 0 0 0 0 24.552565
-5.3681211 3.1020629 4.9131536 0 0 0 0 24.567408
-5.0225153 2.5976055 4.7320809 0 0 0 0 24.572355
-5.5578303 3.3851006 4.879127 0 0 0 0 24.582247
-5.388773 2.953079 4.8705072 0 0 0 0 24.587194
-5.062921 2.4759376 4.7243261 0 0 0 0 24.592142
-5.6184192 3.2466276 4.8603721 0 0 0 0 24.602037
-5.2590103 2.7270634 4.6973596 0 0 0 0 24.606981
-4.2620301 1.965795 3.935266 0 0 0 0 24.611929
-5.6879592 3.1142831 4.8535824 0 0 0 0 24.621824
-4.12676 2.0204985 3.63746 0 0 0 0 24.626772
-5.1177745 2.2242594 4.6908889 0 0 0 0 24.63172
-5.551353 2.8731747 4.6744828 0 0 0 0 24.641611
-4.2336535 1.9547601 3.6934297 0 0 0 0 24.646559
-5.1581473 2.1056042 4.690124 0 0 0 0 24.651506
-5.5670328 2.7201264 4.6298542 0 0 0 0 24.661398
-5.3654785 2.3328018 4.6441917 0 0 0 0 24.666346
-5.1845531 1.9817648 4.6794009 0 0 0 0 24.671293
-4.9248104 1.6026912 4.6548414 0 0 0 0 24.676241
-5.6245689 2.5866432 4.6230888 0 0 0 0 24.681189
-5.4169106 2.2092714 4.6454148 0 0 0 0 24.686136
-5.2079439 1.8588904 4.6686802 0 0 0 0 24.69108
-4.9490962 1.490862 4.6570916 0 0 0 0 24.696028
-5.668128 2.4489784 4.6073623 0 0 0 0 24.700975
-5.4414115 2.0753865 4.626718 0 0 0 0 24.705923
-5.2343283 1.7370609 4.66295 0 0 0 0 24.710871
-4.9613953 1.3758773 4.6513734 0 0 0 0 24.715818
-5.700459 2.3097074 4.5860324 0 0 0 0 24.461061
-5.4717169 1.9470676 4.6153889 0 0 0 0 24.466005
-5.2526488 1.6135601 4.6516552 0 0 0 0 24.470953
-4.9766603 1.265303 4.6490774 0 0 0 0 24.475901
-5.7450571 2.1720796 4.5783086 0 0 0 0 24.480848
-5.498219 1.8162252 4.6036859 0 0 0 0 24.485796
-5.2530746 1.4863919 4.6279979 0 0 0 0 24.490744
-4.9679785 1.1470373 4.6264162 0 0 0 0 24.495687
-5.7746644 2.0312536 4.5606232 0 0 0 0 24.500635
-5.5177336 1.6832942 4.5890017 0 0 0 0 24.505583
-5.263484 1.362365 4.6153102 0 0 0 0 24.51053
-4.8353128 1.0050762 4.491075 0 0 0 0 24.515478
-5.7972975 1.8873415 4.5409589 0 0 0 0 24.520422
-5.279871 1.2414256 4.6106019 0 0 0 0 24.530317
-5.0005441 0.92621416 4.6369481 0 0 0 0 24.535265
-5.8398824 1.7507007 4.5392337 0 0 0 0 24.540213
-5.2782598 1.1172458 4.591938 0 0 0 0 24.550104
-5.0088196 0.81520015 4.6382308 0 0 0 0 24.555052
-5.8854632 1.6151071 4.5434985 0 0 0 0 24.559999
-5.5612373 1.2863342 4.5489702 0 0 0 0 24.564947
-5.3426228 1.0069692 4.6351008 0 0 0 0 24.569895
-5.0120821 0.70411909 4.6355238 0 0 0 0 24.574842
-5.8711219 1.4637206 4.5039268 0 0 0 0 24.579786
-5.5847178 1.1574795 4.548264 0 0 0 0 24.584734
-4.6279721 0.76516724 4.0002294 0 0 0 0 24.589682
-5.00033 0.59184015 4.6218505 0 0 0 0 24.594629
-5.8917203 1.3228033 4.4932551 0 0 0 0 24.599577
-5.5952001 1.0264562 4.5395889 0 0 0 0 24.604525
-5.3133731 0.75728887 4.5888271 0 0 0 0 24.609468
-5.9073253 1.1808282 4.4825954 0 0 0 0 24.619364
-5.5896668 0.89422405 4.5199499 0 0 0 0 24.624311
-5.2917171 0.6338613 4.5622001 0 0 0 0 24.629259
-0.58644181 0.040627617 0.51560879 0 0 0 0 24.634203
-5.9129267 1.0377268 4.466958 0 0 0 0 24.639151
-5.607151 0.76430601 4.5222554 0 0 0 0 24.644098
-0.55953354 0.02625295 0.49073237 0 0 0 0 24.653994
-5.9295254 0.89677846 4.4632921 0 0 0 0 24.658941
-5.5986042 0.63304663 4.5056181 0 0 0 0 24.663885
-0.56630999 0.039258506 0.46171239 0 0 0 0 24.668833
-0.52458763 0.01377185 0.45886844 0 0 0 0 24.67378
-5.9281058 0.75459677 4.4476652 0 0 0 0 24.678728
-0.53339326 0.024807824 0.43284872 0 0 0 0 24.688623
-0.51567006 0.0036459998 0.45194358 0 0 0 0 24.693567
-5.9296894 0.61245859 4.4360309 0 0 0 0 24.698515
-0.54923856 0.033941992 0.41481847 0 0 0 0 24.703463
-0.53050882 0.012762002 0.43091545 0 0 0 0 24.70841
-0.51978612 -0.0073062046 0.45599282 0 0 0 0 24.713358
-0.53734905 0.020775381 0.40490696 0 0 0 0 24.723249
-0.52759904 0.0027138642 0.42797756 0 0 0 0 24.728197
-0.51388532 -0.018390549 0.45206356 0 0 0 0 24.733145
-0.56022966 0.028002622 0.39286625 0 0 0 0 24.738092
-0.53646827 0.0087569989 0.40496927 0 0 0 0 24.74304
-0.5159986 -0.029367877 0.45511693 0 0 0 0 24.752932
-0.5543499 0.014915827 0.38794166 0 0 0 0 24.757879
-0.52255327 -0.0024339312 0.39405727 0 0 0 0 24.762827
-0.50778294 -0.019561088 0.41313618 0 0 0 0 24.767775
-0.5070796 -0.039492812 0.44819167 0 0 0 0 24.772722
-0.54345238 0.0027657598 0.38002542 0 0 0 0 24.777666
-0.51020759 -0.05145416 0.45324492 0 0 0 0 24.792509
-0.53756046 -0.0093205022 0.37509832 0 0 0 0 24.797457
-0.51678145 -0.0265243 0.39019004 0 0 0 0 24.802404
-0.50399411 -0.041621771 0.41225991 0 0 0 0 24.807348
-0.50529605 -0.061524335 0.45031083 0 0 0 0 24.812296
-0.53769177 -0.022325071 0.37616044 0 0 0 0 24.817244
-0.51188165 -0.037594207 0.38725826 0 0 0 0 24.822191
-0.51525491 -0.065481372 0.4253554 0 0 0 0 24.846926
-0.55169767 -0.090908363 0.49934423 0 0 0 0 24.851873
-0.52791625 -0.046462756 0.37130129 0 0 0 0 24.856821
-0.50910443 -0.060641039 0.38738161 0 0 0 0 24.861769
-0.52540517 -0.0783507 0.43639556 0 0 0 0 24.866713
-0.54378086 -0.10101741 0.49441633 0 0 0 0 24.87166
-0.52753848 -0.091328375 0.43945286 0 0 0 0 24.886503
-0.56600392 -0.11772127 0.51943946 0 0 0 0 24.891447
-0.52816451 -0.071471639 0.37342247 0 0 0 0 24.896395
-0.52037466 -0.085501246 0.40047896 0 0 0 0 24.901342
-0.5387032 -0.10518264 0.45249289 0 0 0 0 24.90629
-0.5590995 -0.12881681 0.51551145 0 0 0 0 24.911238
-0.53355038 -0.10033295 0.41351691 0 0 0 0 24.921129
-0.59307033 -0.12946773 0.50446498 0 0 0 0 24.926077
-0.56927651 -0.14368114 0.52955568 0 0 0 0 24.931025
-0.54651499 -0.1002321 0.3914687 0 0 0 0 24.908644
-0.56082386 -0.1189677 0.43948901 0 0 0 0 24.913591
-0.59826249 -0.14438921 0.51247543 0 0 0 0 24.918539
-4.6519966 -1.2860321 4.570487 0 0 0 0 24.923487
-0.57577074 -0.11985802 0.41648343 0 0 0 0 24.928431
-0.64634711 -0.15285672 0.51341677 0 0 0 0 24.933378
-4.9792686 -1.3235883 4.5079012 0 0 0 0 24.938326
-4.6210556 -1.3844746 4.5738053 0 0 0 0 24.943274
-5.8809729 -1.3775002 4.5391288 0 0 0 0 24.948221
-5.4947844 -1.4386754 4.6160932 0 0 0 0 24.953165
-4.9263563 -1.4283215 4.4932804 0 0 0 0 24.958113
-4.5850716 -1.4799788 4.5741272 0 0 0 0 24.96306
-5.8304324 -1.5142066 4.5325751 0 0 0 0 24.968008
-5.4501004 -1.5623046 4.6114964 0 0 0 0 24.972956
-4.8905087 -1.535825 4.4956288 0 0 0 0 24.977903
-4.5420637 -1.574571 4.5694609 0 0 0 0 24.982847
-5.7899184 -1.6517773 4.5360012 0 0 0 0 24.987795
-5.3963733 -1.6830392 4.6039119 0 0 0 0 24.992743
-4.8566895 -1.6452936 4.5029759 0 0 0 0 24.99769
-4.5111117 -1.6719989 4.577775 0 0 0 0 25.002638
-5.7433982 -1.7894155 4.5384383 0 0 0 0 25.007586
-5.2702179 -1.7777098 4.5354204 0 0 0 0 25.012529
-4.8188386 -1.7528123 4.5073266 0 0 0 0 25.017477
-4.4650636 -1.7636216 4.5731063 0 0 0 0 25.022425
-5.6898203 -1.9231391 4.536881 0 0 0 0 25.027372
-5.1239042 -1.8616338 4.4509468 0 0 0 0 25.03232
-4.77596 -1.8583876 4.5106821 0 0 0 0 25.037268
-4.4270635 -1.8581337 4.5774269 0 0 0 0 25.042212
-5.6322145 -2.0549073 4.5343256 0 0 0 0 25.047159
-5.066082 -1.9743994 4.4453497 0 0 0 0 25.052107
-4.727047 -1.962037 4.5100455 0 0 0 0 25.057055
-4.3840213 -1.9497069 4.5787501 0 0 0 0 25.062002
-5.5846853 -2.1915336 4.5447593 0 0 0 0 25.066946
-5.0163178 -2.0910542 4.4487424 0 0 0 0 25.071894
-4.6841669 -2.0676024 4.5163989 0 0 0 0 25.076841
-4.3399911 -2.042285 4.582077 0 0 0 0 25.081789
-5.4908466 -2.3077476 4.5192437 0 0 0 0 25.086737
-4.9766059 -2.2105722 4.46312 0 0 0 0 25.091684
-4.6342425 -2.1702528 4.5187607 0 0 0 0 25.096628
-4.288888 -2.1299546 4.5784073 0 0 0 0 25.101576
-5.2651 -2.3636458 4.3858709 0 0 0 0 25.106524
-4.9207897 -2.3232901 4.4665155 0 0 0 0 25.111471
-4.5792637 -2.2689633 4.5181222 0 0 0 0 25.116419
-4.2458577 -2.2225118 4.5847297 0 0 0 0 25.121367
-5.1923285 -2.4825745 4.3803148 0 0 0 0 25.12631
-4.8559136 -2.4321187 4.4639196 0 0 0 0 25.131258
-4.5374007 -2.3754954 4.5324736 0 0 0 0 25.136206
-4.1907134 -2.3072245 4.58006 0 0 0 0 25.141153
-5.1276169 -2.6053903 4.3847489 0 0 0 0 25.146101
-4.8031287 -2.5467818 4.4753108 0 0 0 0 25.151049
-4.4794064 -2.4732332 4.5328379 0 0 0 0 25.155993
-4.1476741 -2.3987696 4.5903788 0 0 0 0 25.16094
-5.0709658 -2.7320938 4.3991737 0 0 0 0 25.165888
-4.7362294 -2.6536214 4.4757133 0 0 0 0 25.170835
-4.4093118 -2.5641229 4.523211 0 0 0 0 25.175783
-4.1742911 -2.5343764 4.6816478 0 0 0 0 25.180727
-5.0022173 -2.8519449 4.4056077 0 0 0 0 25.185675
-4.6713347 -2.760428 4.4801097 0 0 0 0 25.190622
-4.3493061 -2.660872 4.5265756 0 0 0 0 25.19557
-4.204999 -2.6769209 4.7819219 0 0 0 0 25.200518
-4.9274297 -2.9688616 4.411047 0 0 0 0 25.205465
-4.6104946 -2.8711729 4.4915061 0 0 0 0 25.210409
-4.2882752 -2.7556295 4.5299368 0 0 0 0 25.215357
-4.1519308 -2.7675812 4.789257 0 0 0 0 25.220304
-4.8536406 -3.0857625 4.4174824 0 0 0 0 25.225252
-4.539547 -2.9740431 4.494905 0 0 0 0 25.2302
-4.2464433 -2.8641245 4.5572872 0 0 0 0 25.235147
-4.0968604 -2.8582613 4.7965961 0 0 0 0 25.240091
-4.7758298 -3.2007003 4.425921 0 0 0 0 25.245039
-4.459527 -3.0720246 4.4913111 0 0 0 0 25.249987
-4.3096862 -3.0482252 4.701581 0 0 0 0 25.254934
-4.0347095 -2.9430292 4.7979355 0 0 0 0 25.259882
-4.6939778 -3.3126836 4.4323606 0 0 0 0 25.26483
-4.3885956 -3.1758764 4.50071 0 0 0 0 25.269773
-4.2588282 -3.1558247 4.7259459 0 0 0 0 25.274721
-3.9735699 -3.0287797 4.8012748 0 0 0 0 25.279669
-4.6060596 -3.4197383 4.4348011 0 0 0 0 25.284616
-4.3479776 -3.3023267 4.5430942 0 0 0 0 25.289564
-4.1938553 -3.2556009 4.7383223 0 0 0 0 25.294508
-3.9154725 -3.1174824 4.8106122 0 0 0 0 25.299456
-4.5171313 -3.5257964 4.4392405 0 0 0 0 25.304403
-4.3882923 -3.4967043 4.6774545 0 0 0 0 25.309351
-4.1268444 -3.3523991 4.7496958 0 0 0 0 25.314299
-3.8502924 -3.2002745 4.812952 0 0 0 0 25.319246
-4.435287 -3.6377516 4.4546766 0 0 0 0 25.32419
-4.3194728 -3.6095016 4.6998649 0 0 0 0 25.329138
-4.0507507 -3.4433079 4.7540741 0 0 0 0 25.334085
-3.7851162 -3.2830577 4.8182898 0 0 0 0 25.339033
-4.5092425 -3.8836772 4.6330757 0 0 0 0 25.343981
-4.2334409 -3.7065184 4.705276 0 0 0 0 25.348928
-3.9705787 -3.5282688 4.7534471 0 0 0 0 25.353872
-3.7199516 -3.3668344 4.8256292 0 0 0 0 25.35882
-4.415339 -3.9917662 4.6455259 0 0 0 0 25.363768
-4.1464124 -3.8035364 4.7136884 0 0 0 0 25.368715
-3.9005556 -3.6240835 4.7688222 0 0 0 0 25.373663
-3.64972 -3.4456739 4.8279686 0 0 0 0 25.378611
-4.2862883 -4.0729713 4.6265497 0 0 0 0 25.965269
-4.0557003 -3.902158 4.7226844 0 0 0 0 25.970217
-3.8148143 -3.7115395 4.7728004 0 0 0 0 25.975164
-3.5780344 -3.5288556 4.8339248 0 0 0 0 25.980108
-4.1042118 -4.0920906 4.5459828 0 0 0 0 25.985056
-3.9666123 -3.9981384 4.7350817 0 0 0 0 25.990004
-3.734616 -3.7974341 4.7801595 0 0 0 0 25.994951
-3.5128403 -3.6135805 4.8472509 0 0 0 0 25.999899
-3.9646301 -4.1496744 4.5134058 0 0 0 0 26.004847
-3.874474 -4.0901527 4.7444768 0 0 0 0 26.00979
-3.6584942 -3.8892665 4.7965221 0 0 0 0 26.014738
-3.4395432 -3.6904032 4.8515773 0 0 0 0 26.019686
-3.8503277 -4.22894 4.5088196 0 0 0 0 26.024633
-3.7813389 -4.182168 4.7568731 0 0 0 0 26.029581
-3.5762839 -3.9741724 4.8058815 0 0 0 0 26.034529
-3.3662598 -3.7682173 4.8589048 0 0 0 0 26.039473
-3.7613745 -4.3358788 4.5372357 0 0 0 0 26.04442
-3.6526711 -4.2316294 4.7242556 0 0 0 0 26.049368
-3.489038 -4.056128 4.8142443 0 0 0 0 26.054316
-3.297051 -3.8519719 4.8742347 0 0 0 0 26.059263
-3.653178 -4.4230456 4.5476513 0 0 0 0 26.064207
-3.4965527 -4.2444348 4.6556196 0 0 0 0 26.069155
-3.4078562 -4.1430035 4.8306046 0 0 0 0 26.074102
-3.2186949 -3.9238384 4.8785591 0 0 0 0 26.07905
-3.5500555 -4.5161409 4.5660663 0 0 0 0 26.083998
-3.3647749 -4.2839227 4.6199875 0 0 0 0 26.088945
-3.3195763 -4.2219615 4.8399615 0 0 0 0 26.093889
-3.144424 -4.002645 4.8908882 0 0 0 0 26.098837
-3.4449015 -4.6062517 4.5854793 0 0 0 0 26.103785
-3.2644556 -4.3600063 4.6263633 0 0 0 0 26.108732
-3.2262492 -4.2969718 4.847321 0 0 0 0 26.11368
-3.0681176 -4.0784721 4.902215 0 0 0 0 26.118628
-3.3306048 -4.6844683 4.5958867 0 0 0 0 26.123571
-3.1610951 -4.4321146 4.6337361 0 0 0 0 26.128519
-3.1318948 -4.3699927 4.8526773 0 0 0 0 26.133467
-2.9857602 -4.1503649 4.9095449 0 0 0 0 26.138414
-3.219358 -4.7666392 4.6122937 0 0 0 0 26.143362
-3.0658698 -4.5151119 4.6541133 0 0 0 0 26.14831
-3.0080149 -4.400393 4.8140087 0 0 0 0 26.153254
-2.9084547 -4.2261901 4.923872 0 0 0 0 26.158201
-3.1060903 -4.8468242 4.6297011 0 0 0 0 26.163149
-2.9665973 -4.594151 4.6724896 0 0 0 0 26.168097
-2.8708253 -4.4049664 4.752316 0 0 0 0 26.173044
-2.8240743 -4.2960954 4.9322004 0 0 0 0 26.177988
-2.9907892 -4.9240251 4.6471052 0 0 0 0 26.182936
-2.8612273 -4.6652613 4.6838627 0 0 0 0 26.187883
-2.759093 -4.446198 4.7326427 0 0 0 0 26.192831
-2.7396955 -4.3659945 4.9425282 0 0 0 0 26.197779
-2.8714194 -4.9952693 4.6615052 0 0 0 0 26.202726
-2.7629957 -4.7472668 4.7102413 0 0 0 0 26.20767
-2.6595848 -4.5052609 4.7349792 0 0 0 0 26.212618
-2.6543159 -4.4358983 4.9538579 0 0 0 0 26.217566
-2.7551033 -5.0704627 4.6839056 0 0 0 0 26.222513
-2.6525362 -4.8104243 4.7196069 0 0 0 0 26.227461
-2.5611145 -4.5672998 4.7423191 0 0 0 0 26.232409
-2.5689263 -4.5047975 4.9661846 0 0 0 0 26.237352
-2.6347165 -5.1397004 4.7023025 0 0 0 0 26.2423
-2.5451407 -4.8785319 4.7369752 0 0 0 0 26.247248
-2.4667444 -4.6372738 4.7606654 0 0 0 0 26.252195
-2.4682317 -4.5488958 4.9524932 0 0 0 0 26.257143
-2.5072033 -5.198019 4.7136908 0 0 0 0 26.262091
-2.4367132 -4.9436464 4.7543392 0 0 0 0 26.267035
-2.369302 -4.7012839 4.7740054 0 0 0 0 26.271982
-2.3532009 -4.5651851 4.9117756 0 0 0 0 26.27693
-2.3888619 -5.2702093 4.7420874 0 0 0 0 26.281878
-2.3252733 -5.0077872 4.7717061 0 0 0 0 26.286825
-2.2708633 -4.7652955 4.7903466 0 0 0 0 26.291769
-2.2370777 -4.5734921 4.8650441 0 0 0 0 26.296717
-2.2623587 -5.328495 4.7604718 0 0 0 0 26.301664
-2.2138274 -5.0709181 4.7920709 0 0 0 0 26.306612
-2.1724725 -4.8332934 4.8116946 0 0 0 0 26.31156
-2.131202 -4.6016469 4.8423305 0 0 0 0 26.316507
-2.1307397 -5.3768411 4.7718472 0 0 0 0 26.321451
-2.1023953 -5.1350393 4.8154368 0 0 0 0 26.326399
-2.0699778 -4.8923402 4.827033 0 0 0 0 26.331347
-2.0366285 -4.654635 4.846642 0 0 0 0 26.336294
-2.0093739 -5.4460368 4.8062415 0 0 0 0 26.341242
-1.9837756 -5.1832528 4.8257852 0 0 0 0 26.346189
-1.9643774 -4.9424272 4.8353596 0 0 0 0 26.351133
-1.9440711 -4.7085919 4.85495 0 0 0 0 26.356081
-1.8777273 -5.4913683 4.8206091 0 0 0 0 26.361029
-1.868242 -5.2384143 4.8451405 0 0 0 0 26.365976
-1.8629801 -5.0094347 4.8617101 0 0 0 0 26.370924
-1.8515993 -4.7695274 4.8722706 0 0 0 0 26.375872
-1.7470992 -5.5376749 4.8399763 0 0 0 0 26.380816
-1.7496768 -5.2906017 4.8644953 0 0 0 0 26.385763
-1.7574457 -5.0644956 4.8800445 0 0 0 0 26.390711
-1.7560562 -4.8245001 4.8845859 0 0 0 0 26.395658
-1.6165212 -5.587966 4.8653507 0 0 0 0 26.400606
-1.6321158 -5.3427696 4.886847 0 0 0 0 26.40555
-1.648852 -5.1145897 4.8943753 0 0 0 0 26.410498
-1.6605488 -4.8824615 4.9009061 0 0 0 0 26.415445
-1.4838446 -5.6292801 4.8867106 0 0 0 0 26.420393
-1.5104285 -5.3839889 4.901186 0 0 0 0 26.425341
-1.5392605 -5.1646857 4.910707 0 0 0 0 26.430288
-1.5640455 -4.9404235 4.9202275 0 0 0 0 26.435232
-1.3495717 -5.6611199 4.9029436 0 0 0 0 26.196268
-1.3933538 -5.4376245 4.9304142 0 0 0 0 26.201216
-1.432117 -5.2172284 4.9329014 0 0 0 0 26.206163
-1.4658079 -4.9898877 4.9333858 0 0 0 0 26.211111
-1.2169601 -5.7064347 4.9333138 0 0 0 0 26.216059
-1.2675539 -5.4679093 4.940742 0 0 0 0 26.221003
-1.3215312 -5.2663431 4.9532361 0 0 0 0 26.22595
-1.3673297 -5.0488772 4.9557166 0 0 0 0 26.230898
-1.0791057 -5.7308264 4.9486537 0 0 0 0 26.235846
-1.1449097 -5.5111341 4.9640884 0 0 0 0 26.240793
-1.2068293 -5.3055077 4.9665594 0 0 0 0 26.245737
-1.2657713 -5.1009016 4.9740391 0 0 0 0 26.250685
-0.94328082 -5.7571831 4.9689927 0 0 0 0 26.255632
-1.0212481 -5.552361 4.9894328 0 0 0 0 26.26058
-1.0921524 -5.3466625 4.9828858 0 0 0 0 26.265528
-1.1600927 -5.1429815 4.9833493 0 0 0 0 26.270475
-0.80753118 -5.7895188 4.9973426 0 0 0 0 26.275419
-0.89553112 -5.5886073 5.0127707 0 0 0 0 26.280367
-0.97646791 -5.3868198 5.0012116 0 0 0 0 26.285315
-1.0586572 -5.2049727 5.0146899 0 0 0 0 26.290262
-0.66972649 -5.816874 5.0236864 0 0 0 0 26.29521
-0.76872081 -5.6168718 5.0300946 0 0 0 0 26.300158
-0.86078817 -5.4269671 5.0225372 0 0 0 0 26.305101
-0.95093757 -5.2430634 5.0249953 0 0 0 0 26.310049
-0.53079903 -5.8332477 5.0440106 0 0 0 0 26.314997
-0.64094162 -5.64713 5.0534239 0 0 0 0 26.319944
-0.7420153 -5.4591527 5.0378523 0 0 0 0 26.324892
-0.84123284 -5.2821636 5.0383067 0 0 0 0 26.32984
-0.3929849 -5.858582 5.0763497 0 0 0 0 26.334784
-0.51313365 -5.6743827 5.0777469 0 0 0 0 26.339731
-0.62330735 -5.4963183 5.0611768 0 0 0 0 26.344679
-0.73260051 -5.3272371 5.0586267 0 0 0 0 26.349627
-0.25390488 -5.8609581 5.0906458 0 0 0 0 26.354574
-0.38322121 -5.6926646 5.0950565 0 0 0 0 26.359518
-0.50461191 -5.5344758 5.0865026 0 0 0 0 26.364466
-0.62193698 -5.3693261 5.0789447 0 0 0 0 26.369413
-0.11508758 -5.8852859 5.1269836 0 0 0 0 26.374361
-0.25341961 -5.7199202 5.1233826 0 0 0 0 26.379309
-0.38383779 -5.5656576 5.1078186 0 0 0 0 26.384256
-0.50919044 -5.4044437 5.0932527 0 0 0 0 26.3892
-0.12341262 -5.7291975 5.1386738 0 0 0 0 26.399096
-0.26101124 -5.591857 5.128129 0 0 0 0 26.404043
-0.39547065 -5.4415593 5.1115661 0 0 0 0 26.408991
-0.13816196 -5.6160541 5.1474347 0 0 0 0 26.42383
-0.27977952 -5.4806809 5.1348867 0 0 0 0 26.428778
-0.015213007 -5.6312575 5.1617231 0 0 0 0 26.443621
-0.16393873 -5.5068183 5.1481824 0 0 0 0 26.448565
-0.046253227 -5.5459442 5.1755061 0 0 0 0 26.468355
0.58229077 -5.8879843 5.2544451 0 0 0 0 26.473299
0.72239393 -5.8843036 5.2867298 0 0 0 0 26.49309
0.53633279 -5.7935038 5.2731786 0 0 0 0 26.498037
0.86158752 -5.8726196 5.3129973 0 0 0 0 26.512877
0.66855562 -5.7817826 5.2844324 0 0 0 0 26.517824
0.49220821 -5.7200842 5.2709575 0 0 0 0 26.522772
1.0007746 -5.8609252 5.3422647 0 0 0 0 26.532663
0.80264008 -5.7810478 5.3107104 0 0 0 0 26.537611
0.61936754 -5.7153177 5.2792139 0 0 0 0 26.542559
0.442689 -5.6825771 5.288794 0 0 0 0 26.547506
1.1391003 -5.8362288 5.3655047 0 0 0 0 26.552454
0.93481284 -5.7722983 5.3319693 0 0 0 0 26.557402
0.75031066 -5.7285466 5.3075123 0 0 0 0 26.562346
0.56491727 -5.6737895 5.282033 0 0 0 0 26.567293
1.2763879 -5.8145094 5.3927484 0 0 0 0 26.572241
1.0680358 -5.7585564 5.3522201 0 0 0 0 26.577188
0.87940109 -5.7287717 5.3257818 0 0 0 0 26.582136
0.69089639 -5.6859927 5.2973194 0 0 0 0 26.58708
1.4137177 -5.7887902 5.417985 0 0 0 0 26.592028
1.2012308 -5.7468023 5.3764749 0 0 0 0 26.596975
1.0104266 -5.7339959 5.3520646 0 0 0 0 26.601923
0.81874281 -5.7091866 5.3256297 0 0 0 0 26.606871
1.5501049 -5.7570567 5.4432077 0 0 0 0 26.611818
1.3353766 -5.7390442 5.4057388 0 0 0 0 26.616762
1.1396085 -5.7252169 5.3683167 0 0 0 0 26.62171
0.94580048 -5.7133913 5.3409023 0 0 0 0 26.626657
1.68452 -5.7223001 5.468421 0 0 0 0 26.631605
1.4715118 -5.7312908 5.4400067 0 0 0 0 26.636553
1.2726378 -5.7294459 5.3976011 0 0 0 0 26.6415
1.0757412 -5.7276015 5.366199 0 0 0 0 26.646444
1.8160236 -5.6795206 5.4876132 0 0 0 0 26.651392
1.6048024 -5.7095242 5.4642425 0 0 0 0 26.65634
1.4038206 -5.7196698 5.4178548 0 0 0 0 26.661287
1.2086667 -5.7428308 5.3945036 0 0 0 0 26.666235
1.951818 -5.6509385 5.5247693 0 0 0 0 26.423018
1.7375088 -5.6908851 5.4934101 0 0 0 0 26.427965
1.5363777 -5.7159905 5.4470491 0 0 0 0 26.432913
1.3391449 -5.748106 5.4167099 0 0 0 0 26.43786
2.0852919 -5.6101828 5.5519686 0 0 0 0 26.442808
1.8689071 -5.6591239 5.5146232 0 0 0 0 26.447752
1.6685991 -5.7022409 5.4682984 0 0 0 0 26.4527
1.4722056 -5.7503643 5.4399915 0 0 0 0 26.457647
2.2158375 -5.562397 5.5771489 0 0 0 0 26.462595
2.0022547 -5.6313677 5.5408478 0 0 0 0 26.467543
1.8066578 -5.7015123 5.5065842 0 0 0 0 26.47249
1.6072503 -5.7536321 5.466279 0 0 0 0 26.477434
2.345413 -5.5116 5.6013222 0 0 0 0 26.482382
2.134629 -5.6005955 5.5680642 0 0 0 0 26.487329
1.938971 -5.6787586 5.525816 0 0 0 0 26.492277
1.741372 -5.7498937 5.4885511 0 0 0 0 26.497225
2.4778957 -5.4678059 5.6365142 0 0 0 0 26.502172
2.2660432 -5.5658121 5.5942712 0 0 0 0 26.507116
2.071301 -5.6539979 5.5460439 0 0 0 0 26.512064
1.8794637 -5.7481799 5.5158348 0 0 0 0 26.517012
2.602531 -5.410955 5.6586652 0 0 0 0 26.521959
2.3984406 -5.5320277 5.6234822 0 0 0 0 26.526907
2.20948 -5.6412601 5.5823069 0 0 0 0 26.531855
2.0195136 -5.7494698 5.5491276 0 0 0 0 26.536798
2.7311397 -5.355125 5.6878271 0 0 0 0 26.541746
2.5328166 -5.4992485 5.6576991 0 0 0 0 26.546694
2.345737 -5.6215086 5.6135521 0 0 0 0 26.551641
2.1567228 -5.7367473 5.5713878 0 0 0 0 26.556589
2.8596838 -5.3042774 5.7239981 0 0 0 0 26.561533
2.6633132 -5.4554405 5.6848869 0 0 0 0 26.566481
2.4791522 -5.5877447 5.6337652 0 0 0 0 26.571428
2.2978625 -5.7290397 5.6036654 0 0 0 0 26.576376
2.983371 -5.2403951 5.7511349 0 0 0 0 26.581324
2.791851 -5.4076118 5.7100639 0 0 0 0 26.586271
2.6164739 -5.5609922 5.6659989 0 0 0 0 26.591215
2.43908 -5.7143369 5.6309295 0 0 0 0 26.596163
3.1031129 -5.1714778 5.7742548 0 0 0 0 26.60111
2.9194286 -5.355772 5.734231 0 0 0 0 26.606058
2.7498982 -5.5252113 5.690208 0 0 0 0 26.611006
2.5783846 -5.6916203 5.6531744 0 0 0 0 26.615953
3.2287483 -5.110589 5.8104014 0 0 0 0 26.620897
3.0479722 -5.3059254 5.7644043 0 0 0 0 26.625845
2.8872759 -5.4924502 5.7224307 0 0 0 0 26.630793
2.7245376 -5.680934 5.6924562 0 0 0 0 26.63574
3.3415811 -5.0326033 5.8294907 0 0 0 0 26.640688
3.1706553 -5.2440405 5.7825432 0 0 0 0 26.645636
3.0207539 -5.4506588 5.7476287 0 0 0 0 26.650579
2.8639221 -5.6502118 5.7126861 0 0 0 0 26.655527
3.4603209 -4.9616508 5.8596058 0 0 0 0 26.660475
3.3041341 -5.1982136 5.8237338 0 0 0 0 26.665422
3.1571987 -5.410881 5.7788363 0 0 0 0 26.67037
3.0092099 -5.6265159 5.7469416 0 0 0 0 26.675314
3.5760896 -4.8876681 5.8887091 0 0 0 0 26.680262
3.42682 -5.1343083 5.8478699 0 0 0 0 26.685209
3.2887645 -5.3600659 5.8020134 0 0 0 0 26.690157
3.1506343 -5.5907979 5.7701664 0 0 0 0 26.695105
3.6889174 -4.8076568 5.9157953 0 0 0 0 26.700052
3.5504858 -5.0714016 5.876009 0 0 0 0 26.704996
3.4282019 -5.3192949 5.8402257 0 0 0 0 26.709944
3.2950263 -5.5570931 5.7994003 0 0 0 0 26.714891
3.7948165 -4.7215886 5.9348569 0 0 0 0 26.719839
3.6722136 -5.0024772 5.901134 0 0 0 0 26.724787
3.5588222 -5.2624617 5.86339 0 0 0 0 26.729734
3.4404535 -5.5193911 5.8296299 0 0 0 0 26.734678
3.9115779 -4.6455874 5.97296 0 0 0 0 26.739626
3.7949207 -4.9345512 5.930263 0 0 0 0 26.744574
3.6914299 -5.2056336 5.8915586 0 0 0 0 26.749521
3.5849197 -5.4776769 5.8588495 0 0 0 0 26.754469
4.0164685 -4.5584922 5.9980192 0 0 0 0 26.759417
3.9107263 -4.8575673 5.9523616 0 0 0 0 26.76436
3.827018 -5.1498227 5.9237351 0 0 0 0 26.769308
3.733351 -5.4379826 5.895081 0 0 0 0 26.774256
4.1144514 -4.4633436 6.0140491 0 0 0 0 26.779203
4.0314536 -4.7866106 5.9834814 0 0 0 0 26.784151
3.9576697 -5.0879669 5.9518914 0 0 0 0 26.789095
3.8739409 -5.384232 5.9182706 0 0 0 0 26.794043
4.2193356 -4.3752322 6.0441074 0 0 0 0 26.79899
4.1522031 -4.7126465 6.0165963 0 0 0 0 26.803938
4.0893345 -5.0241127 5.9820457 0 0 0 0 26.808886
4.0224471 -5.3365307 5.9534883 0 0 0 0 26.813833
4.3143325 -4.2770414 6.0641274 0 0 0 0 26.818777
4.2610927 -4.6265898 6.0356655 0 0 0 0 26.823725
4.222012 -4.9582601 6.0141988 0 0 0 0 26.828672
4.168025 -5.2818012 5.9856868 0 0 0 0 26.83362
4.4152365 -4.1858835 6.0951724 0 0 0 0 26.838568
4.3798819 -4.5475974 6.069768 0 0 0 0 26.843515
4.3537135 -4.8893919 6.0473447 0 0 0 0 26.848459
4.3156061 -5.2260823 6.0198874 0 0 0 0 26.853407
4.5072441 -4.0856562 6.1161842 0 0 0 0 26.858355
4.4927402 -4.4625568 6.096848 0 0 0 0 26.863302
4.4745717 -4.8064399 6.0674434 0 0 0 0 26.86825
4.4267282 -5.1230993 6.005928 0 0 0 0 26.873198
4.6031919 -3.9894466 6.1462116 0 0 0 0 26.878141
4.5937409 -4.3644204 6.1128807 0 0 0 0 26.883089
4.5391388 -4.6640859 6.01232 0 0 0 0 26.888037
4.4746432 -4.9526572 5.9117184 0 0 0 0 26.892984
4.6890359 -3.8869307 6.1680732 0 0 0 0 26.643808
4.6440153 -4.2236876 6.0656171 0 0 0 0 26.648756
4.5894728 -4.5143785 5.9480543 0 0 0 0 26.653704
4.5260491 -4.7929835 5.8304501 0 0 0 0 26.658651
4.7513313 -3.7644837 6.15798 0 0 0 0 26.663599
4.6915751 -4.0821667 6.0184569 0 0 0 0 26.668547
4.6272817 -4.3538184 5.8708372 0 0 0 0 26.673491
4.5827594 -4.6415935 5.7602878 0 0 0 0 26.678438
4.7908244 -3.6258569 6.1248116 0 0 0 0 26.683386
4.7311811 -3.9365778 5.9652743 0 0 0 0 26.688334
4.6847968 -4.2163877 5.8257055 0 0 0 0 26.693281
4.6315145 -4.4861331 5.6851034 0 0 0 0 26.698225
4.8282914 -3.4892073 6.0926433 0 0 0 0 26.703173
4.7756901 -3.7980125 5.9241157 0 0 0 0 26.70812
4.7304115 -4.0708642 5.7675357 0 0 0 0 26.713068
4.6851597 -4.3386941 5.6229453 0 0 0 0 26.718016
4.8706617 -3.3595817 6.0724998 0 0 0 0 26.722963
4.8181705 -3.6614225 5.8849583 0 0 0 0 26.727907
4.770031 -3.9242811 5.709352 0 0 0 0 26.732855
4.7387509 -4.1952424 5.5657949 0 0 0 0 26.737803
4.9110255 -3.229933 6.0533528 0 0 0 0 26.74275
4.8556581 -3.5237844 5.844789 0 0 0 0 26.747698
4.8204947 -3.7897692 5.6682148 0 0 0 0 26.752645
4.7814212 -4.0446992 5.5006108 0 0 0 0 26.757589
4.9444184 -3.0982289 6.0271893 0 0 0 0 26.762537
4.9010301 -3.3951986 5.8166547 0 0 0 0 26.767485
4.8649778 -3.6532013 5.625062 0 0 0 0 26.772432
4.826993 -3.9021671 5.4434481 0 0 0 0 26.77738
4.980741 -2.9715357 6.0100417 0 0 0 0 26.782328
4.942409 -3.2655747 5.7875109 0 0 0 0 26.787271
4.9074345 -3.518611 5.5829105 0 0 0 0 26.792219
4.869566 -3.7586005 5.3882794 0 0 0 0 26.797167
5.0120721 -2.8437967 5.9908834 0 0 0 0 26.802114
4.9777994 -3.1348975 5.7553539 0 0 0 0 26.807062
4.9478941 -3.3829978 5.5417533 0 0 0 0 26.812006
4.919023 -3.6240761 5.3451419 0 0 0 0 26.816954
5.0463505 -2.7200756 5.9767394 0 0 0 0 26.821901
5.0111814 -3.0041962 5.725194 0 0 0 0 26.826849
4.9843259 -3.249341 5.5025935 0 0 0 0 26.831797
4.9555831 -3.4804468 5.2909627 0 0 0 0 26.836744
5.0805936 -2.5983422 5.9685993 0 0 0 0 26.841688
5.0484972 -2.8785181 5.7020526 0 0 0 0 26.846636
5.0187626 -3.1146638 5.463429 0 0 0 0 26.851583
5.0089397 -3.3529339 5.2598486 0 0 0 0 26.856531
5.1108599 -2.4745767 5.9564495 0 0 0 0 26.861479
5.0877724 -2.7548428 5.6869197 0 0 0 0 26.866426
5.0660648 -2.9900763 5.441309 0 0 0 0 26.87137
5.0474 -3.2162979 5.2176881 0 0 0 0 26.876318
5.1410871 -2.3538048 5.9473057 0 0 0 0 26.881266
5.1309981 -2.6351964 5.6758027 0 0 0 0 26.886213
5.1063976 -2.8624265 5.4161711 0 0 0 0 26.891161
5.0878167 -3.0826693 5.1805391 0 0 0 0 26.896109
5.1822262 -2.2381022 5.9561944 0 0 0 0 26.901052
5.1632829 -2.5104594 5.6566558 0 0 0 0 26.906
5.1397452 -2.7337184 5.3860183 0 0 0 0 26.910948
5.1311898 -2.9520581 5.1484017 0 0 0 0 26.915895
