# .PCD v0.7 - Point Cloud Data file format
VERSION 0.7
FIELDS x y z normal_x normal_y normal_z intensity curvature
SIZE 4 4 4 4 4 4 4 4
TYPE F F F F F F F F
COUNT 1 1 1 1 1 1 1 1
WIDTH 976
HEIGHT 1
VIEWPOINT 0 0 0 1 0 0 0
POINTS 976
DATA ascii
1.0574191 -4.6429 2.9855075 0 0 0 0 46.058693
0.93861836 -4.6479931 2.8803675 0 0 0 0 46.063644
0.83277518 -4.6479826 2.7782359 0 0 0 0 46.068588
0.71988827 -4.6420283 2.6750829 0 0 0 0 46.07354
1.1738281 -4.6958904 3.0378361 0 0 0 0 46.078484
1.043627 -4.6401534 2.8885643 0 0 0 0 46.083427
0.94077086 -4.6371346 2.7794311 0 0 0 0 46.088379
0.83297962 -4.6441398 2.6783099 0 0 0 0 46.093323
1.2685757 -4.6501594 3.026947 0 0 0 0 46.098274
1.1640465 -4.6931243 2.9338992 0 0 0 0 46.103218
1.0487801 -4.6282825 2.7816305 0 0 0 0 46.10817
0.94400072 -4.6362715 2.6775155 0 0 0 0 46.113113
1.3674529 -4.6243663 3.0311017 0 0 0 0 46.118057
1.2627898 -4.646368 2.9200139 0 0 0 0 46.123009
1.1773196 -4.6981773 2.8340094 0 0 0 0 46.127953
1.0559801 -4.6223989 2.6737108 0 0 0 0 46.132904
1.4857376 -4.659348 3.0754001 0 0 0 0 46.137848
1.3636307 -4.6145725 2.9171598 0 0 0 0 46.142792
1.2759787 -4.6384411 2.809099 0 0 0 0 46.147743
1.190569 -4.6982498 2.7241101 0 0 0 0 46.152687
1.5906914 -4.6454844 3.0895865 0 0 0 0 46.157639
1.4849166 -4.6485415 2.9554603 0 0 0 0 46.162582
1.3818572 -4.6116061 2.8062613 0 0 0 0 46.167534
1.2942563 -4.6424723 2.7002141 0 0 0 0 46.172478
1.6986825 -4.6375837 3.1097887 0 0 0 0 46.177422
1.5949022 -4.6386404 2.9686615 0 0 0 0 46.182373
1.5081414 -4.6445422 2.8405674 0 0 0 0 46.187317
1.400043 -4.6016574 2.6863494 0 0 0 0 46.192268
1.829054 -4.6864352 3.169132 0 0 0 0 46.197212
1.7129992 -4.6456499 2.9949067 0 0 0 0 46.202156
1.6200831 -4.6276383 2.8467579 0 0 0 0 46.207108
1.5344012 -4.6445265 2.7226863 0 0 0 0 46.212051
2.1942008 -5.2957616 3.6098874 0 0 0 0 46.217003
1.8422637 -4.6775384 3.0382161 0 0 0 0 46.221947
1.7421981 -4.6366191 2.8710127 0 0 0 0 46.226891
1.651353 -4.6285863 2.726886 0 0 0 0 46.231842
2.3232007 -5.2896686 3.6391261 0 0 0 0 46.236786
2.2683344 -5.4172707 3.5423131 0 0 0 0 46.241737
1.8947821 -4.7142806 2.9384439 0 0 0 0 46.246681
1.7764257 -4.630558 2.7431314 0 0 0 0 46.251633
2.4612834 -5.2964797 3.680403 0 0 0 0 46.256577
2.3992312 -5.395185 3.5585241 0 0 0 0 46.26152
2.0970659 -4.8944302 3.0721445 0 0 0 0 46.266472
1.976703 -4.8077474 2.8648233 0 0 0 0 46.271416
2.5371993 -5.3840246 3.5837665 0 0 0 0 46.281311
2.2250383 -4.8833652 3.0903709 0 0 0 0 46.286255
2.1757934 -4.957963 2.974463 0 0 0 0 46.291206
2.6768939 -5.3726244 3.6089568 0 0 0 0 46.003563
2.3578608 -4.877943 3.1125951 0 0 0 0 46.008507
2.3135943 -4.9504986 2.9906871 0 0 0 0 46.013458
2.8097377 -5.3435349 3.6271572 0 0 0 0 46.023354
2.4877958 -4.8618789 3.1318135 0 0 0 0 46.028297
2.4546027 -4.9443488 3.01194 0 0 0 0 46.033241
2.953697 -5.3323317 3.6594067 0 0 0 0 46.043137
2.6267946 -4.8557291 3.1590638 0 0 0 0 46.048088
2.5965881 -4.9351873 3.0331888 0 0 0 0 46.053032
3.0965996 -5.313139 3.6886399 0 0 0 0 46.062927
2.7678041 -4.8515539 3.1893206 0 0 0 0 46.067871
2.7405493 -4.9230056 3.0554349 0 0 0 0 46.072823
3.2343993 -5.278996 3.7098374 0 0 0 0 46.082718
2.9117877 -4.8443489 3.221576 0 0 0 0 46.087662
2.893553 -4.917738 3.084707 0 0 0 0 46.092606
3.380275 -5.2567687 3.7410693 0 0 0 0 46.102501
3.0597622 -4.8361077 3.2548354 0 0 0 0 46.107452
3.0444987 -4.9044862 3.1119614 0 0 0 0 46.112396
3.5291381 -5.2335095 3.7753036 0 0 0 0 46.122292
3.2087181 -4.8258514 3.2900927 0 0 0 0 46.127235
3.1933811 -4.8822536 3.1351957 0 0 0 0 46.132187
3.6819901 -5.2092123 3.8115413 0 0 0 0 46.142075
3.3656909 -4.8185225 3.3293669 0 0 0 0 46.147026
3.3563662 -4.8758845 3.1714804 0 0 0 0 46.15197
3.8398647 -5.1888628 3.8527942 0 0 0 0 46.161865
3.5327165 -4.8200917 3.3796725 0 0 0 0 46.166817
3.5142314 -4.8525639 3.2007258 0 0 0 0 46.171761
4.0279527 -5.2012272 3.9211524 0 0 0 0 46.181656
3.6835535 -4.7938142 3.4119024 0 0 0 0 46.1866
3.6851857 -4.8431163 3.2420163 0 0 0 0 46.191551
4.1907625 -5.1728272 3.964397 0 0 0 0 46.201439
3.8726625 -4.809175 3.4782665 0 0 0 0 46.20639
3.8540688 -4.8236876 3.279285 0 0 0 0 46.211334
4.0475874 -4.7976704 3.528559 0 0 0 0 46.226173
4.0279379 -4.8032079 3.320559 0 0 0 0 46.231125
4.5620451 -5.1660094 3.8640647 0 0 0 0 46.245964
4.2118144 -4.7846379 3.3668509 0 0 0 0 46.250916
4.8072515 -5.1988592 3.9615448 0 0 0 0 46.265755
4.4037189 -4.770987 3.4201639 0 0 0 0 46.270699
4.9969997 -5.1642151 4.0138164 0 0 0 0 46.285538
4.5975566 -4.7483201 3.4714625 0 0 0 0 46.290489
5.1866755 -5.1195736 4.0620685 0 0 0 0 46.305328
4.8044324 -4.7325277 3.5327928 0 0 0 0 46.31028
5.4085135 -5.1006284 4.1364164 0 0 0 0 46.325119
5.0182886 -4.7146702 3.5971296 0 0 0 0 46.330063
5.6443782 -5.0865536 4.2187934 0 0 0 0 46.344902
5.2682791 -4.7184801 3.68556 0 0 0 0 46.349854
5.5201945 -4.7122722 3.7719738 0 0 0 0 46.369637
6.271718 -5.2143822 4.8010583 0 0 0 0 46.379532
6.3069444 -5.1322184 4.2119818 0 0 0 0 46.389427
6.5394387 -5.0671844 4.2752557 0 0 0 0 46.409218
6.8170924 -5.0277367 4.3666444 0 0 0 0 46.429001
8.0528603 -5.3308797 5.6412115 0 0 0 0 46.22477
8.1026907 -5.241159 5.2831259 0 0 0 0 46.229713
8.1445599 -5.1574879 4.9310408 0 0 0 0 46.234665
8.0022888 -5.1735773 5.9458938 0 0 0 0 46.239609
7.1545973 -4.5110006 4.9354372 0 0 0 0 46.24456
7.2395563 -4.4508786 4.6474576 0 0 0 0 46.249504
7.3426256 -4.4075904 4.3735352 0 0 0 0 46.254456
7.2337832 -4.4635973 5.2995114 0 0 0 0 46.259399
7.2966452 -4.3817439 4.9604583 0 0 0 0 46.264343
7.4096117 -4.3243861 4.6825228 0 0 0 0 46.269295
7.5617695 -4.2966752 4.4316998 0 0 0 0 46.274239
7.3678513 -4.3373966 5.3255267 0 0 0 0 46.27919
7.5400038 -4.3045769 5.0507221 0 0 0 0 46.284134
7.7451997 -4.2854147 4.8209906 0 0 0 0 46.289078
7.9604764 -4.2771683 4.594295 0 0 0 0 46.294029
7.6734743 -4.304636 5.4719648 0 0 0 0 46.298973
7.8204389 -4.2420669 5.1670671 0 0 0 0 46.303925
8.0144749 -4.1990232 4.9192734 0 0 0 0 46.308868
8.3068733 -4.2121158 4.7247286 0 0 0 0 46.31382
7.8806949 -4.2077613 5.5491395 0 0 0 0 46.318764
8.1770163 -4.2068653 5.3325725 0 0 0 0 46.323708
8.4531794 -4.1861172 5.1189384 0 0 0 0 46.328659
8.7273865 -4.1694012 4.8963099 0 0 0 0 46.333603
8.2593832 -4.1923242 5.7447152 0 0 0 0 46.338554
8.5625553 -4.1693997 5.5131149 0 0 0 0 46.343498
9.2988968 -4.345582 5.558516 0 0 0 0 46.348442
9.6451054 -4.3292961 5.3389907 0 0 0 0 46.353394
8.8966846 -4.28653 6.1158714 0 0 0 0 46.358337
9.4232864 -4.3376575 5.9927325 0 0 0 0 46.363289
9.8254595 -4.3218775 5.8022871 0 0 0 0 46.368233
10.061212 -4.2326012 5.5014625 0 0 0 0 46.373177
9.5056829 -4.3369894 6.4599037 0 0 0 0 46.378128
9.9328184 -4.312057 6.2464757 0 0 0 0 46.383072
10.000976 -4.1272931 5.8362269 0 0 0 0 46.388023
10.063212 -3.9555492 5.4399948 0 0 0 0 46.392967
9.8759136 -4.2596107 6.6383491 0 0 0 0 46.397919
9.9480181 -4.0608974 6.187078 0 0 0 0 46.402863
10.000074 -3.8632641 5.7747798 0 0 0 0 46.407806
10.045188 -3.6746674 5.3714895 0 0 0 0 46.412758
9.8661642 -4.0126767 6.562923 0 0 0 0 46.417702
9.9411926 -3.8059278 6.1186385 0 0 0 0 46.422653
9.9891596 -3.5973229 5.708312 0 0 0 0 46.427597
10.031208 -3.4017413 5.3100028 0 0 0 0 46.432541
9.8714714 -3.7765946 6.5035372 0 0 0 0 46.437492
9.9293776 -3.5529957 6.0511947 0 0 0 0 46.442436
9.9842949 -3.3403177 5.6508689 0 0 0 0 46.447388
10.035295 -3.1406472 5.2625632 0 0 0 0 46.452332
9.8617687 -3.5386465 6.4361248 0 0 0 0 46.457275
9.9205894 -3.306025 5.9917645 0 0 0 0 46.462227
9.9684334 -3.0844011 5.5924101 0 0 0 0 46.467171
10.020354 -2.875716 5.208087 0 0 0 0 46.472122
9.8681116 -3.3095455 6.3827505 0 0 0 0 46.477066
9.9188452 -3.0659902 5.9373565 0 0 0 0 46.482018
9.9555836 -2.8314538 5.5379596 0 0 0 0 46.486961
10.008452 -2.6177483 5.1606269 0 0 0 0 46.491905
9.8654451 -3.0795214 6.3263602 0 0 0 0 46.496857
9.9171085 -2.8289437 5.8889527 0 0 0 0 46.501801
9.9617939 -2.58933 5.4975557 0 0 0 0 46.506752
10.006579 -2.3656843 5.1221905 0 0 0 0 46.511696
9.8477821 -2.8496273 6.2639475 0 0 0 0 46.51664
9.9093723 -2.5919507 5.8375382 0 0 0 0 46.521591
9.9469833 -2.3443835 5.4511142 0 0 0 0 46.526535
9.9826822 -2.1098118 5.0747137 0 0 0 0 46.531487
9.842144 -2.6256177 6.2125611 0 0 0 0 46.53643
9.9006472 -2.3579581 5.7901263 0 0 0 0 46.541382
9.9271927 -2.1024787 5.4036703 0 0 0 0 46.546326
9.989851 -1.8666561 5.0473042 0 0 0 0 46.55127
9.8325167 -2.4036381 6.1621714 0 0 0 0 46.556221
9.8939495 -2.1289401 5.7477255 0 0 0 0 46.561165
9.9204149 -1.8644544 5.3652501 0 0 0 0 46.566116
9.9850101 -1.6226008 5.0168738 0 0 0 0 46.57106
9.8298912 -2.183594 6.1167936 0 0 0 0 46.576004
9.8872509 -1.9009188 5.707325 0 0 0 0 46.580956
9.9256668 -1.6333095 5.339859 0 0 0 0 46.585899
9.9551611 -1.3767594 4.9784026 0 0 0 0 46.590851
9.8202791 -1.9656075 6.0704088 0 0 0 0 46.595795
9.8735542 -1.6739532 5.6669149 0 0 0 0 46.600739
9.9159031 -1.3992995 5.3064394 0 0 0 0 46.60569
9.9403391 -1.1367801 4.9499621 0 0 0 0 46.610634
9.8176794 -1.7515479 6.0330405 0 0 0 0 46.615585
9.8648615 -1.4489385 5.6315145 0 0 0 0 46.620529
9.8881397 -1.1654425 5.267993 0 0 0 0 46.625481
9.9385061 -0.89768243 4.9295406 0 0 0 0 46.630424
9.8040762 -1.5365881 5.9896522 0 0 0 0 46.635368
9.861187 -1.2278724 5.6021266 0 0 0 0 46.64032
9.879384 -0.93540949 5.2425785 0 0 0 0 46.645264
9.9256916 -0.66167206 4.9091072 0 0 0 0 46.650215
9.8024759 -1.3245133 5.9562855 0 0 0 0 46.655159
9.8554983 -1.0058225 5.5727329 0 0 0 0 46.660103
9.8736258 -0.70634699 5.2201686 0 0 0 0 46.665054
9.9108648 -0.42467812 4.8886676 0 0 0 0 46.669998
9.7958651 -1.1114807 5.9219079 0 0 0 0 46.67495
9.8398228 -0.78585458 5.5423269 0 0 0 0 46.679893
9.8668823 -0.48028666 5.2007623 0 0 0 0 46.684837
9.9020309 -0.18862471 4.8742366 0 0 0 0 46.689789
9.7789106 -0.90246892 5.8847284 0 0 0 0 46.435074
9.8238277 -0.56780809 5.5131454 0 0 0 0 46.440018
9.8568716 -0.25715765 5.1835928 0 0 0 0 46.444969
9.8839931 0.042455673 4.8590536 0 0 0 0 46.449913
9.7833586 -0.69632262 5.8633876 0 0 0 0 46.454865
9.804203 -0.35186243 5.4857502 0 0 0 0 46.459808
9.8391743 -0.034177832 5.1661854 0 0 0 0 46.464752
9.8762188 0.27253625 4.8536439 0 0 0 0 46.469704
9.7607832 -0.48541555 5.8279977 0 0 0 0 46.474648
9.7985506 -0.13478811 5.4683704 0 0 0 0 46.479599
9.8354454 0.1909249 5.1557908 0 0 0 0 46.484543
9.8584366 0.50353223 4.8452168 0 0 0 0 46.489487
9.7412214 -0.27747768 5.7966161 0 0 0 0 46.494438
9.7858944 0.082229018 5.4499793 0 0 0 0 46.499382
9.8097363 0.4138411 5.1383677 0 0 0 0 46.504333
9.849617 0.73760825 4.841794 0 0 0 0 46.509277
9.7396507 -0.071373396 5.7782626 0 0 0 0 46.514229
9.7752438 0.29726946 5.4355936 0 0 0 0 46.519173
9.7969999 0.63787842 5.1309595 0 0 0 0 46.524117
9.8337975 0.97063297 4.8403621 0 0 0 0 46.529068
9.7280664 0.13664204 5.754889 0 0 0 0 46.534012
9.7645626 0.51530945 5.4211993 0 0 0 0 46.538963
9.77425 0.86382675 5.1185317 0 0 0 0 46.543907
9.8159866 1.2016436 4.8399296 0 0 0 0 46.548851
9.716464 0.34566501 5.7355118 0 0 0 0 46.553802
9.751894 0.73034334 5.4118071 0 0 0 0 46.558746
9.7774839 1.0880153 5.1241417 0 0 0 0 46.563698
9.8061295 1.4367287 4.8454981 0 0 0 0 46.568642
9.7038689 0.55268365 5.7181358 0 0 0 0 46.573586
9.7361994 0.94834912 5.4004025 0 0 0 0 46.578537
9.7577391 1.3100085 5.1227221 0 0 0 0 46.583481
9.8002796 1.6688614 4.8590765 0 0 0 0 46.588432
9.7012644 0.75879896 5.7097735 0 0 0 0 46.593376
9.7185249 1.1623468 5.393002 0 0 0 0 46.598328
9.7539434 1.5361457 5.1303158 0 0 0 0 46.603271
9.772438 1.9008 4.8626223 0 0 0 0 46.608215
9.6856327 0.96879709 5.6943836 0 0 0 0 46.613167
9.7167978 1.3804926 5.3966141 0 0 0 0 46.618111
9.7391319 1.7641875 5.1338873 0 0 0 0 46.623062
9.7605429 2.1368866 4.8771806 0 0 0 0 46.628006
9.6789932 1.1778821 5.687007 0 0 0 0 46.63295
9.7010603 1.6005131 5.3932009 0 0 0 0 46.637901
9.7193298 1.9901936 5.1394544 0 0 0 0 46.642845
9.7386379 2.3738897 4.8897204 0 0 0 0 46.647797
9.6703367 1.3879552 5.6816235 0 0 0 0 46.65274
9.6833286 1.8185235 5.3927865 0 0 0 0 46.657684
9.7054834 2.2202547 5.1490197 0 0 0 0 46.662636
9.7217054 2.6129401 4.9062619 0 0 0 0 46.66758
9.6476774 1.5989045 5.670217 0 0 0 0 46.672531
9.6805296 2.0426729 5.4023795 0 0 0 0 46.677475
9.686636 2.44928 5.1605783 0 0 0 0 46.682426
9.6927843 2.8498929 4.9217882 0 0 0 0 46.68737
9.6409655 1.8140006 5.6688228 0 0 0 0 46.692314
9.6637468 2.2647026 5.4079556 0 0 0 0 46.697266
9.6737356 2.6833644 5.1781335 0 0 0 0 46.702209
9.6947422 3.09813 4.9563346 0 0 0 0 46.707161
9.6392393 2.0291507 5.6744342 0 0 0 0 46.712105
9.6509275 2.4897738 5.418529 0 0 0 0 46.717049
9.6638231 2.9174809 5.1996908 0 0 0 0 46.722
9.6767359 3.3421936 4.9838586 0 0 0 0 46.726944
9.624506 2.2451887 5.676024 0 0 0 0 46.731895
9.6351013 2.714823 5.4300961 0 0 0 0 46.736839
9.6468744 3.155539 5.2202287 0 0 0 0 46.741791
9.6377687 3.5820735 5.0033588 0 0 0 0 46.746735
9.6087666 2.4612184 5.6776099 0 0 0 0 46.751678
9.6182289 2.9448657 5.4426503 0 0 0 0 46.75663
9.6169481 3.3904893 5.2387519 0 0 0 0 46.761574
9.6286383 3.8382306 5.0418673 0 0 0 0 46.766525
9.596981 2.6812918 5.6851916 0 0 0 0 46.771469
9.596365 3.1728704 5.4561996 0 0 0 0 46.776413
9.6029444 3.632587 5.2672815 0 0 0 0 46.781364
9.6015501 4.0892334 5.0753579 0 0 0 0 46.786308
9.5721903 2.9022505 5.6877518 0 0 0 0 46.79126
9.5904055 3.410027 5.481751 0 0 0 0 46.796204
9.5858936 3.8796628 5.2967954 0 0 0 0 46.801147
9.5863638 4.350348 5.1168427 0 0 0 0 46.806099
9.5683155 3.1304078 5.7053246 0 0 0 0 46.811043
9.5574989 3.6419423 5.4952726 0 0 0 0 46.815994
9.5508909 4.120585 5.3222928 0 0 0 0 46.820938
9.5562153 4.6063366 5.1553154 0 0 0 0 46.82589
9.5395012 3.3523397 5.7108727 0 0 0 0 46.830833
9.5444832 3.8840485 5.5238004 0 0 0 0 46.835777
9.5407238 4.3787389 5.3627901 0 0 0 0 46.840729
9.5389624 4.8724537 5.2057834 0 0 0 0 46.845673
9.5295706 3.5854545 5.7314234 0 0 0 0 46.850624
9.5294523 4.127142 5.5543208 0 0 0 0 46.855568
9.5156107 4.6297655 5.4002771 0 0 0 0 46.860512
9.5186462 5.1455479 5.2572303 0 0 0 0 46.865463
9.5146294 3.8195264 5.7509637 0 0 0 0 46.870407
9.4974327 4.3690844 5.5778174 0 0 0 0 46.875359
9.4854507 4.8857536 5.4387455 0 0 0 0 46.880302
9.4883308 5.4175615 5.3086634 0 0 0 0 46.885254
9.4896774 4.0545111 5.7674851 0 0 0 0 46.890198
9.4793167 4.6201634 5.6133137 0 0 0 0 46.895142
9.4711542 5.1558928 5.4882059 0 0 0 0 46.900093
9.4589605 5.694593 5.3650846 0 0 0 0 46.905037
9.4720249 4.2940998 5.7915969 0 0 0 0 46.707405
9.4585829 4.8757563 5.6484084 0 0 0 0 46.712357
9.446373 5.4224844 5.5362916 0 0 0 0 46.7173
9.4330587 5.9812083 5.4261479 0 0 0 0 46.722244
9.4569626 4.54319 5.8201098 0 0 0 0 46.727196
9.4393959 5.1368437 5.6918888 0 0 0 0 46.73214
9.4180546 5.6975155 5.587728 0 0 0 0 46.737091
9.4135389 6.2773485 5.496552 0 0 0 0 46.742035
9.4349022 4.7912235 5.8486133 0 0 0 0 46.746979
9.40522 5.3967977 5.7283478 0 0 0 0 46.75193
9.3916817 5.9775743 5.645155 0 0 0 0 46.756874
9.3680735 6.5672626 5.5579286 0 0 0 0 46.761826
9.4147692 5.0462875 5.8841023 0 0 0 0 46.766769
9.3859234 5.6688962 5.777801 0 0 0 0 46.771721
9.3652391 6.2646403 5.7065654 0 0 0 0 46.776665
9.3464193 6.8764062 5.638298 0 0 0 0 46.781609
9.3926001 5.3053336 5.9185796 0 0 0 0 46.78656
9.3536482 5.9378848 5.8242402 0 0 0 0 46.791504
9.3248129 6.5495863 5.7639575 0 0 0 0 46.796455
9.3127213 7.1904497 5.7166381 0 0 0 0 46.801399
9.3693762 5.5693808 5.9580421 0 0 0 0 46.806343
9.3252439 6.2209191 5.8776546 0 0 0 0 46.811295
9.3091488 6.8597727 5.8413315 0 0 0 0 46.816238
9.2739868 7.5074582 5.7979622 0 0 0 0 46.82119
9.3420887 5.8403974 5.9984827 0 0 0 0 46.826134
9.2967854 6.5089631 5.9360557 0 0 0 0 46.831078
9.2854252 7.1759005 5.9216795 0 0 0 0 46.836029
9.2440805 7.8425674 5.893259 0 0 0 0 46.840973
9.3167362 6.1174436 6.0459113 0 0 0 0 46.845924
9.2821541 6.8151474 6.0084372 0 0 0 0 46.850868
9.2377977 7.480813 5.9910131 0 0 0 0 46.85582
9.211072 8.1886578 5.9915266 0 0 0 0 46.860764
9.2903166 6.4014878 6.0963221 0 0 0 0 46.865707
9.2415886 7.1141 6.0697937 0 0 0 0 46.870659
9.2069511 7.808898 6.078321 0 0 0 0 46.875603
9.1720171 8.5387087 6.0937743 0 0 0 0 46.880554
9.2727604 6.6996264 6.1577144 0 0 0 0 46.885498
9.2168388 7.4322143 6.1471314 0 0 0 0 46.890442
9.1799402 8.1550322 6.1735945 0 0 0 0 46.895393
9.109046 8.8785496 6.1880059 0 0 0 0 46.900337
9.2441578 7.0026736 6.2180786 0 0 0 0 46.905289
9.1880217 7.7572994 6.2264462 0 0 0 0 46.910233
9.1330013 8.491991 6.2628555 0 0 0 0 46.915176
9.0667696 9.2516012 6.3031955 0 0 0 0 46.920128
9.2125235 7.3086991 6.279429 0 0 0 0 46.925072
9.1491613 8.0863075 6.3077359 0 0 0 0 46.930023
9.096837 8.8530712 6.3680797 0 0 0 0 46.934967
9.0094614 9.6275282 6.4173551 0 0 0 0 46.939919
9.1916876 7.6358438 6.3557496 0 0 0 0 46.944862
9.1141424 8.4323635 6.3969932 0 0 0 0 46.949806
9.0377588 9.2039471 6.4642887 0 0 0 0 46.954758
8.9718313 10.037666 6.555469 0 0 0 0 46.959702
9.1498909 7.9587989 6.4230456 0 0 0 0 46.964653
9.0492764 8.7611475 6.4722404 0 0 0 0 46.969597
8.9894028 9.5849457 6.5774479 0 0 0 0 46.974541
8.9251127 10.45674 6.6975479 0 0 0 0 46.979492
9.0921307 8.276618 6.4873266 0 0 0 0 46.984436
9.008069 9.1261787 6.5734434 0 0 0 0 46.989388
8.9538002 9.9920864 6.7085681 0 0 0 0 46.994331
8.8771839 10.898823 6.8485737 0 0 0 0 46.999283
9.0461645 8.6165581 6.5645761 0 0 0 0 47.004227
8.9637232 9.5061951 6.6796088 0 0 0 0 47.009171
8.9031639 10.402102 6.8386574 0 0 0 0 47.014122
8.8132582 11.338779 7.0015774 0 0 0 0 47.019066
9.0099487 8.9836121 6.6567807 0 0 0 0 47.024017
8.9162779 9.8962011 6.7927446 0 0 0 0 47.028961
8.8562765 10.839179 6.9826922 0 0 0 0 47.033905
8.7431879 11.793701 7.1615376 0 0 0 0 47.038857
8.9795704 9.366744 6.7639565 0 0 0 0 47.0438
8.8745947 10.311286 6.9208336 0 0 0 0 47.048752
8.8052845 11.28624 7.134697 0 0 0 0 47.053696
8.4368982 11.939285 7.1347985 0 0 0 0 47.05864
8.949008 9.7698927 6.878088 0 0 0 0 47.063591
8.8336983 10.749402 7.0598726 0 0 0 0 47.068535
8.6028233 11.563823 7.1768336 0 0 0 0 47.073486
8.0872383 12.013432 7.0731444 0 0 0 0 47.07843
8.9033804 10.179916 6.9921794 0 0 0 0 47.083382
8.7856846 11.19947 7.2038722 0 0 0 0 47.088326
8.2601194 11.645996 7.1021743 0 0 0 0 47.093269
7.752419 12.104715 7.0234747 0 0 0 0 47.098221
8.8427458 10.58981 7.1032462 0 0 0 0 47.103165
8.5961056 11.491151 7.2439957 0 0 0 0 47.108116
7.9490752 11.764484 7.0564828 0 0 0 0 47.11306
7.4127855 12.17394 6.9688435 0 0 0 0 47.118004
8.8382778 11.090289 7.2712007 0 0 0 0 47.122955
8.2178564 11.524936 7.1283855 0 0 0 0 47.127899
7.6222687 11.855808 6.9988241 0 0 0 0 47.132851
7.0683327 12.222104 6.9082479 0 0 0 0 47.137794
8.6398144 11.370849 7.2903328 0 0 0 0 47.142738
7.8733048 11.591045 7.0387549 0 0 0 0 47.14769
7.2995076 11.94116 6.942183 0 0 0 0 47.152634
6.7239261 12.264259 6.8486643 0 0 0 0 47.157585
8.3060083 11.46805 7.2006531 0 0 0 0 47.162529
7.5702233 11.714574 6.9880619 0 0 0 0 47.16748
6.989625 12.038638 6.8995328 0 0 0 0 47.172424
6.3885298 12.304491 6.7930961 0 0 0 0 47.177368
7.9318295 11.510986 7.0784321 0 0 0 0 47.960785
7.2670679 11.842922 6.945683 0 0 0 0 47.965729
6.6607804 12.115433 6.8441558 0 0 0 0 47.970673
6.047965 12.334866 6.7357388 0 0 0 0 47.975624
7.6237211 11.633277 7.0127015 0 0 0 0 47.980568
6.9738793 11.969396 6.9069629 0 0 0 0 47.985519
6.3440924 12.18567 6.7965269 0 0 0 0 47.990463
5.7176323 12.364962 6.6831789 0 0 0 0 47.995407
7.3462396 11.792899 6.9769306 0 0 0 0 48.000359
6.6590395 12.05863 6.8502941 0 0 0 0 48.005302
6.01963 12.231805 6.7379398 0 0 0 0 48.010254
5.3953257 12.391133 6.6366396 0 0 0 0 48.015198
7.0470324 11.923287 6.9261913 0 0 0 0 48.020142
6.3541212 12.154967 6.8036222 0 0 0 0 48.025093
5.7020845 12.28601 6.6873436 0 0 0 0 48.030037
5.0682158 12.396232 6.5811396 0 0 0 0 48.034988
6.7518229 12.052714 6.8804588 0 0 0 0 48.039932
6.0374503 12.224173 6.7489939 0 0 0 0 48.044884
5.3866034 12.332233 6.6397681 0 0 0 0 48.049828
4.7500606 12.405418 6.5326433 0 0 0 0 48.054771
6.4586496 12.177159 6.8377395 0 0 0 0 48.059723
5.727726 12.298443 6.6993623 0 0 0 0 48.064667
5.0752091 12.368483 6.5922203 0 0 0 0 48.069618
4.4310398 12.399583 6.4821796 0 0 0 0 48.074562
6.1398487 12.262322 6.7750702 0 0 0 0 48.079506
5.422945 12.377767 6.6567264 0 0 0 0 48.084457
4.7637744 12.408732 6.5476623 0 0 0 0 48.089401
4.11414 12.38075 6.4277482 0 0 0 0 48.094353
5.850574 12.395813 6.7433324 0 0 0 0 48.099297
5.1025152 12.419902 6.5971503 0 0 0 0 48.10424
4.444694 12.410874 6.49018 0 0 0 0 48.109192
3.8011875 12.366957 6.3793111 0 0 0 0 48.114136
5.538744 12.482045 6.6906681 0 0 0 0 48.119087
4.7968812 12.482202 6.5545487 0 0 0 0 48.124031
4.1354637 12.428121 6.4436765 0 0 0 0 48.128983
3.6181071 12.782842 6.555079 0 0 0 0 48.133926
5.2200785 12.550197 6.6330333 0 0 0 0 48.13887
4.4863925 12.528442 6.5089769 0 0 0 0 48.143822
3.8282497 12.44338 6.3981795 0 0 0 0 48.148766
3.3004084 12.740976 6.4996963 0 0 0 0 48.153717
4.9122415 12.635467 6.5883751 0 0 0 0 48.158661
4.1807952 12.585733 6.4693851 0 0 0 0 48.163605
3.6420639 12.87122 6.5669122 0 0 0 0 48.168556
2.9886117 12.70917 6.4512987 0 0 0 0 48.1735
4.5995607 12.703674 6.5387468 0 0 0 0 48.178452
3.857882 12.570789 6.3999333 0 0 0 0 48.183395
3.3269668 12.872396 6.5224328 0 0 0 0 48.188347
2.6828434 12.673423 6.4079199 0 0 0 0 48.193291
4.2868533 12.773885 6.494113 0 0 0 0 48.198235
3.6530511 12.962389 6.5387173 0 0 0 0 48.203186
3.0082603 12.832493 6.4610434 0 0 0 0 48.20813
2.3763905 12.604627 6.3506155 0 0 0 0 48.213081
3.9684064 12.816015 6.4405341 0 0 0 0 48.218025
3.3560143 13.062813 6.5320344 0 0 0 0 48.222969
2.6984413 12.803684 6.4096403 0 0 0 0 48.227921
2.0738871 12.540871 6.298305 0 0 0 0 48.232864
3.7148147 13.079992 6.5015373 0 0 0 0 48.237816
3.0407803 13.078978 6.4885187 0 0 0 0 48.24276
2.3896184 12.774883 6.361239 0 0 0 0 48.247704
1.7784833 12.466168 6.2460313 0 0 0 0 48.252655
3.4521513 13.350887 6.564508 0 0 0 0 48.257599
2.7189655 13.051032 6.4270945 0 0 0 0 48.26255
2.0858378 12.741124 6.3148565 0 0 0 0 48.267494
1.4879917 12.400518 6.1997433 0 0 0 0 48.272446
3.1238441 13.375914 6.5139499 0 0 0 0 48.27739
2.401001 13.038138 6.3766403 0 0 0 0 48.282333
1.7832669 12.685348 6.2605262 0 0 0 0 48.287285
1.201439 12.340909 6.1594477 0 0 0 0 48.292229
2.7965794 13.395943 6.4644036 0 0 0 0 48.29718
2.0871367 13.014271 6.3252177 0 0 0 0 48.302124
1.4845358 12.645627 6.2181644 0 0 0 0 48.307068
0.91922212 12.246298 6.1052399 0 0 0 0 48.312019
2.465476 13.398915 6.4088907 0 0 0 0 48.316963
1.7763145 12.985428 6.2758112 0 0 0 0 48.321915
1.1871973 12.564873 6.1599007 0 0 0 0 48.326859
0.63987428 12.164732 6.062006 0 0 0 0 48.331802
2.1384201 13.395924 6.3573976 0 0 0 0 48.336754
1.4645979 12.945559 6.2224283 0 0 0 0 48.341698
0.89666295 12.5042 6.1135998 0 0 0 0 48.346649
0.36756414 12.079221 6.0187926 0 0 0 0 48.351593
1.8096505 13.362881 6.2949715 0 0 0 0 48.356544
1.1588221 12.910757 6.1790423 0 0 0 0 48.361488
0.60818249 12.437541 6.068316 0 0 0 0 48.366432
0.099446319 11.973724 5.9686322 0 0 0 0 48.371384
1.4827812 13.339866 6.2395244 0 0 0 0 48.376328
0.85425872 12.853938 6.1267095 0 0 0 0 48.381279
0.32475594 12.364923 6.0240541 0 0 0 0 48.386223
-0.16215119 11.712094 5.8438497 0 0 0 0 48.391167
1.1599407 13.312888 6.1890922 0 0 0 0 48.396118
0.54996413 12.769089 6.0644436 0 0 0 0 48.401062
0.044491857 12.275311 5.9748368 0 0 0 0 48.406013
-0.40790701 11.364503 5.6792951 0 0 0 0 48.410957
0.83734751 13.259886 6.1307211 0 0 0 0 48.415909
0.25239003 12.712338 6.0211205 0 0 0 0 48.420853
-0.22400394 11.799341 5.7395496 0 0 0 0 48.425797
-0.65307307 11.264215 5.6391602 0 0 0 0 48.430748
0.51767474 13.215656 6.0783644 0 0 0 0 48.297363
-0.041062087 12.638395 5.9728646 0 0 0 0 48.302315
-0.48510173 11.679708 5.6834316 0 0 0 0 48.307259
-0.89424539 11.14682 5.5940571 0 0 0 0 48.312202
0.20199816 13.169756 6.0319877 0 0 0 0 48.317154
-0.32093436 12.094264 5.70471 0 0 0 0 48.322098
-0.74334633 11.587316 5.6412559 0 0 0 0 48.327049
-1.1281898 11.022626 5.5469947 0 0 0 0 48.331993
-0.1115951 13.114864 5.9846349 0 0 0 0 48.336945
-0.59839469 12.024708 5.66645 0 0 0 0 48.341888
-1.0004973 11.484922 5.5981054 0 0 0 0 48.346832
-0.40828815 12.552555 5.7094989 0 0 0 0 48.356728
-0.8728264 11.952173 5.6282024 0 0 0 0 48.361679
-1.2472987 11.346577 5.5390558 0 0 0 0 48.366623
-0.70570207 12.478791 5.6622167 0 0 0 0 48.376518
-1.1427463 11.826616 5.5680857 0 0 0 0 48.381462
-1.5506268 11.673278 5.7088261 0 0 0 0 48.386414
-1.8801585 11.073113 5.6347375 0 0 0 0 48.391357
-1.0020585 12.399028 5.6139503 0 0 0 0 48.396309
-1.4458258 12.026136 5.6631527 0 0 0 0 48.401253
-1.8014929 11.540902 5.6577549 0 0 0 0 48.406197
-2.1134448 10.982969 5.6155958 0 0 0 0 48.411148
-1.2912164 12.298306 5.5607443 0 0 0 0 48.416092
-1.7352939 12.058593 5.6856332 0 0 0 0 48.421043
-2.0474629 11.418591 5.6176682 0 0 0 0 48.425987
-2.3289185 10.809878 5.5556779 0 0 0 0 48.430931
-1.6378908 12.662585 5.7193513 0 0 0 0 48.435883
-2.0064094 11.952048 5.6434684 0 0 0 0 48.440826
-2.2883804 11.29131 5.5746017 0 0 0 0 48.445778
-2.5540986 10.708792 5.5355749 0 0 0 0 48.450722
-1.9307493 12.529799 5.659214 0 0 0 0 48.455666
-2.2672164 11.813563 5.5903959 0 0 0 0 48.460617
-2.5387108 11.205999 5.5554214 0 0 0 0 48.465561
-2.7658966 10.568777 5.4975853 0 0 0 0 48.470512
-2.220845 12.421067 5.6140242 0 0 0 0 48.475456
-2.5261548 11.688114 5.548296 0 0 0 0 48.480408
-2.7621715 11.031821 5.4954934 0 0 0 0 48.485352
-2.9756718 10.426772 5.4586043 0 0 0 0 48.490295
-2.5078726 12.305353 5.5678558 0 0 0 0 48.495247
-2.7923636 11.590625 5.5191188 0 0 0 0 48.500191
-2.9858186 10.876667 5.4475203 0 0 0 0 48.505142
-3.1804509 10.284819 5.4246311 0 0 0 0 48.510086
-2.7876287 12.161672 5.5117655 0 0 0 0 48.51503
-3.0348818 11.422273 5.4611468 0 0 0 0 48.519981
-3.2229946 10.775454 5.4273992 0 0 0 0 48.524925
-3.3791966 10.139911 5.3886747 0 0 0 0 48.529877
-3.0645068 12.030037 5.4666514 0 0 0 0 48.534821
-3.2816958 11.283918 5.4210973 0 0 0 0 48.539764
-3.4458196 10.63833 5.3933859 0 0 0 0 48.544716
-3.5317044 9.8702574 5.2880878 0 0 0 0 48.54966
-3.3332107 11.880457 5.4165926 0 0 0 0 48.554611
-3.5254583 11.140581 5.379065 0 0 0 0 48.559555
-3.6615474 10.491258 5.357408 0 0 0 0 48.564507
-3.6208408 9.4629984 5.1159286 0 0 0 0 48.56945
-3.606061 11.745854 5.375493 0 0 0 0 48.574394
-3.7580168 10.976325 5.3311005 0 0 0 0 48.579346
-3.8732021 10.337209 5.3174539 0 0 0 0 48.58429
-3.8005884 9.3192606 5.0850029 0 0 0 0 48.589241
-3.8687294 11.592327 5.3304543 0 0 0 0 48.594185
-3.9948313 10.83806 5.298068 0 0 0 0 48.599129
-4.0778089 10.178221 5.278523 0 0 0 0 48.60408
-3.9865227 9.1944895 5.0650225 0 0 0 0 48.609024
-4.1212201 11.420871 5.2794747 0 0 0 0 48.613976
-4.0654712 10.2778 5.0623035 0 0 0 0 48.618919
-4.1207447 9.6502323 5.0507264 0 0 0 0 48.623871
-4.1551495 9.0388374 5.0311437 0 0 0 0 48.628815
-4.2147436 10.847401 5.0447059 0 0 0 0 48.633759
-4.3026462 10.176576 5.0511842 0 0 0 0 48.63871
-4.3246508 9.5222864 5.0297251 0 0 0 0 48.643654
-4.3279252 8.8981667 5.0072231 0 0 0 0 48.648605
-4.455379 10.691072 5.0067124 0 0 0 0 48.653549
-4.5203977 10.032478 5.0221987 0 0 0 0 48.658493
-4.5071998 9.3584909 4.9928432 0 0 0 0 48.663445
-4.4925675 8.7445498 4.976347 0 0 0 0 48.668388
-4.6930137 10.534771 4.9707232 0 0 0 0 48.67334
-4.7207818 9.8514948 4.9773288 0 0 0 0 48.678284
-4.6857281 9.192729 4.9569736 0 0 0 0 48.683228
-4.6522207 8.5919809 4.9484768 0 0 0 0 48.688179
-4.9204717 10.360545 4.9297938 0 0 0 0 48.693123
-4.924324 9.6865015 4.9424171 0 0 0 0 48.698074
-4.8622537 9.0269842 4.9221077 0 0 0 0 48.703018
-4.8098817 8.4404325 4.9226084 0 0 0 0 48.70797
-5.1245112 10.14448 4.8700027 0 0 0 0 48.712914
-5.0841408 9.4488201 4.8737488 0 0 0 0 48.717857
-5.036829 8.8662643 4.8922338 0 0 0 0 48.722809
-4.9604292 8.2779293 4.8907781 0 0 0 0 48.727753
-5.5609808 10.372822 5.0287781 0 0 0 0 48.732704
-5.2938995 9.3057966 4.853776 0 0 0 0 48.737648
-5.2053442 8.6995935 4.8613839 0 0 0 0 48.742592
-5.1130981 8.1274271 4.8689165 0 0 0 0 48.747543
-5.7822447 10.178631 4.986908 0 0 0 0 48.752487
-5.4904904 9.1458769 4.8288651 0 0 0 0 48.757439
-5.3698168 8.5289536 4.8295512 0 0 0 0 48.762383
-5.2526126 7.9620204 4.8381119 0 0 0 0 48.767326
-5.983448 9.9654369 4.938096 0 0 0 0 48.416992
-5.6763382 8.9768248 4.8008995 0 0 0 0 48.421936
-5.530829 8.3641033 4.8025708 0 0 0 0 48.426888
-5.3907385 7.797348 4.8091264 0 0 0 0 48.431831
-6.0992742 9.6200695 4.8287373 0 0 0 0 48.436775
-5.8577676 8.7970619 4.7700529 0 0 0 0 48.441727
-5.6863074 8.1905794 4.7727518 0 0 0 0 48.446671
-5.5253057 7.6340213 4.7823176 0 0 0 0 48.451622
-6.1605029 9.2151136 4.6876044 0 0 0 0 48.456566
-6.0260863 8.6064014 4.7342539 0 0 0 0 48.46151
-5.8397832 8.0170708 4.743937 0 0 0 0 48.466461
-5.6578817 7.4717159 4.7585106 0 0 0 0 48.471405
-6.3973594 9.0779047 4.6835718 0 0 0 0 48.476357
-6.2005234 8.4277048 4.7084174 0 0 0 0 48.4813
-5.985208 7.8386292 4.7141471 0 0 0 0 48.486252
-4.0321832 5.0968347 3.3106434 0 0 0 0 48.491196
-6.5531683 8.8342991 4.6289167 0 0 0 0 48.49614
-6.3587608 8.229125 4.6726542 0 0 0 0 48.501091
-6.1276317 7.6602159 4.6863627 0 0 0 0 48.506035
-4.1394038 5.0058265 3.3097181 0 0 0 0 48.510986
-6.7373762 8.631485 4.5961223 0 0 0 0 48.51593
-6.5079484 8.0256243 4.6369181 0 0 0 0 48.520874
-6.2710934 7.4857988 4.662569 0 0 0 0 48.525826
-4.230444 4.8969374 3.2988605 0 0 0 0 48.530769
-6.9439273 8.4635153 4.5842118 0 0 0 0 48.535721
-6.6693301 7.8420382 4.6131167 0 0 0 0 48.540665
-6.3994212 7.2984962 4.6308298 0 0 0 0 48.545609
-4.3143902 4.7790961 3.2820361 0 0 0 0 48.55056
-7.1059489 8.2418861 4.5484991 0 0 0 0 48.555504
-6.8135114 7.6385794 4.57939 0 0 0 0 48.560455
-6.5247474 7.1112227 4.6010957 0 0 0 0 48.565399
-4.3650193 4.6305017 3.2433367 0 0 0 0 48.570351
-7.2629437 8.0182934 4.5107994 0 0 0 0 48.575294
-6.9587722 7.4431267 4.5536442 0 0 0 0 48.580238
-6.7157784 6.993464 4.6190968 0 0 0 0 48.58519
-6.6063604 6.7008171 4.7779689 0 0 0 0 48.590134
-7.4280777 7.8086486 4.4840555 0 0 0 0 48.595085
-7.0969796 7.2427292 4.5259223 0 0 0 0 48.600029
-7.0320749 6.9997721 4.723608 0 0 0 0 48.604973
-6.7107258 6.5187368 4.7512589 0 0 0 0 48.609924
-7.5790997 7.588119 4.4533606 0 0 0 0 48.614868
-7.2260942 7.0334015 4.4942369 0 0 0 0 48.61982
-7.142221 6.7946143 4.6899433 0 0 0 0 48.624763
-6.8494329 6.370398 4.7484155 0 0 0 0 48.629707
-7.7250805 7.3636317 4.4226842 0 0 0 0 48.634659
-7.4673381 6.9352274 4.5361137 0 0 0 0 48.639603
-7.2735958 6.612299 4.6721921 0 0 0 0 48.644554
-6.9296069 6.1705036 4.7097874 0 0 0 0 48.649498
-7.8509283 7.1263094 4.3860717 0 0 0 0 48.654449
-7.7528901 6.866703 4.6028514 0 0 0 0 48.659393
-7.3827991 6.4131632 4.6465163 0 0 0 0 48.664337
-7.0269637 5.9884863 4.6860914 0 0 0 0 48.669289
-8.0181751 6.928669 4.3753009 0 0 0 0 48.674232
-7.8880587 6.6623387 4.5841475 0 0 0 0 48.679184
-7.4940462 6.2190108 4.6228266 0 0 0 0 48.684128
-7.1263776 5.8124566 4.6663785 0 0 0 0 48.689072
-8.3921337 6.898406 4.4768095 0 0 0 0 48.694023
-7.995018 6.4381952 4.5515361 0 0 0 0 48.698967
-7.6032829 6.0238791 4.6011443 0 0 0 0 48.703918
-7.2288303 5.6404095 4.6516523 0 0 0 0 48.708862
-8.5482235 6.6848526 4.4640961 0 0 0 0 48.713814
-8.1110783 6.22399 4.5288877 0 0 0 0 48.718758
-7.7085176 5.8287854 4.5814691 0 0 0 0 48.723701
-7.3111444 5.4555173 4.6259899 0 0 0 0 48.728653
-8.6902008 6.4604144 4.4474316 0 0 0 0 48.733597
-8.2351866 6.01472 4.5112171 0 0 0 0 48.738548
-7.7956443 5.6238365 4.5538473 0 0 0 0 48.743492
-7.4186368 5.287436 4.6182489 0 0 0 0 48.748436
-8.7918997 6.2093015 4.4138961 0 0 0 0 48.753387
-8.339201 5.7966194 4.4886003 0 0 0 0 48.758331
-7.9079461 5.4356933 4.5421467 0 0 0 0 48.763283
-7.5009875 5.1065536 4.5985789 0 0 0 0 48.768227
-8.902669 5.9651222 4.3883309 0 0 0 0 48.77317
-8.4502449 5.5814638 4.4709663 0 0 0 0 48.778122
-7.9920874 5.2327766 4.5185266 0 0 0 0 48.783066
-7.5893674 4.9286232 4.5828938 0 0 0 0 48.788017
-8.1648598 5.1887717 3.9593732 0 0 0 0 48.792961
-8.5291157 5.3505702 4.4404225 0 0 0 0 48.797913
-8.0863113 5.037787 4.5038733 0 0 0 0 48.802856
-7.6646943 4.7458067 4.5652418 0 0 0 0 48.8078
-8.2306538 4.9509897 3.9248686 0 0 0 0 48.812752
-7.8864684 4.6954451 4.0470295 0 0 0 0 48.817696
-8.180521 4.841795 4.4892244 0 0 0 0 48.822647
-7.7460585 4.5669398 4.5505724 0 0 0 0 48.827591
-9.1979189 5.2299175 4.3147101 0 0 0 0 48.832535
-7.9132848 4.4630022 4.0025754 0 0 0 0 48.837486
-8.224452 4.6202097 4.4517164 0 0 0 0 48.84243
-7.8093133 4.3782182 4.527956 0 0 0 0 48.847382
-9.3027563 4.9938087 4.3001413 0 0 0 0 48.852325
-7.9723296 4.2523093 3.9780197 0 0 0 0 48.857277
-8.3478813 4.4449992 4.4599733 0 0 0 0 48.862221
-7.9329529 4.2250266 4.5421605 0 0 0 0 48.867165
-9.3934975 4.7488189 4.2816176 0 0 0 0 48.872116
-8.040453 4.0495462 3.9594324 0 0 0 0 48.87706
-8.4250193 4.2431564 4.4443688 0 0 0 0 48.882011
-7.9932227 4.0383368 4.5225463 0 0 0 0 48.886955
-8.0351992 3.8432915 4.4948301 0 0 0 0 48.773834
-0.40262416 0.19113629 0.22049057 0 0 0 0 48.778778
-0.41972783 0.19903524 0.2434563 0 0 0 0 48.783722
-0.42276746 0.20104922 0.26045805 0 0 0 0 48.788673
-0.42769304 0.1930445 0.27652639 0 0 0 0 48.813408
-0.41038769 0.17006437 0.21962027 0 0 0 0 48.818352
-0.41643798 0.17305301 0.237615 0 0 0 0 48.823303
-0.42852974 0.17999318 0.25859073 0 0 0 0 48.828247
-0.42945346 0.17202304 0.27366531 0 0 0 0 48.852982
-0.40610582 0.14509144 0.21377847 0 0 0 0 48.857933
-0.42019916 0.15201537 0.23575109 0 0 0 0 48.862877
-0.43630326 0.15992308 0.25871819 0 0 0 0 48.867821
-0.43923733 0.15293671 0.2747874 0 0 0 0 48.892563
-0.37575409 0.11433893 0.19899166 0 0 0 0 48.897507
-0.40086877 0.12316512 0.22294246 0 0 0 0 48.902451
-0.40393481 0.12817673 0.23893681 0 0 0 0 48.907402
-0.40286374 0.12122075 0.2520124 0 0 0 0 48.932137
-0.37351149 0.093355343 0.19613776 0 0 0 0 48.93708
-0.38157737 0.09832035 0.21212447 0 0 0 0 48.942032
-0.39065567 0.10428088 0.23010711 0 0 0 0 48.946976
-0.39461502 0.10028321 0.24516776 0 0 0 0 48.97171
-0.37127727 0.073371768 0.19328175 0 0 0 0 48.976662
-0.3723217 0.076397404 0.20728411 0 0 0 0 48.981606
-0.38340783 0.083336629 0.22426116 0 0 0 0 48.986549
-0.38536534 0.079355344 0.23832503 0 0 0 0 49.011284
-0.36002994 0.052467808 0.18844235 0 0 0 0 49.016235
-0.36809438 0.05743023 0.20342897 0 0 0 0 49.021179
-0.38118213 0.064353026 0.22140293 0 0 0 0 49.026131
-0.3751334 0.060437124 0.23147921 0 0 0 0 49.050865
-0.36281538 0.034442399 0.1875743 0 0 0 0 49.055809
-0.36988154 0.03941663 0.20356244 0 0 0 0 49.06076
-0.37395266 0.045411579 0.21655266 0 0 0 0 49.065704
-0.36991444 0.042479582 0.22762352 0 0 0 0 49.090439
-0.37059656 0.015379702 0.19070132 0 0 0 0 49.095383
-0.37566921 0.021367697 0.20468999 0 0 0 0 49.100334
-0.37373757 0.027414275 0.21568944 0 0 0 0 49.105278
-0.36970693 0.025479911 0.22575788 0 0 0 0 49.130013
-0.35938561 -0.0015212464 0.18685289 0 0 0 0 49.134964
-0.36644888 0.0034478924 0.20084095 0 0 0 0 49.139908
-0.36551729 0.0094851647 0.21183883 0 0 0 0 49.144859
-0.37250313 0.0084593119 0.22688791 0 0 0 0 49.169594
-0.37216786 -0.020626588 0.19197276 0 0 0 0 49.174538
-0.37223789 -0.014596222 0.20396905 0 0 0 0 49.179482
-0.38032022 -0.0076367585 0.21795046 0 0 0 0 49.184433
-0.37230501 -0.0075379787 0.22602028 0 0 0 0 49.209167
-0.36595023 -0.03856701 0.1911197 0 0 0 0 49.214111
-0.37202165 -0.032591071 0.2041067 0 0 0 0 49.219063
-0.37611067 -0.024598733 0.21609172 0 0 0 0 49.224007
-0.37620577 -0.024488796 0.22996691 0 0 0 0 50.030167
-0.35881782 -0.056420833 0.19109184 0 0 0 0 50.03511
-0.35690674 -0.048376553 0.20008494 0 0 0 0 50.040054
-0.37599078 -0.042515665 0.21905005 0 0 0 0 50.045006
-0.3699854 -0.041431338 0.22711453 0 0 0 0 50.06974
-0.37057006 -0.077519469 0.19722192 0 0 0 0 50.074684
-0.37565523 -0.07053455 0.21020658 0 0 0 0 50.079636
-0.3817504 -0.062559746 0.2231869 0 0 0 0 50.084579
-0.38075784 -0.060520221 0.23324078 0 0 0 0 50.109314
-0.36334112 -0.095446482 0.19637448 0 0 0 0 50.114265
-0.36743492 -0.087454259 0.20835793 0 0 0 0 50.119209
-0.37153721 -0.078464784 0.21933869 0 0 0 0 50.124161
-0.37652722 -0.07847999 0.23138854 0 0 0 0 50.148895
-0.36908004 -0.11748781 0.20151743 0 0 0 0 50.153839
-0.36719969 -0.10644336 0.21050227 0 0 0 0 50.158783
-0.36730757 -0.096421704 0.21848664 0 0 0 0 50.163734
-0.37530044 -0.096461773 0.23253177 0 0 0 0 50.188469
-0.35985947 -0.13439426 0.20067105 0 0 0 0 50.193413
-0.36595351 -0.12642226 0.21265122 0 0 0 0 50.198364
-0.37006462 -0.11643557 0.22262913 0 0 0 0 50.203308
-0.37207127 -0.11442594 0.23267849 0 0 0 0 50.228043
-0.40942407 -0.176826 0.22579895 0 0 0 0 50.232994
-0.38364905 -0.15356876 0.22378924 0 0 0 0 50.237938
-0.38278615 -0.14053978 0.23076688 0 0 0 0 50.242882
-0.38480267 -0.13753033 0.24081358 0 0 0 0 50.267624
-0.39419997 -0.19367459 0.22396284 0 0 0 0 50.272568
-0.3983317 -0.18168813 0.23393515 0 0 0 0 50.277512
-0.41242886 -0.17379217 0.24790241 0 0 0 0 50.282463
-0.40847093 -0.16773038 0.25495058 0 0 0 0 50.307198
-0.44964689 -0.24815576 0.25411493 0 0 0 0 50.312141
-0.42493221 -0.21891063 0.25108695 0 0 0 0 50.317093
-0.42708144 -0.20490949 0.25905687 0 0 0 0 50.322037
-8.6183758 -4.9371381 4.0676951 0 0 0 0 50.331932
-0.42911759 -0.19990064 0.26909825 0 0 0 0 50.346771
-8.4902954 -5.1329246 4.0684967 0 0 0 0 50.351723
-0.45367023 -0.24313301 0.27621183 0 0 0 0 50.36161
-8.2389193 -5.2496018 4.0122843 0 0 0 0 50.371506
-8.2216291 -4.9021158 4.1243734 0 0 0 0 50.376457
-8.1097174 -4.506845 4.1694851 0 0 0 0 50.381401
-0.43778422 -0.22896563 0.27725738 0 0 0 0 50.386345
-7.7262063 -5.1819448 3.8279932 0 0 0 0 50.391296
-8.1394444 -5.1103196 4.1411366 0 0 0 0 50.39624
-8.0017529 -4.6898508 4.1612201 0 0 0 0 50.401192
-7.9497843 -4.3041363 4.2262578 0 0 0 0 50.406136
-7.332983 -5.1733537 3.6976697 0 0 0 0 50.411079
-7.908102 -5.223196 4.0828829 0 0 0 0 50.416031
-7.9296231 -4.8921614 4.1749511 0 0 0 0 50.420975
-7.8339634 -4.4710932 4.2049613 0 0 0 0 50.425926
-6.909184 -5.1204858 3.5502751 0 0 0 0 50.43087
-7.4591765 -5.1791363 3.9135535 0 0 0 0 50.435822
-7.849493 -5.0933986 4.1846943 0 0 0 0 50.440765
-7.7649121 -4.6644535 4.2106633 0 0 0 0 50.445709
-6.7109804 -5.2236156 3.516943 0 0 0 0 50.450661
-7.0502157 -5.1414304 3.7611768 0 0 0 0 50.455605
-7.6461067 -5.2115345 4.1334109 0 0 0 0 50.460556
-7.7017932 -4.8648601 4.2213769 0 0 0 0 50.4655
-6.3758831 -5.2065339 3.4095037 0 0 0 0 50.470444
-6.7636323 -5.1748018 3.6717968 0 0 0 0 50.475395
-7.2301235 -5.1737905 3.9670455 0 0 0 0 50.480339
-7.6217523 -5.0561066 4.2260938 0 0 0 0 50.485291
-6.2504392 -5.3515224 3.4113517 0 0 0 0 50.221695
-6.4872169 -5.2024522 3.5845778 0 0 0 0 50.226646
-6.8313594 -5.1243434 3.8058221 0 0 0 0 50.23159
-7.4682345 -5.198761 4.1910062 0 0 0 0 50.236542
-6.3219681 -5.3129101 3.5602064 0 0 0 0 50.246429
-6.5071483 -5.1164513 3.6843863 0 0 0 0 50.251381
-7.0622969 -5.1551857 4.0176053 0 0 0 0 50.256325
-6.3409262 -5.222918 3.6520059 0 0 0 0 50.271172
-6.6645041 -5.097682 3.8451536 0 0 0 0 50.276115
-6.2521186 -5.3940511 3.6636772 0 0 0 0 50.290955
-6.3314314 -5.0737305 3.708689 0 0 0 0 50.295906
-6.2843738 -5.2722411 3.7373676 0 0 0 0 50.315689
-6.2124581 -5.4545264 3.7550442 0 0 0 0 50.33548
-5.2014365 -5.7664342 3.3466396 0 0 0 0 50.365158
-5.3086052 -5.7553096 3.4465134 0 0 0 0 50.389893
-5.1634164 -5.8599129 3.4331014 0 0 0 0 50.409683
-5.2313728 -5.7635269 3.4808042 0 0 0 0 50.434418
-3.2461643 -5.7271662 2.7992258 0 0 0 0 50.518517
-3.0337608 -5.6491814 2.7324226 0 0 0 0 50.538307
-3.3106244 -5.6777582 2.8350642 0 0 0 0 50.543251
-2.8872783 -5.6847243 2.7208273 0 0 0 0 50.558098
-3.1149039 -5.6319222 2.7763228 0 0 0 0 50.563042
-2.7604637 -5.7554159 2.7282982 0 0 0 0 50.577881
-2.9546323 -5.6443677 2.7476859 0 0 0 0 50.582832
-3.2431467 -5.7060843 2.8464 0 0 0 0 50.587776
-2.3496206 -5.2029347 2.4484973 0 0 0 0 50.597672
-2.8229234 -5.7030377 2.7441316 0 0 0 0 50.602615
-3.0248225 -5.6180768 2.7625782 0 0 0 0 50.607567
-2.1938167 -5.1694355 2.4117241 0 0 0 0 50.617455
-2.4275842 -5.201674 2.4794455 0 0 0 0 50.622406
-2.8832476 -5.6616793 2.7459981 0 0 0 0 50.62735
-3.2212205 -5.7788625 2.8647859 0 0 0 0 50.632301
-2.0567014 -5.169075 2.3940129 0 0 0 0 50.637245
-2.2717257 -5.1731782 2.4406865 0 0 0 0 50.642197
-2.7613266 -5.7414331 2.7474878 0 0 0 0 50.647141
-2.9734104 -5.6366248 2.7508612 0 0 0 0 50.652084
-1.9206451 -5.1627278 2.3742836 0 0 0 0 50.657036
-2.1238217 -5.1497512 2.4059286 0 0 0 0 50.66198
-2.3514602 -5.1919742 2.4586878 0 0 0 0 50.666931
-2.850461 -5.718379 2.7483582 0 0 0 0 50.671875
-1.7914351 -5.1724272 2.3625884 0 0 0 0 50.676819
-1.9906319 -5.1564302 2.3872311 0 0 0 0 50.68177
-2.2034612 -5.1775479 2.4229553 0 0 0 0 50.686714
-2.4403195 -5.1969004 2.4646349 0 0 0 0 50.691666
-1.6689473 -5.1931138 2.3572707 0 0 0 0 50.500237
-1.8622255 -5.1670685 2.3698976 0 0 0 0 50.505188
-2.0553632 -5.1550179 2.3845637 0 0 0 0 50.510132
-2.2842605 -5.1692882 2.417244 0 0 0 0 50.515083
-1.5495511 -5.2228904 2.357614 0 0 0 0 50.520027
-1.7359253 -5.1858058 2.3592215 0 0 0 0 50.524979
-1.924131 -5.1657314 2.3648727 0 0 0 0 50.529922
-2.1391883 -5.1619048 2.3815253 0 0 0 0 50.534866
-1.4340798 -5.2606912 2.3629737 0 0 0 0 50.539818
-1.6126176 -5.2055659 2.3505435 0 0 0 0 50.544762
-1.7987638 -5.190486 2.3512118 0 0 0 0 50.549713
-2.004967 -5.1706028 2.355834 0 0 0 0 50.554657
-1.362848 -5.481729 2.4497714 0 0 0 0 50.559601
-1.5019455 -5.2634053 2.3599513 0 0 0 0 50.564552
-1.677352 -5.2202654 2.3425589 0 0 0 0 50.569496
-1.8776014 -5.1943502 2.3371737 0 0 0 0 50.574448
-1.439413 -5.5145111 2.4548194 0 0 0 0 50.584335
-1.5598164 -5.2630625 2.3409364 0 0 0 0 50.589287
-1.7579973 -5.2431402 2.3315711 0 0 0 0 50.594231
-1.6432981 -5.3019609 2.331989 0 0 0 0 50.614021
-0.54430377 -4.9579449 2.1850483 0 0 0 0 50.678329
-0.78520805 -5.4769349 2.3781245 0 0 0 0 50.683281
-0.96308541 -5.4828706 2.3478642 0 0 0 0 50.688225
-1.1569371 -5.4919629 2.3215861 0 0 0 0 50.693176
-0.42332247 -4.8438163 2.1339924 0 0 0 0 50.69812
-0.65733844 -5.4526472 2.3603342 0 0 0 0 50.703064
-0.83015728 -5.4635439 2.3260961 0 0 0 0 50.708015
-1.0219312 -5.4796252 2.2968409 0 0 0 0 50.712959
-0.30812904 -4.7517204 2.0919883 0 0 0 0 50.717911
-0.47760293 -4.9014149 2.1201456 0 0 0 0 50.722855
-0.7086373 -5.5052595 2.331481 0 0 0 0 50.727798
-0.90111643 -5.5503378 2.3073065 0 0 0 0 50.73275
-0.20391013 -4.7656069 2.0982642 0 0 0 0 50.737694
-0.35574612 -4.7742982 2.0600536 0 0 0 0 50.742645
-0.52003878 -4.9409442 2.0872679 0 0 0 0 50.747589
-0.77649039 -5.6020207 2.3127253 0 0 0 0 50.752541
-0.096972533 -4.7504973 2.0914633 0 0 0 0 50.757484
-0.24780357 -4.7591882 2.0502541 0 0 0 0 50.762428
-0.39323971 -4.807786 2.0231667 0 0 0 0 50.76738
-0.56947899 -4.9785738 2.0453734 0 0 0 0 50.772324
0.0077445903 -4.7134242 2.0785966 0 0 0 0 50.777275
-0.13979302 -4.7510672 2.0434744 0 0 0 0 50.782219
-0.27878094 -4.7426724 1.9892365 0 0 0 0 50.787163
-0.44327682 -4.8863811 1.9963865 0 0 0 0 50.792114
0.11068691 -4.6993427 2.0747917 0 0 0 0 50.797058
-0.032892898 -4.7319627 2.0336623 0 0 0 0 50.80201
-0.1705291 -4.758532 1.9885253 0 0 0 0 50.806953
-0.31939232 -4.7622418 1.935305 0 0 0 0 50.811905
0.21381323 -4.7042327 2.0800414 0 0 0 0 50.816849
0.070859544 -4.6979051 2.0178025 0 0 0 0 50.821793
-0.061594427 -4.7424111 1.9767249 0 0 0 0 50.826744
-0.20729315 -4.7620845 1.925555 0 0 0 0 50.831688
0.31794679 -4.7101035 2.0872958 0 0 0 0 50.836639
0.17812778 -4.7167425 2.0260987 0 0 0 0 50.841583
0.047143064 -4.7063117 1.9568676 0 0 0 0 50.846527
-0.095373154 -4.7439423 1.9097538 0 0 0 0 50.851479
0.4174827 -4.6550913 2.0683696 0 0 0 0 50.856422
0.28310111 -4.7056341 2.0223064 0 0 0 0 50.861374
0.15414055 -4.6971893 1.9510839 0 0 0 0 50.866318
0.016416324 -4.7128105 1.8899155 0 0 0 0 50.871262
0.52061254 -4.6609621 2.0776229 0 0 0 0 50.876213
0.38799492 -4.6865325 2.015491 0 0 0 0 50.881157
0.26114833 -4.6890645 1.9453036 0 0 0 0 50.886108
0.12540096 -4.7016802 1.8791298 0 0 0 0 50.891052
0.62362438 -4.6548448 2.0818417 0 0 0 0 50.896004
0.48974761 -4.6534719 2.004631 0 0 0 0 50.900948
0.3704221 -4.7078829 1.9506037 0 0 0 0 50.905891
0.23546298 -4.6985254 1.8723685 0 0 0 0 50.910843
0.72559392 -4.6447363 2.0860476 0 0 0 0 50.915787
0.59477478 -4.6483412 2.0058563 0 0 0 0 50.920738
0.4739801 -4.65483 1.9296896 0 0 0 0 50.925682
0.34650373 -4.693357 1.8656033 0 0 0 0 50.930626
0.82966202 -4.6445918 2.0942857 0 0 0 0 50.935577
0.69875073 -4.6382222 2.0060654 0 0 0 0 50.940521
0.58095378 -4.6436944 1.9249009 0 0 0 0 50.945473
0.45422477 -4.6562519 1.8477416 0 0 0 0 50.950417
0.93157834 -4.6294785 2.0984776 0 0 0 0 50.95536
0.80581307 -4.6370535 2.0113058 0 0 0 0 50.960312
0.68905294 -4.6455259 1.9271513 0 0 0 0 50.965256
0.56527054 -4.65207 1.8439797 0 0 0 0 50.970207
1.0347106 -4.6206298 2.1039672 0 0 0 0 50.756905
0.91099894 -4.6331697 2.0148139 0 0 0 0 50.761856
0.79616302 -4.6336207 1.9246409 0 0 0 0 50.7668
0.67441678 -4.6431365 1.8374821 0 0 0 0 50.771744
1.1376667 -4.6095085 2.1101718 0 0 0 0 50.776695
1.0170003 -4.6260242 2.0190346 0 0 0 0 50.781639
0.90417981 -4.6274638 1.9258677 0 0 0 0 50.786591
0.78650844 -4.6439424 1.8377352 0 0 0 0 50.791534
1.2489398 -4.6312513 2.1334834 0 0 0 0 50.796486
1.1229596 -4.6148767 2.0232441 0 0 0 0 50.80143
1.0142156 -4.623281 1.9281036 0 0 0 0 50.806374
0.89748108 -4.6327672 1.8339529 0 0 0 0 50.811325
1.3518046 -4.6111312 2.1376626 0 0 0 0 50.816269
1.2309974 -4.6116962 2.0304799 0 0 0 0 50.82122
1.1221604 -4.6101222 1.9283108 0 0 0 0 50.826164
1.0083921 -4.615593 1.8291534 0 0 0 0 50.831108
1.4505694 -4.5810595 2.1388068 0 0 0 0 50.83606
1.3461773 -4.6234131 2.0467699 0 0 0 0 50.841003
1.2331804 -4.6049147 1.9335458 0 0 0 0 50.845955
1.1224768 -4.6163578 1.8334104 0 0 0 0 50.850899
1.5657793 -4.5967522 2.1621087 0 0 0 0 50.855843
1.4437902 -4.5773807 2.0378671 0 0 0 0 50.860794
1.350367 -4.6166205 1.9458393 0 0 0 0 50.865738
1.2343944 -4.600162 1.8306158 0 0 0 0 50.870689
1.6799104 -4.6044612 2.1823862 0 0 0 0 50.875633
1.5558701 -4.5791326 2.0511241 0 0 0 0 50.880585
1.4540405 -4.5765209 1.9379632 0 0 0 0 50.885529
1.3566352 -4.616816 1.8419321 0 0 0 0 50.890472
1.785776 -4.5852847 2.1915739 0 0 0 0 50.895424
1.6781238 -4.5987496 2.0734491 0 0 0 0 50.900368
1.5588099 -4.5463924 1.9351174 0 0 0 0 50.905319
1.4633113 -4.5766892 1.8320608 0 0 0 0 50.910263
1.9131185 -4.6148157 2.2239363 0 0 0 0 50.915207
1.7910908 -4.5894918 2.084677 0 0 0 0 50.920158
1.6933151 -4.5908599 1.9645339 0 0 0 0 50.925102
1.5720713 -4.5455203 1.8282186 0 0 0 0 50.930054
2.0465341 -4.6522593 2.2633319 0 0 0 0 50.934998
1.9152924 -4.6040826 2.1069915 0 0 0 0 50.939941
1.807227 -4.5756049 1.9707463 0 0 0 0 50.944893
1.7085345 -4.5849819 1.8516245 0 0 0 0 50.949837
2.0629425 -4.66436 2.1514766 0 0 0 0 50.959732
1.9343945 -4.5861759 1.9880545 0 0 0 0 50.964684
1.8243803 -4.5627189 1.8528199 0 0 0 0 50.969627
2.0860608 -4.647418 2.0295494 0 0 0 0 50.984467
1.9627384 -4.5921535 1.8762013 0 0 0 0 50.989418
2.1224437 -4.6563196 1.9137185 0 0 0 0 51.009201
2.5455151 -5.2580819 2.1712227 0 0 0 0 51.028992
3.0004115 -5.2277756 2.6769152 0 0 0 0 51.033936
2.6934128 -5.2414322 2.1824915 0 0 0 0 51.048782
3.031615 -5.2128301 2.5210111 0 0 0 0 51.05867
2.8473883 -5.2327032 2.1977937 0 0 0 0 51.068565
3.0145288 -5.2408042 2.2221668 0 0 0 0 51.088356
3.1703775 -5.2200494 2.2364378 0 0 0 0 51.108147
3.3383701 -5.2141356 2.2597723 0 0 0 0 51.12793
3.5113406 -5.2061639 2.2831097 0 0 0 0 51.14772
3.6923666 -5.2040877 2.3114779 0 0 0 0 51.167503
3.8793688 -5.1999393 2.3408506 0 0 0 0 51.187294
4.0774446 -5.2036471 2.377265 0 0 0 0 51.207085
4.2662959 -5.1854692 2.4066007 0 0 0 0 51.226868
4.4551344 -5.1610718 2.4331067 0 0 0 0 51.021584
4.7632203 -5.1384711 2.8805943 0 0 0 0 51.031479
4.7772689 -5.2088013 2.709837 0 0 0 0 51.036423
4.6691151 -5.15661 2.4745228 0 0 0 0 51.041367
4.8546786 -5.1104922 2.4987719 0 0 0 0 51.061157
5.0967555 -5.1166892 2.5512664 0 0 0 0 51.080948
5.5372677 -5.1867185 3.3312278 0 0 0 0 51.085892
5.3053956 -5.0792861 2.5855796 0 0 0 0 51.100731
5.7348828 -5.1493802 3.3805237 0 0 0 0 51.105682
5.5371323 -5.0526004 2.6309628 0 0 0 0 51.120522
5.9152818 -5.0902524 3.4187276 0 0 0 0 51.125465
5.7859316 -5.0327086 2.6823947 0 0 0 0 51.140312
6.1238251 -5.0467782 3.4710243 0 0 0 0 51.145256
