# .PCD v0.7 - Point Cloud Data file format
VERSION 0.7
FIELDS x y z normal_x normal_y normal_z intensity curvature
SIZE 4 4 4 4 4 4 4 4
TYPE F F F F F F F F
COUNT 1 1 1 1 1 1 1 1
WIDTH 970
HEIGHT 1
VIEWPOINT 0 0 0 1 0 0 0
POINTS 970
DATA ascii
-0.48574653 0.081778727 0.2746515 0 0 0 0 9.7723866
-6.5719628 1.1662573 4.4900365 0 0 0 0 9.7773333
-6.2062731 1.22844 4.5549021 0 0 0 0 9.78228
-0.45767027 0.060228847 0.23644911 0 0 0 0 9.7872276
-6.584549 1.017241 4.4773936 0 0 0 0 9.797121
-6.2229824 1.0923822 4.5423374 0 0 0 0 9.8020687
-0.48849207 0.059749465 0.27359229 0 0 0 0 9.8119621
-6.5871482 0.86734438 4.4597073 0 0 0 0 9.8169088
-6.2506871 0.96016634 4.5408359 0 0 0 0 9.8218565
-0.44345295 0.038404599 0.22632365 0 0 0 0 9.8268032
-6.5967402 0.71934712 4.449059 0 0 0 0 9.8366976
-6.2653852 0.82410872 4.5322647 0 0 0 0 9.8416443
-0.47126943 0.036959119 0.2624504 0 0 0 0 9.8515387
-6.2721047 0.6881516 4.5186625 0 0 0 0 9.8614321
-0.45519063 0.018254954 0.23230942 0 0 0 0 9.8663797
-0.49212092 0.037600145 0.29455972 0 0 0 0 9.8762732
-0.45008263 0.016225418 0.24730268 0 0 0 0 9.8911142
-0.55787057 0.042635005 0.36386913 0 0 0 0 9.9010086
-0.4439871 -0.00061785977 0.22621046 0 0 0 0 9.9059553
-0.55173868 0.017841263 0.33273831 0 0 0 0 9.9158497
-0.51867115 -0.0046433965 0.29051158 0 0 0 0 9.9306898
-0.54564846 0.019797953 0.35274726 0 0 0 0 9.9405842
-0.48562053 -0.024143215 0.25129938 0 0 0 0 9.9455309
-0.54648507 -0.0051010903 0.32964382 0 0 0 0 9.9554253
-0.52924258 -0.027803469 0.29758561 0 0 0 0 10.083145
-0.54226744 -0.0021794736 0.34977129 0 0 0 0 10.09304
-0.48024002 -0.046111625 0.24931513 0 0 0 0 10.097986
-0.54708445 -0.028130917 0.3296791 0 0 0 0 10.107881
-0.52796978 -0.051798727 0.29750234 0 0 0 0 10.122722
-0.54599524 -0.025231076 0.35171255 0 0 0 0 10.132615
-0.47600013 -0.06707494 0.24823448 0 0 0 0 10.137562
-0.55178607 -0.053201422 0.33361477 0 0 0 0 10.147456
-0.48287883 -0.067255758 0.27128482 0 0 0 0 10.162297
-0.55769932 -0.048386585 0.35968551 0 0 0 0 10.172192
-0.48767862 -0.092241384 0.25819761 0 0 0 0 10.177138
-0.56047219 -0.07832855 0.34156638 0 0 0 0 10.187033
-0.52044529 -0.097742535 0.29732633 0 0 0 0 10.201873
-0.57136387 -0.074574687 0.37065208 0 0 0 0 10.211767
-0.49636596 -0.11736964 0.26614916 0 0 0 0 10.216714
-0.49748042 -0.08954557 0.30029735 0 0 0 0 10.226608
-6.5009465 -1.1277012 4.6244211 0 0 0 0 10.231555
-7.015749 -1.837986 4.5120854 0 0 0 0 10.241449
-6.7391825 -1.5565951 4.5583396 0 0 0 0 10.246396
-6.4348202 -1.260857 4.5865502 0 0 0 0 10.251344
-0.52591807 -0.15076582 0.28914517 0 0 0 0 10.25629
-6.9772053 -1.9995911 4.5141916 0 0 0 0 10.261237
-6.7047544 -1.7082113 4.5545096 0 0 0 0 10.266184
-6.4712129 -1.4143369 4.6239948 0 0 0 0 10.271132
-6.9257159 -2.1590369 4.5082574 0 0 0 0 10.281025
-6.6693339 -1.8588237 4.5516806 0 0 0 0 10.285973
-6.4389019 -1.5559459 4.6142206 0 0 0 0 10.290919
-0.52063155 -0.17573339 0.29104206 0 0 0 0 10.295866
-6.8851652 -2.3206389 4.5133572 0 0 0 0 10.300814
-6.6448421 -2.0135822 4.5578761 0 0 0 0 10.30576
-6.4105735 -1.6976167 4.6094618 0 0 0 0 10.310707
-6.8555293 -2.4873919 4.5284762 0 0 0 0 10.320601
-6.5974574 -2.1620691 4.5520105 0 0 0 0 10.325548
-6.3762455 -1.8402222 4.6026754 0 0 0 0 10.330495
-0.48752728 -0.18835887 0.2758863 0 0 0 0 10.335443
-6.8924618 -2.6809943 4.5907354 0 0 0 0 10.340389
-6.5689659 -2.3167963 4.5591912 0 0 0 0 10.345336
-6.358839 -1.9860492 4.608942 0 0 0 0 10.350284
-6.0805287 -2.7460849 3.9041784 0 0 0 0 10.35523
-6.9015241 -2.8672636 4.6379185 0 0 0 0 10.360177
-6.6656594 -2.5201414 4.6596437 0 0 0 0 10.365125
-6.3254914 -2.1286938 4.6081605 0 0 0 0 10.370071
-6.8681626 -3.300106 4.4657364 0 0 0 0 10.375018
-6.909544 -3.0575325 4.6870785 0 0 0 0 10.379965
-6.9440718 -2.8058174 4.892436 0 0 0 0 10.384912
-6.2861629 -2.2712638 4.6033559 0 0 0 0 10.389859
-6.086832 -3.098546 4.0025911 0 0 0 0 10.394806
-6.9125381 -3.2507541 4.7362056 0 0 0 0 10.399754
-6.9451976 -2.9889724 4.9316039 0 0 0 0 10.4047
-6.2567673 -2.4169755 4.6085758 0 0 0 0 10.409647
-6.7141147 -3.6206353 4.4756618 0 0 0 0 10.414595
-6.6563988 -3.3177123 4.6088915 0 0 0 0 10.419541
-6.2303476 -2.8469982 4.4594364 0 0 0 0 10.424488
-6.9444947 -2.8609548 5.152266 0 0 0 0 10.429436
-6.640552 -3.7829626 4.486629 0 0 0 0 10.434382
-6.4777741 -3.4146516 4.5347462 0 0 0 0 10.439329
-6.9324031 -3.3601522 5.0118561 0 0 0 0 10.444276
-6.8572669 -3.0039546 5.1222692 0 0 0 0 10.449224
-4.4416451 -2.6614554 3.0321488 0 0 0 0 10.45417
-4.4638848 -2.4772117 3.15013 0 0 0 0 10.459117
-6.4113822 -3.2866528 4.6771417 0 0 0 0 10.464065
-6.147603 -2.8539078 4.6221561 0 0 0 0 10.469011
-4.390574 -2.7710059 3.0424526 0 0 0 0 10.473958
-4.3027906 -2.5173295 3.0753198 0 0 0 0 10.478906
-6.2219858 -3.3664148 4.5860338 0 0 0 0 10.483852
-5.5216374 -2.7119298 4.1803398 0 0 0 0 10.488799
-4.3285942 -2.8734269 3.046746 0 0 0 0 10.493746
-4.2518215 -2.6188486 3.0786614 0 0 0 0 10.498693
-4.5112309 -2.5665491 3.3509705 0 0 0 0 10.50364
-5.4645047 -2.8353331 4.1735549 0 0 0 0 10.508587
-4.269568 -2.9789007 3.0560369 0 0 0 0 10.513535
-4.1948905 -2.7173035 3.0799937 0 0 0 0 10.518481
-4.3759537 -2.6219616 3.2871916 0 0 0 0 10.523428
-5.4232335 -2.967952 4.1807904 0 0 0 0 10.528376
-4.2036057 -3.0792913 3.0613246 0 0 0 0 10.533322
-4.1428957 -2.819839 3.0883267 0 0 0 0 10.538269
-4.0910692 -2.5754402 3.1092925 0 0 0 0 10.543217
-4.3695102 -2.5143692 3.3937213 0 0 0 0 10.548163
-4.1126823 -3.159416 3.0506773 0 0 0 0 11.198532
-4.0886493 -2.9203942 3.0957129 0 0 0 0 11.203479
-4.0427895 -2.6740475 3.1136925 0 0 0 0 11.208426
-4.3271527 -2.6179364 3.3971395 0 0 0 0 11.213373
-5.996479 -4.8455162 4.5525513 0 0 0 0 11.21832
-4.0327034 -3.0209024 3.1030421 0 0 0 0 11.223268
-3.9928815 -2.7715962 3.1180599 0 0 0 0 11.228214
-4.0453105 -2.5714817 3.2092268 0 0 0 0 11.233161
-5.8881888 -4.985538 4.5594873 0 0 0 0 11.238109
-3.9638698 -3.1122622 3.1033616 0 0 0 0 11.243055
-3.9449356 -2.8721774 3.1254213 0 0 0 0 11.248002
-3.9092615 -2.6078897 3.1365256 0 0 0 0 11.25295
-5.7788796 -5.1265664 4.5694146 0 0 0 0 11.257896
-5.7551575 -4.745492 4.6051197 0 0 0 0 11.262843
-3.8910482 -2.9676919 3.1297824 0 0 0 0 11.26779
-3.8604107 -2.7014258 3.135916 0 0 0 0 11.272738
-5.672543 -5.2686467 4.5843492 0 0 0 0 11.277684
-5.6568646 -4.885612 4.6130958 0 0 0 0 11.282631
-3.8361497 -3.0642028 3.1351347 0 0 0 0 11.287579
-3.8303523 -2.8102171 3.1533127 0 0 0 0 11.292525
-5.4585066 -5.3053427 4.5113335 0 0 0 0 11.297472
-5.5566134 -5.0217109 4.6200824 0 0 0 0 11.30242
-3.7693665 -3.1515696 3.1324809 0 0 0 0 11.307366
-3.7834439 -2.9078004 3.1586926 0 0 0 0 11.312313
-5.2504506 -5.3421197 4.4433413 0 0 0 0 11.31726
-5.4672022 -5.1699696 4.6400576 0 0 0 0 11.322207
-5.4665256 -4.7979469 4.6428118 0 0 0 0 11.327154
-3.8423924 -3.0917704 3.2561052 0 0 0 0 11.332101
-5.1392088 -5.4741621 4.458302 0 0 0 0 11.337049
-5.3352804 -5.2786922 4.6270423 0 0 0 0 11.341995
-5.3772182 -4.9391608 4.6528192 0 0 0 0 11.346942
-5.4035134 -4.5644364 4.667697 0 0 0 0 11.35189
-5.0289464 -5.6072292 4.4762626 0 0 0 0 11.356836
-5.1056352 -5.2841282 4.5271063 0 0 0 0 11.361784
-5.2888918 -5.0813994 4.6658263 0 0 0 0 11.36673
-5.3281736 -4.7087812 4.6787472 0 0 0 0 11.371677
-4.9048543 -5.7251368 4.4862366 0 0 0 0 11.376625
-4.9569888 -5.368639 4.5001345 0 0 0 0 11.381571
-5.1965852 -5.2216029 4.6788273 0 0 0 0 11.386518
-5.2458711 -4.8510466 4.6857786 0 0 0 0 11.391466
-4.7906108 -5.855185 4.5071945 0 0 0 0 11.396412
-4.8478374 -5.4926863 4.5111403 0 0 0 0 11.40136
-5.033164 -5.2908783 4.6298652 0 0 0 0 11.406305
-5.1635456 -4.9943314 4.6968055 0 0 0 0 11.411253
-4.6704264 -5.9801688 4.5251517 0 0 0 0 11.416201
-4.7425966 -5.6238027 4.52913 0 0 0 0 11.421146
-4.8175111 -5.2964568 4.5319843 0 0 0 0 11.426094
-5.0712962 -5.131505 4.7028198 0 0 0 0 11.431042
-4.5393887 -6.0920234 4.5361252 0 0 0 0 11.435987
-4.6294317 -5.748826 4.5421152 0 0 0 0 11.440935
-4.6975908 -5.4033208 4.5240254 0 0 0 0 11.445883
-4.9750848 -5.265635 4.7068324 0 0 0 0 11.450829
-4.4113054 -6.2069302 4.5520964 0 0 0 0 11.455776
-4.5152779 -5.8718524 4.557106 0 0 0 0 11.460724
-4.6081843 -5.5496192 4.5500093 0 0 0 0 11.46567
-4.7644253 -5.2742391 4.6039562 0 0 0 0 11.470617
-4.2851496 -6.3278794 4.5730476 0 0 0 0 11.475565
-4.3971529 -5.992835 4.5700898 0 0 0 0 11.480511
-4.4951162 -5.6676087 4.555027 0 0 0 0 11.485458
-4.6110024 -5.343617 4.5560331 0 0 0 0 11.490406
-4.1481709 -6.4326963 4.5860291 0 0 0 0 11.495352
-4.2760344 -6.1118069 4.5860705 0 0 0 0 11.500299
-4.3997316 -5.8118567 4.580996 0 0 0 0 11.505247
-4.5137758 -5.4767771 4.5670457 0 0 0 0 11.510193
-4.0180554 -6.5486236 4.6089873 0 0 0 0 11.515141
-4.1559052 -6.2317944 4.6030498 0 0 0 0 11.520088
-4.2826509 -5.9298325 4.5899973 0 0 0 0 11.525034
-4.4204679 -5.6160064 4.5850463 0 0 0 0 11.529982
-3.8800545 -6.6544542 4.6259589 0 0 0 0 11.534927
-4.0258918 -6.3416662 4.6140361 0 0 0 0 11.539875
-4.1753798 -6.0639539 4.6109643 0 0 0 0 11.544823
-4.3192058 -5.7521472 4.5990281 0 0 0 0 11.549768
-3.7400737 -6.7572784 4.644937 0 0 0 0 11.554716
-3.9027185 -6.4636631 4.6379938 0 0 0 0 11.559664
-4.0503554 -6.1768532 4.6179566 0 0 0 0 11.56461
-4.2110243 -5.8812094 4.6090145 0 0 0 0 11.569557
-3.5990813 -6.8611007 4.664906 0 0 0 0 11.574505
-3.7707005 -6.5725403 4.652976 0 0 0 0 11.579451
-3.9312069 -6.2998486 4.6339259 0 0 0 0 11.584398
-4.1027675 -6.0163012 4.6249723 0 0 0 0 11.589346
-3.4570997 -6.9629254 4.6868796 0 0 0 0 11.594292
-3.6357059 -6.6793885 4.666955 0 0 0 0 11.599239
-3.8100429 -6.4238377 4.6518822 0 0 0 0 11.604187
-3.9836867 -6.136251 4.6309562 0 0 0 0 11.609133
-3.3052943 -7.0496173 4.6988826 0 0 0 0 11.61408
-3.501657 -6.7892799 4.6879239 0 0 0 0 11.619028
-3.6819639 -6.539753 4.6668477 0 0 0 0 11.623974
-3.8723903 -6.2743373 4.6508875 0 0 0 0 11.628922
-3.1583905 -7.1433978 4.719873 0 0 0 0 11.633869
-3.3626618 -6.8951101 4.7048907 0 0 0 0 11.638815
-3.5509267 -6.6516385 4.680819 0 0 0 0 11.643763
-3.7502618 -6.3972921 4.6628442 0 0 0 0 11.648708
-3.0094581 -7.2391763 4.7438455 0 0 0 0 11.653656
-3.2226517 -7.0009532 4.725853 0 0 0 0 11.658604
-3.4178383 -6.768518 4.6967583 0 0 0 0 11.663549
-3.6290438 -6.5282798 4.6797676 0 0 0 0 11.668497
-2.8544126 -7.3191881 4.7593403 0 0 0 0 11.40049
-3.0803804 -7.1061282 4.7472825 0 0 0 0 11.405437
-3.2835205 -6.8827686 4.715178 0 0 0 0 11.410385
-3.4977243 -6.6485443 4.6911712 0 0 0 0 11.415331
-2.6996191 -7.4008803 4.7783556 0 0 0 0 11.420279
-2.9315169 -7.1978483 4.7612753 0 0 0 0 11.425226
-3.1483774 -7.0016532 4.7381005 0 0 0 0 11.430172
-3.3734455 -6.7825246 4.7140675 0 0 0 0 11.43512
-2.5428317 -7.4815617 4.798367 0 0 0 0 11.440065
-2.7845333 -7.298635 4.7852335 0 0 0 0 11.445013
-3.007324 -7.1124682 4.7570362 0 0 0 0 11.449961
-3.237366 -6.8993497 4.7259955 0 0 0 0 11.454906
-2.3841031 -7.5562229 4.8173981 0 0 0 0 11.459854
-2.6306911 -7.3873243 4.801219 0 0 0 0 11.464802
-2.862299 -7.2202492 4.7759695 0 0 0 0 11.469748
-3.0992234 -7.0211821 4.7428918 0 0 0 0 11.474695
-2.2974589 -7.8833137 5.0005493 0 0 0 0 11.479643
-2.4749296 -7.4679899 4.8152347 0 0 0 0 11.484589
-2.7113764 -7.3189569 4.7899203 0 0 0 0 11.489536
-2.961004 -7.149044 4.765759 0 0 0 0 11.494484
-2.1412365 -8.000144 5.0493941 0 0 0 0 11.49943
-2.3200212 -7.5607119 4.8391962 0 0 0 0 11.504377
-2.5594516 -7.4166713 4.8068714 0 0 0 0 11.509325
-2.8149006 -7.2668099 4.7826405 0 0 0 0 11.514271
-1.9706239 -8.0627003 5.0674324 0 0 0 0 11.519218
-2.2370481 -7.9198937 5.0342135 0 0 0 0 11.524166
-2.4055154 -7.5153751 4.8248096 0 0 0 0 11.529112
-2.6619833 -7.3674784 4.7915735 0 0 0 0 11.53406
-1.8017547 -8.1473455 5.1003737 0 0 0 0 11.539007
-2.075062 -8.01859 5.0651183 0 0 0 0 11.543953
-2.2985773 -7.7880349 4.9551311 0 0 0 0 11.548901
-2.51281 -7.4902539 4.8154192 0 0 0 0 11.553846
-1.6310227 -8.2189531 5.1283684 0 0 0 0 11.558794
-1.9042788 -8.0991631 5.0860715 0 0 0 0 11.563742
-2.1672544 -8.0063286 5.0536056 0 0 0 0 11.568687
-2.3933516 -7.7246418 4.9118671 0 0 0 0 11.573635
-1.4554884 -8.2724781 5.1474266 0 0 0 0 11.578583
-1.7363138 -8.1948204 5.1189647 0 0 0 0 11.583529
-1.9983083 -8.1049232 5.0754814 0 0 0 0 11.588476
-2.2783871 -8.0032091 5.0371289 0 0 0 0 11.593424
-1.2797546 -8.3430605 5.1784043 0 0 0 0 11.59837
-1.5606515 -8.26334 5.1369524 0 0 0 0 11.603317
-1.8263991 -8.1994944 5.0973635 0 0 0 0 11.608265
-2.1130955 -8.13589 5.0698609 0 0 0 0 11.613211
-1.1031227 -8.4036236 5.2064242 0 0 0 0 11.618158
-1.3857771 -8.3499317 5.1678581 0 0 0 0 11.623106
-1.6533872 -8.3020964 5.127203 0 0 0 0 11.628052
-1.940042 -8.2464571 5.0926638 0 0 0 0 11.632999
-0.89835221 -8.212204 5.0804992 0 0 0 0 11.637947
-1.2080306 -8.4244766 5.1938086 0 0 0 0 11.642893
-1.4735645 -8.387598 5.1480937 0 0 0 0 11.64784
-1.7620208 -8.3539772 5.1144595 0 0 0 0 11.652788
-0.71573043 -8.1824722 5.0569124 0 0 0 0 11.657734
-1.025386 -8.488966 5.2167845 0 0 0 0 11.662682
-1.2936305 -8.4821396 5.1769414 0 0 0 0 11.667627
-1.5800103 -8.4604664 5.1362433 0 0 0 0 11.672575
-0.54202169 -8.2471161 5.0949235 0 0 0 0 11.677523
-0.81141669 -8.2292376 5.0421367 0 0 0 0 11.682468
-1.1087025 -8.5756426 5.2067728 0 0 0 0 11.687416
-1.3959458 -8.569972 5.1650043 0 0 0 0 11.692364
-0.36462703 -8.2836542 5.1170492 0 0 0 0 11.697309
-0.63451177 -8.3148689 5.0830364 0 0 0 0 11.702257
-0.89757061 -8.4212122 5.0886464 0 0 0 0 11.707205
-1.2060264 -8.6663952 5.186801 0 0 0 0 11.712151
-0.18719853 -8.3222132 5.1431646 0 0 0 0 11.717098
-0.45377338 -8.3854303 5.1159897 0 0 0 0 11.722046
-0.70471346 -8.4174061 5.0668955 0 0 0 0 11.726992
-1.0121045 -8.7627916 5.2095804 0 0 0 0 11.731939
-0.0067364317 -8.3627663 5.1732578 0 0 0 0 11.736887
-0.27019697 -8.440937 5.1420007 0 0 0 0 11.741833
-0.518758 -8.5109415 5.1037197 0 0 0 0 11.74678
-0.78667951 -8.5470457 5.0506778 0 0 0 0 11.751728
0.1714692 -8.3802805 5.1904664 0 0 0 0 11.756674
-0.083674036 -8.4904194 5.1680269 0 0 0 0 11.761621
-0.32809097 -8.5773821 5.1286502 0 0 0 0 11.766569
-0.59262049 -8.6535025 5.0854092 0 0 0 0 11.771515
0.3675575 -8.7386627 5.4220181 0 0 0 0 11.776463
0.10179613 -8.5349045 5.19208 0 0 0 0 11.78141
-0.13444668 -8.6417942 5.1525774 0 0 0 0 11.786356
-0.39475894 -8.7408953 5.1132121 0 0 0 0 11.791304
0.5578891 -8.765132 5.4511342 0 0 0 0 11.796249
0.30024108 -8.8410597 5.3798647 0 0 0 0 11.801197
0.061191667 -8.7042065 5.1795044 0 0 0 0 11.806145
-0.19286865 -8.8302708 5.1439886 0 0 0 0 11.81109
0.74711627 -8.7815952 5.4763007 0 0 0 0 11.816038
0.50237805 -8.9425964 5.4445829 0 0 0 0 11.820986
0.26309296 -8.8778973 5.2758894 0 0 0 0 11.825932
0.013955145 -8.9135914 5.171772 0 0 0 0 11.830879
0.93950737 -8.8120804 5.5113873 0 0 0 0 11.835827
0.7028082 -8.9809771 5.4726005 0 0 0 0 11.840773
0.48024222 -9.1627741 5.438695 0 0 0 0 11.84572
0.22271197 -8.9889021 5.2005839 0 0 0 0 11.850668
1.131664 -8.8205223 5.5365772 0 0 0 0 11.855614
0.90418535 -9.0133524 5.5006413 0 0 0 0 11.860561
0.69177473 -9.2130594 5.4666109 0 0 0 0 11.865509
0.45534727 -9.4119654 5.4306846 0 0 0 0 11.870455
1.3252515 -8.8328962 5.5653486 0 0 0 0 11.629448
1.1110266 -9.0506477 5.5332308 0 0 0 0 11.634396
0.90885311 -9.2733011 5.5030403 0 0 0 0 11.639341
0.68145442 -9.4781008 5.4570389 0 0 0 0 11.644289
1.5225985 -8.8563471 5.6044502 0 0 0 0 11.649237
1.3174956 -9.0890074 5.5702257 0 0 0 0 11.654182
1.127322 -9.3165073 5.529964 0 0 0 0 11.65913
0.91120577 -9.5502405 5.4907813 0 0 0 0 11.664078
1.7166624 -8.8537683 5.6306858 0 0 0 0 11.669024
1.5236548 -9.0993023 5.5923519 0 0 0 0 11.673971
1.3489022 -9.3677368 5.5668359 0 0 0 0 11.678919
1.1458513 -9.6123209 5.5205493 0 0 0 0 11.683865
1.9117651 -8.8541965 5.6599026 0 0 0 0 11.688812
1.7381606 -9.1386309 5.6363072 0 0 0 0 11.69376
1.5733207 -9.4039106 5.596765 0 0 0 0 11.698706
1.3867078 -9.6914206 5.5652113 0 0 0 0 11.703653
2.1098847 -8.8546209 5.6931057 0 0 0 0 11.708601
1.9462404 -9.1399136 5.6584659 0 0 0 0 11.713547
1.7997293 -9.4380798 5.628695 0 0 0 0 11.718494
1.6303108 -9.7474422 5.5979681 0 0 0 0 11.723442
2.3048391 -8.8400364 5.7183914 0 0 0 0 11.728388
2.1573107 -9.139183 5.68262 0 0 0 0 11.733335
2.0280979 -9.4672384 5.6616387 0 0 0 0 11.738283
1.8790643 -9.8154745 5.6416473 0 0 0 0 11.743229
2.5060451 -8.8464775 5.7595515 0 0 0 0 11.748177
2.3746541 -9.1614809 5.7236404 0 0 0 0 11.753122
2.2636387 -9.5103951 5.7064872 0 0 0 0 11.75807
2.1222653 -9.8324394 5.6605859 0 0 0 0 11.763018
2.7091594 -8.8438883 5.7977457 0 0 0 0 11.767963
2.5970571 -9.1877661 5.7706203 0 0 0 0 11.772911
2.4988925 -9.5274916 5.7374568 0 0 0 0 11.777859
2.3747344 -9.8724031 5.6953778 0 0 0 0 11.782804
2.8988063 -8.7993088 5.8121896 0 0 0 0 11.787752
2.8130395 -9.1760101 5.796803 0 0 0 0 11.7927
2.7424314 -9.5686035 5.7862797 0 0 0 0 11.797646
2.6342454 -9.9153271 5.7341261 0 0 0 0 11.802593
3.1080499 -8.805728 5.8623142 0 0 0 0 11.807541
3.0300431 -9.1652632 5.8259754 0 0 0 0 11.812487
2.9878089 -9.5936785 5.8301682 0 0 0 0 11.817434
2.8956945 -9.9502478 5.7749023 0 0 0 0 11.822382
3.3027401 -8.7631378 5.8827262 0 0 0 0 11.827328
3.2500856 -9.1565161 5.8601251 0 0 0 0 11.832275
3.2227664 -9.5807486 5.8532748 0 0 0 0 11.837223
3.1662335 -9.9931164 5.8206024 0 0 0 0 11.842169
3.5036423 -8.737565 5.9180322 0 0 0 0 11.847116
3.4874988 -9.1787338 5.9180574 0 0 0 0 11.852064
3.4679174 -9.5828047 5.8912692 0 0 0 0 11.85701
3.4350395 -10.023855 5.8703508 0 0 0 0 11.861958
3.6998296 -8.7038622 5.9532533 0 0 0 0 11.866905
3.6923959 -9.122859 5.9324322 0 0 0 0 11.871851
3.7072117 -9.5657167 5.9234257 0 0 0 0 11.876799
3.703198 -10.031702 5.9063845 0 0 0 0 11.881744
3.8944116 -8.6502886 5.9758229 0 0 0 0 11.886692
3.9132271 -9.0941019 5.964798 0 0 0 0 11.89164
3.9521728 -9.551754 5.9566393 0 0 0 0 11.896585
3.9814174 -10.044488 5.9473605 0 0 0 0 11.901533
4.0982308 -8.6177034 6.0132666 0 0 0 0 11.906481
4.1370115 -9.060317 5.9961753 0 0 0 0 11.911427
4.2011218 -9.5347786 5.9938517 0 0 0 0 11.916374
4.2575202 -10.044291 5.987401 0 0 0 0 11.921322
4.2344651 -8.4432697 5.9535809 0 0 0 0 11.926268
4.2226272 -8.7408781 5.8383145 0 0 0 0 11.931215
4.2963562 -9.1791754 5.8181171 0 0 0 0 11.936163
4.3757143 -9.6834974 5.8136072 0 0 0 0 11.941109
4.335083 -8.2129803 5.8572707 0 0 0 0 11.946056
4.4301167 -8.6781826 5.8568769 0 0 0 0 11.951004
4.5565839 -9.1852036 5.8761859 0 0 0 0 11.95595
4.6701784 -9.7142601 5.8784432 0 0 0 0 11.960897
4.5369143 -8.1784525 5.9017282 0 0 0 0 11.965845
4.6601 -8.6594343 5.9061637 0 0 0 0 11.970791
4.807478 -9.1602335 5.9164248 0 0 0 0 11.975739
4.9501858 -9.7010593 5.9225259 0 0 0 0 11.980686
4.7345667 -8.1269236 5.9372749 0 0 0 0 11.985632
4.8767338 -8.6077232 5.937644 0 0 0 0 11.99058
5.0603819 -9.1342745 5.9616604 0 0 0 0 11.995525
5.2352076 -9.6878347 5.9705906 0 0 0 0 12.000473
4.9281492 -8.0684185 5.9698672 0 0 0 0 12.005421
5.1014695 -8.5639868 5.9780588 0 0 0 0 12.010366
5.3213167 -9.1092739 6.0128627 0 0 0 0 12.015314
5.4079461 -9.4640131 5.8919902 0 0 0 0 12.020262
5.1217132 -8.0069246 6.0044727 0 0 0 0 12.025208
5.358696 -8.5631199 6.0511665 0 0 0 0 12.030155
5.4009328 -8.7839508 5.8660455 0 0 0 0 12.035103
5.4290881 -9.0018377 5.6659884 0 0 0 0 12.040049
5.3294792 -7.9623795 6.0539508 0 0 0 0 12.044996
5.3910208 -8.2131033 5.881628 0 0 0 0 12.049944
5.425777 -8.3888874 5.6717329 0 0 0 0 12.05489
5.4516211 -8.5757408 5.4598207 0 0 0 0 12.059837
5.3806076 -7.686398 5.9280157 0 0 0 0 12.064785
5.4032369 -7.8542166 5.7021995 0 0 0 0 12.069731
5.4743137 -8.055809 5.5190587 0 0 0 0 12.074678
5.4795485 -8.1847067 5.2774773 0 0 0 0 12.079626
5.3943262 -7.3746114 5.7733727 0 0 0 0 12.084572
5.4268436 -7.5303364 5.5455737 0 0 0 0 12.08952
5.4885478 -7.6959348 5.3456259 0 0 0 0 12.094467
5.5229754 -7.8396616 5.1218729 0 0 0 0 12.099413
5.603404 -7.3358607 5.8325696 0 0 0 0 11.963032
5.5321102 -7.3329296 5.4828448 0 0 0 0 11.967979
5.5052862 -7.3608632 5.1888232 0 0 0 0 11.972927
5.5415092 -7.482542 4.9591584 0 0 0 0 11.977873
5.8233466 -7.3032937 5.90095 0 0 0 0 11.982821
5.7874179 -7.3341465 5.5709476 0 0 0 0 11.987768
5.7360668 -7.3171234 5.2392125 0 0 0 0 11.992714
5.6807799 -7.3041706 4.9154744 0 0 0 0 11.997662
6.0848365 -7.3155661 6.0129819 0 0 0 0 12.002607
6.0416021 -7.3223629 5.6561117 0 0 0 0 12.007555
6.0113859 -7.3191762 5.328239 0 0 0 0 12.012503
5.961019 -7.3011365 4.9945049 0 0 0 0 12.017448
6.3502378 -7.3187952 6.1220388 0 0 0 0 12.022396
6.3230472 -7.3314452 5.7630844 0 0 0 0 12.027344
6.2946601 -7.3151722 5.4192629 0 0 0 0 12.03229
6.2583418 -7.3039989 5.0824471 0 0 0 0 12.037237
6.611505 -7.3090363 6.2251682 0 0 0 0 12.042185
6.5901799 -7.3115788 5.8532367 0 0 0 0 12.047131
6.5890007 -7.3151164 5.5192285 0 0 0 0 12.052078
6.5676727 -7.3047929 5.1773548 0 0 0 0 12.057026
6.8584733 -7.2713323 6.3124719 0 0 0 0 12.061972
6.8825564 -7.3105955 5.9652138 0 0 0 0 12.066919
6.9024 -7.3179402 5.6281128 0 0 0 0 12.071867
6.8950825 -7.3104792 5.2821746 0 0 0 0 12.076813
7.0608559 -7.1828332 6.3591604 0 0 0 0 12.08176
7.2000761 -7.3194709 6.0930567 0 0 0 0 12.086708
7.217741 -7.3127642 5.7400246 0 0 0 0 12.091654
7.2274342 -7.3081403 5.3900123 0 0 0 0 12.096601
7.2470121 -7.0734191 6.3929992 0 0 0 0 12.101549
7.522543 -7.3213162 6.2229118 0 0 0 0 12.106495
7.5541396 -7.3104506 5.8608475 0 0 0 0 12.111443
7.5626659 -7.2927718 5.4958963 0 0 0 0 12.116388
7.4301114 -6.958025 6.4248753 0 0 0 0 12.121336
7.7811875 -7.2504745 6.2993174 0 0 0 0 12.126284
7.8358865 -7.2484426 5.9441299 0 0 0 0 12.131229
7.8826022 -7.2484808 5.588963 0 0 0 0 12.136177
7.6232681 -6.8465734 6.4626961 0 0 0 0 12.141125
7.7810102 -6.9399281 6.1677151 0 0 0 0 12.14607
7.8406215 -6.9268641 5.8145585 0 0 0 0 12.151018
7.8882666 -6.9169135 5.4634309 0 0 0 0 12.155966
7.7224488 -6.6526036 6.4272199 0 0 0 0 12.160912
7.7941151 -6.653358 6.0559578 0 0 0 0 12.165859
7.8455267 -6.6203303 5.6949182 0 0 0 0 12.170807
7.8980846 -6.5993466 5.3458214 0 0 0 0 12.175753
7.7570205 -6.4089637 6.3411951 0 0 0 0 12.1807
7.8052864 -6.372818 5.9471793 0 0 0 0 12.185648
7.8626566 -6.3327627 5.5911484 0 0 0 0 12.190594
7.9060473 -6.2938414 5.2381639 0 0 0 0 12.195541
7.7674136 -6.1504664 6.2403216 0 0 0 0 12.200489
7.8105135 -6.0973392 5.8403993 0 0 0 0 12.205435
7.8627605 -6.0433245 5.483448 0 0 0 0 12.210382
7.9080572 -5.9933877 5.1305041 0 0 0 0 12.21533
7.7748814 -5.8990078 6.142427 0 0 0 0 12.220276
7.8168826 -5.8338957 5.7435608 0 0 0 0 12.225224
7.8730488 -5.7698531 5.3876386 0 0 0 0 12.230171
7.9273577 -5.7178755 5.0426707 0 0 0 0 12.235117
7.7743502 -5.6476145 6.0435591 0 0 0 0 12.240065
7.8172784 -5.5735002 5.6457291 0 0 0 0 12.24501
7.8885126 -5.5113916 5.3037438 0 0 0 0 12.249958
7.9245782 -5.4355226 4.9479465 0 0 0 0 12.254906
7.7789693 -5.4092212 5.9546151 0 0 0 0 12.259851
7.8409696 -5.3370118 5.5717072 0 0 0 0 12.264799
7.8899131 -5.2480197 5.2129197 0 0 0 0 12.269747
7.9349947 -5.1701145 4.8660979 0 0 0 0 12.274693
7.7876983 -5.1798301 5.8736153 0 0 0 0 12.27964
7.8495851 -5.0946178 5.4897642 0 0 0 0 12.284588
7.8954682 -4.9976621 5.1330228 0 0 0 0 12.289534
7.9485054 -4.9127078 4.7902031 0 0 0 0 12.294481
7.8015366 -4.9594302 5.8005567 0 0 0 0 12.299429
7.8572812 -4.8592544 5.4127927 0 0 0 0 12.304375
7.905117 -4.7552967 5.0590739 0 0 0 0 12.309322
7.9520531 -4.6583953 4.7163281 0 0 0 0 12.31427
7.7972822 -4.732142 5.7175922 0 0 0 0 12.319216
7.8620272 -4.6279302 5.3388133 0 0 0 0 12.324163
7.9107976 -4.5149784 4.9881301 0 0 0 0 12.329111
7.9586787 -4.4110751 4.6464109 0 0 0 0 12.334057
7.8132324 -4.5207615 5.6524844 0 0 0 0 12.339005
7.8607979 -4.3996534 5.2638407 0 0 0 0 12.343952
7.9125161 -4.2786951 4.9171815 0 0 0 0 12.348898
7.9684172 -4.1727686 4.5854421 0 0 0 0 12.353846
7.8141603 -4.3084869 5.5824332 0 0 0 0 12.358791
7.8626366 -4.1763773 5.1948342 0 0 0 0 12.363739
7.9223719 -4.0533915 4.8571544 0 0 0 0 12.368687
7.9661369 -3.9335473 4.5205193 0 0 0 0 12.373632
7.8141236 -4.0992308 5.5143719 0 0 0 0 12.37858
7.8756485 -3.967068 5.1397252 0 0 0 0 12.383528
7.92626 -3.8311436 4.7981348 0 0 0 0 12.388474
7.9669533 -3.7023308 4.4625492 0 0 0 0 12.393421
7.8181753 -3.8969707 5.4532642 0 0 0 0 12.398369
7.8836474 -3.756793 5.0826373 0 0 0 0 12.403315
7.9241562 -3.6099427 4.738131 0 0 0 0 12.408262
7.9778738 -3.479069 4.4135065 0 0 0 0 12.41321
7.8232784 -3.6987197 5.3961339 0 0 0 0 12.418156
7.8806391 -3.5465991 5.0225883 0 0 0 0 12.423103
7.3316627 -3.1392226 4.3323588 0 0 0 0 12.428051
7.3583956 -3.0036442 4.0228529 0 0 0 0 12.432997
7.8263435 -3.5043583 5.3398395 0 0 0 0 13.138906
7.2681179 -3.0836859 4.5826678 0 0 0 0 13.143854
7.3268814 -2.9429286 4.2840538 0 0 0 0 13.148802
7.3676758 -2.8063154 3.9844878 0 0 0 0 13.153748
7.2350197 -3.0602911 4.8849106 0 0 0 0 13.158695
7.2945538 -2.9073732 4.5503445 0 0 0 0 13.163643
7.3261409 -2.7507844 4.2388968 0 0 0 0 13.168589
7.3699169 -2.6091735 3.9453406 0 0 0 0 13.173536
7.2424335 -2.8860867 4.8416471 0 0 0 0 13.178484
7.2838297 -2.7192888 4.5002065 0 0 0 0 13.18343
7.3304577 -2.5626249 4.1997037 0 0 0 0 13.188377
7.3752089 -2.4160242 3.9101646 0 0 0 0 13.193325
7.2408361 -2.7119396 4.794416 0 0 0 0 13.198271
7.2882175 -2.5401239 4.4599738 0 0 0 0 13.203218
7.3348169 -2.3774827 4.1644959 0 0 0 0 13.208166
7.3725042 -2.2229407 3.8750162 0 0 0 0 13.213112
7.2533574 -2.5457373 4.7610984 0 0 0 0 13.21806
7.288641 -2.3640003 4.421742 0 0 0 0 13.223007
7.33218 -2.1933892 4.1273093 0 0 0 0 13.227953
7.3869152 -2.0387645 3.8507669 0 0 0 0 13.232901
7.2407742 -2.3736722 4.7118964 0 0 0 0 13.237846
7.2830396 -2.1859133 4.3805399 0 0 0 0 13.242794
7.370769 -2.0240788 4.1179075 0 0 0 0 13.247742
7.991673 -2.0020876 4.1337347 0 0 0 0 13.252687
7.2483139 -2.209507 4.677587 0 0 0 0 13.257635
7.3447909 -2.0304687 4.3839946 0 0 0 0 13.262583
7.9495506 -1.987642 4.4069691 0 0 0 0 13.267529
7.9839172 -1.8000667 4.1026402 0 0 0 0 13.272476
7.2829924 -2.0532057 4.6631441 0 0 0 0 13.277424
7.8996353 -1.9982636 4.6811261 0 0 0 0 13.28237
7.9498925 -1.7965629 4.3777986 0 0 0 0 13.287317
8.0012684 -1.6048965 4.0844235 0 0 0 0 13.292265
7.8520889 -2.0380187 4.9911513 0 0 0 0 13.297211
7.8990211 -1.8141743 4.6479287 0 0 0 0 13.302158
7.9502649 -1.6074964 4.3516178 0 0 0 0 13.307106
7.9945807 -1.4078931 4.0593019 0 0 0 0 13.312052
7.8615708 -1.863863 4.961874 0 0 0 0 13.316999
7.91049 -1.6350335 4.6256647 0 0 0 0 13.321947
7.9566627 -1.4193981 4.3294096 0 0 0 0 13.326893
7.9929357 -1.2138655 4.0381484 0 0 0 0 13.331841
7.8620658 -1.6917725 4.9306207 0 0 0 0 13.336788
7.914947 -1.4549416 4.6014299 0 0 0 0 13.341734
7.9480572 -1.2324052 4.3032513 0 0 0 0 13.346682
7.996336 -1.0228183 4.0219622 0 0 0 0 13.351627
7.8625741 -1.5206863 4.900362 0 0 0 0 13.356575
7.9114037 -1.2759024 4.5742188 0 0 0 0 13.361523
7.960526 -1.0482962 4.2900028 0 0 0 0 13.366468
8.005764 -0.8317523 4.0127535 0 0 0 0 13.371416
7.861073 -1.347621 4.8711176 0 0 0 0 13.376364
7.9149046 -1.0988359 4.5539727 0 0 0 0 13.38131
7.9629869 -0.86425614 4.2737889 0 0 0 0 13.386257
7.9921479 -0.63982683 3.9926312 0 0 0 0 13.391205
7.8746662 -1.1804843 4.8537931 0 0 0 0 13.396151
7.9194074 -0.92076987 4.5357265 0 0 0 0 13.401098
7.9544435 -0.6802972 4.2556148 0 0 0 0 13.406046
7.9955983 -0.44981807 3.9854381 0 0 0 0 13.410992
7.8742008 -1.0094279 4.8285351 0 0 0 0 13.415939
7.9119067 -0.74378455 4.5135188 0 0 0 0 13.420887
7.956933 -0.49727416 4.2433949 0 0 0 0 13.425833
7.9980593 -0.26081753 3.9782431 0 0 0 0 13.43078
7.8747773 -0.84138048 4.8072591 0 0 0 0 13.435728
7.910439 -0.56777579 4.4972835 0 0 0 0 13.440674
7.9514294 -0.31531188 4.2301989 0 0 0 0 13.445621
7.9895158 -0.071897745 3.9690869 0 0 0 0 13.450569
7.8793778 -0.67431748 4.7899642 0 0 0 0 13.455515
7.9129963 -0.39275157 4.4850287 0 0 0 0 13.460463
7.9419332 -0.13338619 4.2180166 0 0 0 0 13.465408
7.9930363 0.11407725 3.9698734 0 0 0 0 13.470356
7.8759632 -0.50630677 4.7697015 0 0 0 0 13.475304
7.9155641 -0.21773589 4.4747729 0 0 0 0 13.480249
7.9595046 0.047690667 4.2217312 0 0 0 0 13.485197
7.9905162 0.30401611 3.9676979 0 0 0 0 13.490145
7.8745656 -0.33829683 4.7534308 0 0 0 0 13.49509
7.9141421 -0.043752596 4.4645267 0 0 0 0 13.500038
7.9520478 0.22761153 4.2145314 0 0 0 0 13.504986
7.9840269 0.49091858 3.9665232 0 0 0 0 13.509932
7.8791847 -0.17025533 4.741137 0 0 0 0 13.514879
7.9187446 0.13025387 4.4602571 0 0 0 0 13.519827
7.9505877 0.41055974 4.2123208 0 0 0 0 13.524773
7.9945598 0.68090779 3.9772978 0 0 0 0 13.52972
7.8798065 -0.0022462667 4.728857 0 0 0 0 13.534668
7.9143157 0.30620855 4.4510279 0 0 0 0 13.539614
7.9461303 0.59348381 4.2101207 0 0 0 0 13.544561
7.9940701 0.87182909 3.9831159 0 0 0 0 13.549509
7.8674135 0.1656789 4.7116232 0 0 0 0 13.554455
7.9129033 0.48316216 4.4477916 0 0 0 0 13.559402
7.9517088 0.77645063 4.2168832 0 0 0 0 13.56435
7.9775805 1.0606427 3.9839828 0 0 0 0 13.569296
7.8780766 0.33372644 4.7093053 0 0 0 0 13.574244
7.9115086 0.65910739 4.4465494 0 0 0 0 13.579191
7.9362574 0.95928615 4.2147207 0 0 0 0 13.584137
7.982121 1.2525666 3.9987848 0 0 0 0 13.589085
7.8727012 0.50367433 4.7000523 0 0 0 0 13.59403
7.9101324 0.83404434 4.4473023 0 0 0 0 13.598978
7.9378486 1.1422124 4.223495 0 0 0 0 13.603926
7.9756732 1.4424105 4.0116172 0 0 0 0 13.608871
7.8649216 0.67238551 4.6916199 0 0 0 0 13.331282
7.9052691 1.0127584 4.4469132 0 0 0 0 13.336229
7.937942 1.327927 4.2351284 0 0 0 0 13.341177
7.9616661 1.6360304 4.0213461 0 0 0 0 13.346123
7.8595557 0.8413164 4.6863675 0 0 0 0 13.35107
7.8938594 1.1896179 4.4467158 0 0 0 0 13.356018
7.9314985 1.5137837 4.2449503 0 0 0 0 13.360964
7.9631886 1.8309089 4.0411758 0 0 0 0 13.365911
7.8631816 1.014295 4.6870985 0 0 0 0 13.370859
7.8934608 1.369529 4.4554901 0 0 0 0 13.375805
7.9310517 1.7026681 4.2597618 0 0 0 0 13.380753
7.9617052 2.0277543 4.063024 0 0 0 0 13.385698
7.8558121 1.1852009 4.6838603 0 0 0 0 13.390646
7.8900418 1.5514239 4.4622831 0 0 0 0 13.395594
7.9186015 1.8904719 4.2706118 0 0 0 0 13.400539
7.3784132 2.0661383 3.7883272 0 0 0 0 13.405487
7.8564339 1.3611381 4.6886134 0 0 0 0 13.410435
7.8886352 1.7343141 4.474072 0 0 0 0 13.41538
7.90415 2.0792556 4.2824721 0 0 0 0 13.420328
6.7653604 2.0673592 3.4965823 0 0 0 0 13.425276
7.8550663 1.5360591 4.693368 0 0 0 0 13.430222
7.8752103 1.9171324 4.4799032 0 0 0 0 13.435169
7.1719203 2.0638716 3.9060922 0 0 0 0 13.440117
6.1855183 2.0497892 3.2206371 0 0 0 0 13.445063
7.8497095 1.7099478 4.6981325 0 0 0 0 13.45001
7.866817 2.0999577 4.4937158 0 0 0 0 13.454958
6.5499177 2.0471389 3.5883043 0 0 0 0 13.459904
5.7287688 2.0489602 3.0063128 0 0 0 0 13.464851
7.8513207 1.8908676 4.7089005 0 0 0 0 13.469799
7.091567 2.0644457 4.0674081 0 0 0 0 13.474745
6.0430369 2.043087 3.3311493 0 0 0 0 13.479692
5.7057023 2.1916783 3.0200095 0 0 0 0 13.48464
7.8339348 2.0676718 4.7107191 0 0 0 0 13.489586
6.4955173 2.0509565 3.7435389 0 0 0 0 13.494534
5.6772261 2.0658524 3.1515925 0 0 0 0 13.499481
5.6966004 2.3434675 3.0436924 0 0 0 0 13.504427
7.122601 2.0476396 4.2952433 0 0 0 0 13.509375
5.996624 2.0430267 3.4743388 0 0 0 0 13.51432
5.6711621 2.2116792 3.1722393 0 0 0 0 13.519268
5.6864929 2.4972403 3.0693867 0 0 0 0 13.524216
6.5584693 2.0434237 3.9692967 0 0 0 0 13.529161
5.6527767 2.0699782 3.2937191 0 0 0 0 13.534109
5.662096 2.3584781 3.1939003 0 0 0 0 13.539057
5.6853805 2.6550565 3.1020644 0 0 0 0 13.544003
6.0764942 2.0416739 3.691061 0 0 0 0 13.54895
5.6497355 2.2128346 3.3133416 0 0 0 0 13.553898
5.6650004 2.5133355 3.2245512 0 0 0 0 13.558844
5.676259 2.8138125 3.1337745 0 0 0 0 13.563791
5.6446662 2.0361991 3.4446266 0 0 0 0 13.568739
5.6546731 2.3617258 3.3399596 0 0 0 0 13.573685
5.649931 2.6610863 3.2462366 0 0 0 0 13.578632
5.6591454 2.9705172 3.1625044 0 0 0 0 13.58358
5.6326499 2.1720216 3.4552517 0 0 0 0 13.588526
5.6376252 2.5044823 3.3566315 0 0 0 0 13.593473
5.6438322 2.8168719 3.2769222 0 0 0 0 13.598421
5.6549869 3.1372886 3.2002282 0 0 0 0 13.603367
5.6186194 2.309828 3.4658918 0 0 0 0 13.608315
5.6285577 2.652282 3.3782947 0 0 0 0 13.613262
5.6387029 2.9776566 3.3096249 0 0 0 0 13.618208
5.6488175 3.3070312 3.2409716 0 0 0 0 13.623156
5.6115732 2.4526656 3.4825268 0 0 0 0 13.628101
5.628449 2.8091204 3.4079621 0 0 0 0 13.633049
5.6275773 3.1374023 3.340344 0 0 0 0 13.637997
5.636631 3.4787304 3.2807436 0 0 0 0 13.642942
5.6065116 2.5995028 3.5031707 0 0 0 0 13.64789
5.6183486 2.9638917 3.4346569 0 0 0 0 13.652838
5.606451 3.2970724 3.3700986 0 0 0 0 13.657784
5.6274257 3.6554329 3.3255255 0 0 0 0 13.662731
5.6084175 2.7533708 3.5298178 0 0 0 0 13.667679
5.5992517 3.1166077 3.457375 0 0 0 0 13.672625
5.6092563 3.4728673 3.4158325 0 0 0 0 13.677572
5.6112118 3.8330836 3.3693357 0 0 0 0 13.68252
5.5933452 2.9011362 3.5485005 0 0 0 0 13.687466
5.5941086 3.2813814 3.4930918 0 0 0 0 13.692413
5.6000581 3.647583 3.4576049 0 0 0 0 13.697361
5.6059408 4.0227804 3.4231555 0 0 0 0 13.702307
5.5972223 3.061995 3.5811682 0 0 0 0 13.707254
5.585968 3.4461312 3.5288188 0 0 0 0 13.712202
5.5838799 3.819252 3.4973893 0 0 0 0 13.717148
5.591682 4.2104144 3.4749987 0 0 0 0 13.722095
5.5831127 3.2177436 3.6058795 0 0 0 0 13.727043
5.57479 3.6158574 3.5645766 0 0 0 0 13.731989
5.5856147 4.0090017 3.5521829 0 0 0 0 13.736937
5.5793805 4.4060435 3.5318675 0 0 0 0 13.741882
5.5669899 3.3754766 3.6306055 0 0 0 0 13.74683
5.5775585 3.7986407 3.6133375 0 0 0 0 13.751778
5.5703597 4.1946454 3.6000204 0 0 0 0 13.756723
5.565053 4.6066446 3.591763 0 0 0 0 13.761671
5.569788 3.5502982 3.6703329 0 0 0 0 13.766619
5.5583663 3.9712992 3.6501353 0 0 0 0 13.771564
5.554091 4.3832731 3.6498733 0 0 0 0 13.776512
5.550684 4.8142328 3.6546872 0 0 0 0 13.78146
5.5586076 3.7200336 3.7040896 0 0 0 0 13.786406
5.5480981 4.1579919 3.6959584 0 0 0 0 13.791353
5.5417628 4.5829029 3.7067568 0 0 0 0 13.796301
5.5382719 5.030808 3.7246406 0 0 0 0 13.801247
5.5437241 3.8952332 3.7388179 0 0 0 0 13.561157
5.5371108 4.3481588 3.7457488 0 0 0 0 13.566105
5.5256634 4.7869868 3.7666373 0 0 0 0 13.571051
5.5200496 5.250824 3.7966094 0 0 0 0 13.575998
5.532474 4.0749416 3.7786205 0 0 0 0 13.580946
5.5227761 4.5437965 3.7966282 0 0 0 0 13.585892
5.5042901 4.9915338 3.8255792 0 0 0 0 13.590839
5.5055327 5.4823465 3.8746383 0 0 0 0 13.595787
5.5251799 4.2636528 3.8254454 0 0 0 0 13.600733
5.5124102 4.7474327 3.855526 0 0 0 0 13.60568
5.5067554 5.2261853 3.9055591 0 0 0 0 13.610628
5.4839993 5.7168097 3.9537041 0 0 0 0 13.615574
5.5098658 4.454308 3.870307 0 0 0 0 13.620522
5.4979987 4.957037 3.9144626 0 0 0 0 13.625469
5.485292 5.4476871 3.9755702 0 0 0 0 13.630415
5.4743266 5.9763012 4.04883 0 0 0 0 13.635363
5.5074735 4.6610131 3.9281878 0 0 0 0 13.640308
5.4825611 5.1726122 3.9784269 0 0 0 0 13.645256
5.4677496 5.6831875 4.0536246 0 0 0 0 13.650204
5.45963 6.239749 4.1449904 0 0 0 0 13.655149
5.4980497 4.8706751 3.9831054 0 0 0 0 13.660097
5.4650812 5.3951597 4.0454268 0 0 0 0 13.665045
5.4561114 5.9356933 4.1417274 0 0 0 0 13.669991
5.4379091 6.5081291 4.2441955 0 0 0 0 13.674938
5.4786291 5.0802569 4.0380583 0 0 0 0 13.679886
5.4505272 5.6307015 4.1194696 0 0 0 0 13.684832
5.4434071 6.1991711 4.234879 0 0 0 0 13.689779
5.405169 6.7794218 4.343452 0 0 0 0 13.694727
5.4651375 5.3028536 4.1010432 0 0 0 0 13.699673
5.4418688 5.8842492 4.2035651 0 0 0 0 13.70462
5.4147453 6.4555426 4.3230586 0 0 0 0 13.709568
5.3723664 7.0616899 4.4487529 0 0 0 0 13.714514
5.4525666 5.5384331 4.1700778 0 0 0 0 13.719461
5.4282055 6.1407409 4.2916899 0 0 0 0 13.724409
5.4018922 6.745954 4.4323206 0 0 0 0 13.729355
5.147007 7.0930614 4.3997068 0 0 0 0 13.734303
5.4439497 5.7840114 4.247139 0 0 0 0 13.73925
5.4074707 6.4071732 4.3808808 0 0 0 0 13.744196
5.369091 7.0262437 4.5326123 0 0 0 0 13.749144
4.9097638 7.1043916 4.3386202 0 0 0 0 13.754089
5.4292674 6.0395293 4.3272624 0 0 0 0 13.759037
5.3827062 6.6795564 4.4741101 0 0 0 0 13.763985
5.1625257 7.08674 4.4906192 0 0 0 0 13.76893
4.7469831 7.213048 4.3426685 0 0 0 0 13.773878
5.4115248 6.3050065 4.411437 0 0 0 0 13.778826
5.3677778 6.9799571 4.5824194 0 0 0 0 13.783772
4.9292483 7.1001258 4.4245267 0 0 0 0 13.788719
5.3887424 6.5764408 4.496654 0 0 0 0 13.798613
5.2108059 7.1077061 4.5755248 0 0 0 0 13.80356
4.7535548 7.1897573 4.410542 0 0 0 0 13.808508
5.374815 6.8748708 4.5999498 0 0 0 0 13.818401
4.9566369 7.0960326 4.4844041 0 0 0 0 13.823349
5.2823424 7.0879354 4.6411753 0 0 0 0 13.83819
4.7590804 7.1566005 4.4443784 0 0 0 0 13.843136
5.0231442 7.0752664 4.5400691 0 0 0 0 13.857977
4.6358781 7.3314672 4.4755564 0 0 0 0 13.862925
4.8096271 7.1208014 4.4780383 0 0 0 0 13.877766
4.6596355 7.2545905 4.4771428 0 0 0 0 13.897552
3.549772 7.8491287 4.3906784 0 0 0 0 13.947023
3.7129209 7.7014947 4.3664622 0 0 0 0 13.961864
3.5580151 7.8351693 4.3865819 0 0 0 0 13.981653
2.506079 7.7303739 4.0500288 0 0 0 0 13.862976
2.3059847 7.7319536 4.0067649 0 0 0 0 13.882763
2.0990689 7.7045393 3.9494057 0 0 0 0 13.902552
1.9089068 7.7211452 3.9201689 0 0 0 0 13.922338
0.77300876 7.088202 3.6647019 0 0 0 0 13.93718
1.71489 7.7147636 3.8808506 0 0 0 0 13.942127
0.60842282 7.0290403 3.6300583 0 0 0 0 13.956968
1.5208763 7.709373 3.8445363 0 0 0 0 13.961916
0.75301045 7.0753078 3.5997181 0 0 0 0 13.971809
0.45147562 7.0308051 3.6286409 0 0 0 0 13.976757
1.3328049 7.7149987 3.8162465 0 0 0 0 13.981703
0.89833999 7.1585422 3.5785284 0 0 0 0 13.98665
0.58733279 7.0281363 3.5661287 0 0 0 0 13.991598
0.29541489 7.0525298 3.639303 0 0 0 0 13.996544
1.1447809 7.7146277 3.7879317 0 0 0 0 14.001492
0.71613646 7.0294342 3.497659 0 0 0 0 14.006439
0.42640355 7.0239048 3.5567009 0 0 0 0 14.011385
0.13697034 6.9724488 3.5985508 0 0 0 0 14.016333
0.88136894 7.1228452 3.4714379 0 0 0 0 14.021278
0.55214548 7.0311956 3.4842672 0 0 0 0 14.026226
0.26726499 7.054616 3.5654116 0 0 0 0 14.031174
-0.016842622 6.9552617 3.5930438 0 0 0 0 14.036119
0.70086348 7.0406737 3.4097581 0 0 0 0 14.041067
0.38711783 7.0399303 3.475908 0 0 0 0 14.046015
0.10592887 6.9545674 3.5115879 0 0 0 0 14.050961
-0.17078097 6.960022 3.6006281 0 0 0 0 14.055908
0.53183025 7.0464101 3.3934009 0 0 0 0 14.060856
0.2223703 7.0037522 3.4473622 0 0 0 0 14.065802
-0.05202302 6.9573298 3.5111787 0 0 0 0 14.070749
-0.32465959 6.9557981 3.6051753 0 0 0 0 14.075697
0.36180449 7.0521326 3.3790479 0 0 0 0 14.080643
0.05964512 6.9655838 3.4208004 0 0 0 0 14.08559
-0.2076547 6.9072194 3.4845419 0 0 0 0 14.090538
-0.47848243 6.9425931 3.605685 0 0 0 0 14.095484
0.19125766 6.9809933 3.3303785 0 0 0 0 14.100431
-0.10124926 6.9563665 3.4103525 0 0 0 0 14.105379
-0.3657164 6.9309235 3.4992204 0 0 0 0 14.110325
-0.63342214 6.9503279 3.6192861 0 0 0 0 14.115273
0.023341998 6.9707537 3.3119519 0 0 0 0 14.12022
-0.26293629 6.9132109 3.3837671 0 0 0 0 14.125166
-0.52372193 6.9456463 3.5098612 0 0 0 0 14.130114
-0.79780197 7.0338182 3.6752353 0 0 0 0 14.135059
-0.14360659 6.9674993 3.2995508 0 0 0 0 14.140007
-0.4271355 6.9568486 3.4035504 0 0 0 0 14.144955
-0.68577129 6.9683199 3.5255499 0 0 0 0 14.1499
-0.95154256 7.0106168 3.6767037 0 0 0 0 14.154848
-0.31058377 6.9702263 3.2921748 0 0 0 0 14.159796
-0.58901179 6.9476099 3.3981066 0 0 0 0 14.164742
-0.84989697 7.0059342 3.5523081 0 0 0 0 14.169689
-1.1083436 6.9983649 3.6852288 0 0 0 0 14.174637
-0.47849381 6.9629612 3.2817609 0 0 0 0 14.179583
-0.76142925 7.0291018 3.4390762 0 0 0 0 14.18453
-1.0108079 7.0086427 3.5629103 0 0 0 0 14.189478
-1.2620739 6.9751558 3.689698 0 0 0 0 14.194424
-0.64957136 6.9846072 3.2874787 0 0 0 0 14.199371
-0.92418718 7.0028782 3.4295657 0 0 0 0 14.204319
-1.166401 6.9585009 3.5472748 0 0 0 0 14.209265
-1.427123 7.0077295 3.726439 0 0 0 0 14.214212
-0.82270843 7.0172119 3.3002491 0 0 0 0 14.21916
-1.0869501 6.9786434 3.4230635 0 0 0 0 14.224106
-1.3354839 6.9930634 3.5790389 0 0 0 0 14.229053
-1.6208062 7.1488438 3.821733 0 0 0 0 14.234001
-0.99671501 7.0298409 3.3059402 0 0 0 0 14.238947
-1.2537926 6.9683471 3.424634 0 0 0 0 14.243895
-1.5219901 7.0993409 3.6481626 0 0 0 0 14.24884
-1.1573465 6.9690676 3.2792602 0 0 0 0 15.006115
-1.4290613 7.0203085 3.4594712 0 0 0 0 15.011063
-1.3425934 7.0255756 3.3081706 0 0 0 0 15.025904
-1.552417 7.1846952 3.3895838 0 0 0 0 15.045691
-2.6163816 7.5935001 4.2061601 0 0 0 0 15.08032
-2.5612183 7.6306152 4.0361009 0 0 0 0 15.095161
-2.5159569 7.6506872 3.8580103 0 0 0 0 15.110003
-4.4795942 7.679029 4.6813793 0 0 0 0 15.258411
-4.4169297 7.5837255 4.3797636 0 0 0 0 15.273252
-4.4236698 7.5736599 4.1407442 0 0 0 0 15.288094
-4.6970015 6.9635363 4.4263344 0 0 0 0 15.317776
-4.8219919 6.8257394 4.4042501 0 0 0 0 15.337564
-5.041616 6.8169007 4.4700294 0 0 0 0 15.357353
-5.1016021 6.8473816 4.2473698 0 0 0 0 15.372192
-5.2833309 6.8288364 4.5529733 0 0 0 0 15.37714
-5.3281384 6.821537 4.3031073 0 0 0 0 15.391981
-5.5088849 6.8109579 4.6197391 0 0 0 0 15.396929
-5.6683426 6.9305124 4.4478011 0 0 0 0 15.41177
-5.7846527 6.8415599 4.7258835 0 0 0 0 15.416716
-6.2884769 7.5754118 4.6016502 0 0 0 0 15.426611
-5.8384199 6.819273 4.4569912 0 0 0 0 15.431557
-6.0000358 6.7948074 4.781498 0 0 0 0 15.436504
-5.9241676 6.804667 4.2092485 0 0 0 0 15.446398
-6.0959477 6.8011413 4.5308757 0 0 0 0 15.451345
-6.1610751 6.6796274 4.7936406 0 0 0 0 15.456293
-6.0904884 6.8912897 4.0082045 0 0 0 0 15.461239
-6.2409444 6.8349881 4.3125434 0 0 0 0 15.466187
-6.4177489 6.8433614 4.6512365 0 0 0 0 15.471134
-6.2437153 6.480257 4.7461596 0 0 0 0 15.47608
-6.3348594 6.8226557 4.0498142 0 0 0 0 15.198658
-6.5215406 6.8139243 4.3884749 0 0 0 0 15.203604
-6.6480823 6.7747364 4.7027912 0 0 0 0 15.208551
-6.3646045 6.3247185 4.7319508 0 0 0 0 15.213499
-7.3612914 7.5529933 4.5815272 0 0 0 0 15.218445
-6.8491907 6.8281245 4.4947457 0 0 0 0 15.223392
-6.7667317 6.589016 4.6754913 0 0 0 0 15.22834
-6.466362 6.1541138 4.7066503 0 0 0 0 15.233286
-6.9669719 6.8043995 4.2190838 0 0 0 0 15.238234
-7.1425643 6.7916918 4.5736876 0 0 0 0 15.243179
-6.8823948 6.4063067 4.6511941 0 0 0 0 15.248127
-6.5641036 5.9805436 4.6803236 0 0 0 0 15.253075
-7.2884078 6.7797327 4.3051772 0 0 0 0 15.25802
-7.3394427 6.6592131 4.5928907 0 0 0 0 15.262968
-6.9880247 6.2166905 4.6228323 0 0 0 0 15.267916
-6.7652683 5.9019036 4.7317595 0 0 0 0 15.272861
-7.6509161 6.7736959 4.4094968 0 0 0 0 15.277809
-7.4579487 6.4535007 4.5655131 0 0 0 0 15.282757
-7.0816016 6.0171838 4.5893884 0 0 0 0 15.287703
-7.0155807 5.8587751 4.8155193 0 0 0 0 15.29265
-7.9631128 6.7121444 4.4864101 0 0 0 0 15.297598
-7.5744734 6.2507963 4.5401411 0 0 0 0 15.302544
-7.2685585 5.8997383 4.6196179 0 0 0 0 15.307491
-7.1142917 5.6831808 4.7951913 0 0 0 0 15.312439
-8.0824518 6.4814467 4.454937 0 0 0 0 15.317385
-7.6729202 6.0332589 4.5066447 0 0 0 0 15.322332
-7.5849276 5.8780179 4.7317076 0 0 0 0 15.32728
-7.2009835 5.5026922 4.7707996 0 0 0 0 15.332226
-8.2008057 6.253746 4.4264741 0 0 0 0 15.337173
-7.8727493 5.8977289 4.535851 0 0 0 0 15.342121
-7.6724606 5.672555 4.7002206 0 0 0 0 15.347067
-7.2826676 5.3202462 4.7453833 0 0 0 0 15.352015
-8.3221703 6.0290093 4.4020352 0 0 0 0 15.356962
-7.9691982 5.6821899 4.5073571 0 0 0 0 15.361908
-7.7770629 5.4829111 4.6828604 0 0 0 0 15.366856
-7.3713641 5.1427217 4.7270136 0 0 0 0 15.371801
-8.4285021 5.7983932 4.3755183 0 0 0 0 15.376749
-7.9884272 5.4163795 4.4383793 0 0 0 0 15.381697
-7.857595 5.2784863 4.6553535 0 0 0 0 15.386642
-7.4540682 4.9652462 4.707623 0 0 0 0 15.39159
-8.5308266 5.5658116 4.3479805 0 0 0 0 15.396538
-8.0698805 5.1999564 4.4088292 0 0 0 0 15.401484
-7.9481626 5.0819607 4.6349168 0 0 0 0 15.406431
-7.5337634 4.7867904 4.6892176 0 0 0 0 15.411379
-8.6361771 5.3391857 4.326479 0 0 0 0 15.416325
-8.1643763 4.9943957 4.3903718 0 0 0 0 15.421272
-8.0046616 4.8677502 4.5982847 0 0 0 0 15.42622
-7.6124625 4.6083426 4.6708102 0 0 0 0 15.431166
-8.7234793 5.1037092 4.3008766 0 0 0 0 15.436113
-8.2598639 4.7888169 4.3749189 0 0 0 0 15.441061
-7.9759898 4.6073437 4.5161552 0 0 0 0 15.446007
-7.6841526 4.4279513 4.65137 0 0 0 0 15.450954
-8.8137999 4.8721962 4.2793026 0 0 0 0 15.455902
-8.3423386 4.5783544 4.3544002 0 0 0 0 15.460848
-7.9383326 4.3480058 4.4329982 0 0 0 0 15.465796
-7.7558455 4.2495456 4.6359391 0 0 0 0 15.470743
-8.8790627 4.6279035 4.2485862 0 0 0 0 15.475689
-8.408783 4.3620224 4.3307991 0 0 0 0 15.480637
-7.9568405 4.1281176 4.3852062 0 0 0 0 15.485582
-7.8315516 4.0740995 4.6235352 0 0 0 0 15.49053
-7.9873838 3.9180975 4.3484993 0 0 0 0 15.505371
-7.8932252 3.8907809 4.6050501 0 0 0 0 15.510319
-0.44122794 0.20060696 0.18184958 0 0 0 0 15.515265
-0.45618728 0.20740546 0.20493641 0 0 0 0 15.520212
-7.9098535 3.6888869 4.5623245 0 0 0 0 15.530106
-0.46704236 0.20124619 0.22397411 0 0 0 0 15.544947
-0.43200898 0.17270178 0.17273982 0 0 0 0 15.554842
-0.45097527 0.18146349 0.19784923 0 0 0 0 15.559788
-0.49391448 0.20292702 0.25410214 0 0 0 0 15.569683
-0.46183437 0.17530833 0.21588705 0 0 0 0 15.584524
-0.43380463 0.14969236 0.16969045 0 0 0 0 15.594418
-0.44877478 0.15749544 0.19178124 0 0 0 0 15.599363
-0.47370052 0.17213041 0.2379404 0 0 0 0 15.609259
-0.45463085 0.15038082 0.20879687 0 0 0 0 15.6241
-0.40659195 0.11993709 0.15550725 0 0 0 0 15.633993
-0.42355844 0.12672989 0.17660142 0 0 0 0 15.638941
-0.45150581 0.14335139 0.22077955 0 0 0 0 15.648834
-0.42943305 0.12161902 0.19262511 0 0 0 0 15.663675
-0.39969531 0.09805344 0.14921744 0 0 0 0 15.432116
-0.41966596 0.10581832 0.17132673 0 0 0 0 15.437063
-0.43961167 0.11951497 0.21046399 0 0 0 0 15.446957
-0.41654462 0.0987923 0.18230937 0 0 0 0 15.461798
-0.3965131 0.078079902 0.14616163 0 0 0 0 15.471691
-0.4084841 0.083919667 0.16423364 0 0 0 0 15.476639
-0.43243685 0.098587461 0.20338953 0 0 0 0 15.486532
-0.40937382 0.078860246 0.17623903 0 0 0 0 15.501373
-0.38933909 0.058143362 0.14109138 0 0 0 0 15.511267
-0.40830597 0.064920351 0.16219302 0 0 0 0 15.516214
-0.42226279 0.077681571 0.19630426 0 0 0 0 15.526108
-0.40619975 0.05988685 0.17318749 0 0 0 0 15.540949
-0.39016145 0.040128414 0.14105858 0 0 0 0 15.550844
-0.40313229 0.045961432 0.15913424 0 0 0 0 15.55579
-0.40910417 0.057805009 0.18721221 0 0 0 0 15.565683
-0.40103731 0.041931797 0.16913277 0 0 0 0 15.580524
-0.38998812 0.022124706 0.14002231 0 0 0 0 15.59042
-0.40795133 0.027913751 0.1601163 0 0 0 0 15.595366
-0.4089416 0.040805731 0.18517987 0 0 0 0 15.605261
-0.40087137 0.024928367 0.16810054 0 0 0 0 15.620102
-0.39680028 0.0040544025 0.14301191 0 0 0 0 15.629995
-0.40578222 0.0099288663 0.1580729 0 0 0 0 15.634943
-0.41476455 0.023747159 0.18716972 0 0 0 0 15.644836
-0.40369847 0.0078953048 0.16907948 0 0 0 0 15.659678
-0.39962059 -0.01397881 0.14398703 0 0 0 0 15.669571
-0.4076097 -0.0070969067 0.15904827 0 0 0 0 15.674519
-0.40461817 0.0068360874 0.18110104 0 0 0 0 15.684412
-0.40952229 -0.0091632968 0.17106964 0 0 0 0 15.699253
-0.39844522 -0.031979062 0.14394768 0 0 0 0 15.709146
-0.40842327 -0.026115309 0.16001229 0 0 0 0 15.714094
-0.41044936 -0.0092224078 0.1830952 0 0 0 0 15.723988
-0.40934703 -0.027170489 0.17103399 0 0 0 0 15.738829
-0.40225196 -0.05102716 0.14692289 0 0 0 0 15.748724
-0.40425944 -0.043089826 0.15896602 0 0 0 0 15.75367
-0.40828523 -0.026211215 0.18205623 0 0 0 0 15.763565
-0.41016859 -0.045188807 0.17200223 0 0 0 0 15.778406
-0.39010012 -0.067932531 0.14284746 0 0 0 0 15.7883
-0.40807036 -0.062133759 0.16094145 0 0 0 0 15.793245
-0.42307335 -0.045357581 0.19007197 0 0 0 0 15.803141
-0.40799448 -0.063181601 0.17195962 0 0 0 0 15.817982
-0.40087855 -0.089046486 0.14984092 0 0 0 0 15.827875
-0.40688574 -0.081137717 0.16189872 0 0 0 0 15.832823
-0.41392538 -0.062280338 0.18500769 0 0 0 0 15.842716
-0.40582815 -0.080174491 0.17192115 0 0 0 0 15.857557
-0.3996909 -0.10805452 0.15179838 0 0 0 0 15.867451
-0.4116832 -0.10119639 0.1658743 0 0 0 0 15.872398
-0.41773352 -0.081327729 0.18798347 0 0 0 0 15.882292
-0.40464422 -0.099178441 0.17287867 0 0 0 0 15.897133
-0.41473317 -0.13315086 0.16054468 0 0 0 0 15.635782
-0.41676307 -0.12320597 0.17059593 0 0 0 0 15.64073
-0.41486683 -0.099257022 0.18669222 0 0 0 0 15.650623
-0.42069116 -0.1232869 0.18263291 0 0 0 0 15.665464
-0.44537961 -0.16744889 0.17756005 0 0 0 0 15.675358
-0.44742021 -0.15550785 0.18861915 0 0 0 0 15.680305
-0.42563364 -0.12137496 0.19468148 0 0 0 0 15.690199
-0.44737428 -0.15354764 0.19764949 0 0 0 0 15.70504
-0.4550935 -0.19656272 0.18651848 0 0 0 0 15.714933
-0.45914111 -0.18363607 0.19758883 0 0 0 0 15.719881
-0.45132422 -0.15062808 0.20969844 0 0 0 0 15.729774
