# .PCD v0.7 - Point Cloud Data file format
VERSION 0.7
FIELDS x y z normal_x normal_y normal_z intensity curvature
SIZE 4 4 4 4 4 4 4 4
TYPE F F F F F F F F
COUNT 1 1 1 1 1 1 1 1
WIDTH 940
HEIGHT 1
VIEWPOINT 0 0 0 1 0 0 0
POINTS 940
DATA ascii
3.7163692 6.5577483 -0.40419832 0 0 0 0 25.357498
3.9520254 6.4655547 -0.058189582 0 0 0 0 25.367393
3.7682202 6.5768037 -0.2370923 0 0 0 0 25.372341
3.7925315 6.5360866 -0.064218894 0 0 0 0 25.38718
3.5772274 6.5925875 -0.23734266 0 0 0 0 25.392128
3.6482553 6.6314764 -0.070146434 0 0 0 0 25.406969
3.4004366 6.6312375 -0.23749802 0 0 0 0 25.411915
3.2246902 6.7533283 -0.39435425 0 0 0 0 25.416862
4.4195948 8.4848976 -0.094137572 0 0 0 0 25.426758
3.2408662 6.6947312 -0.23854861 0 0 0 0 25.431704
3.0713603 6.8447556 -0.3933062 0 0 0 0 25.436651
2.8417544 6.8703103 -0.55054772 0 0 0 0 25.441597
4.1305833 8.3895664 -0.10089555 0 0 0 0 25.446545
3.080277 6.7562308 -0.24060659 0 0 0 0 25.451492
2.8903954 6.8654017 -0.38752386 0 0 0 0 25.45644
2.6812804 6.9467707 -0.54455686 0 0 0 0 25.461386
3.9107194 8.4236202 -0.10813918 0 0 0 0 25.466331
2.9227812 6.8286963 -0.24262464 0 0 0 0 25.471279
2.7257316 6.9199076 -0.38460925 0 0 0 0 25.476227
2.5115283 6.9922976 -0.5366776 0 0 0 0 25.481174
3.7122581 8.5034809 -0.11620537 0 0 0 0 25.486122
2.7723978 6.9140964 -0.24559128 0 0 0 0 25.491068
2.5672524 6.9953585 -0.38361856 0 0 0 0 25.496014
2.3602436 7.0906706 -0.53260326 0 0 0 0 25.500961
3.5198643 8.5912828 -0.12523741 0 0 0 0 25.505909
2.6159306 6.9905391 -0.2475948 0 0 0 0 25.510857
2.4015658 7.0478592 -0.38071075 0 0 0 0 25.515802
2.1699646 7.0773454 -0.51993865 0 0 0 0 25.52075
3.3316329 8.6980419 -0.13420294 0 0 0 0 25.525696
2.8397768 9.0184822 -0.47687066 0 0 0 0 25.535591
1.9949777 7.0968885 -0.51014686 0 0 0 0 25.540539
3.1485198 8.8187504 -0.14411712 0 0 0 0 25.545485
2.8858485 8.9516087 -0.31506073 0 0 0 0 25.550432
2.0526786 7.0949788 -0.37210086 0 0 0 0 25.555378
1.8096919 7.0825076 -0.49847558 0 0 0 0 25.560326
2.9531307 8.9085541 -0.15314621 0 0 0 0 25.565273
2.6813173 9.0264635 -0.3181493 0 0 0 0 25.570221
1.884936 7.1414785 -0.37021238 0 0 0 0 25.575167
1.6428542 7.1189723 -0.49061641 0 0 0 0 25.580112
2.7661119 9.0412807 -0.16302766 0 0 0 0 25.58506
2.4861062 9.138237 -0.32310784 0 0 0 0 25.590008
2.2474403 9.3908167 -0.47663969 0 0 0 0 25.594955
1.4761373 7.1694326 -0.4837119 0 0 0 0 25.599903
2.5708468 9.1460724 -0.17400885 0 0 0 0 25.604849
2.3055849 9.3298855 -0.33079427 0 0 0 0 25.609795
1.9921916 9.2710266 -0.46441042 0 0 0 0 25.614742
2.8994253 11.310543 -0.22279513 0 0 0 0 25.624638
2.0731928 9.3069429 -0.33122757 0 0 0 0 25.629583
1.7523835 9.2011089 -0.45599943 0 0 0 0 25.634531
1.4505045 9.2011528 -0.59341162 0 0 0 0 25.639477
2.5951164 11.185246 -0.23066258 0 0 0 0 25.644424
1.8491652 9.3259249 -0.33351555 0 0 0 0 25.649372
1.5217258 9.1481047 -0.44852003 0 0 0 0 25.65432
1.2079337 9.0441923 -0.57127291 0 0 0 0 25.659266
2.3010099 11.082851 -0.23844011 0 0 0 0 25.664213
1.9173647 10.99264 -0.39324552 0 0 0 0 25.669159
1.2983801 9.131032 -0.44191548 0 0 0 0 25.674107
0.98294145 8.9530878 -0.55390012 0 0 0 0 25.679054
2.0367939 11.083202 -0.24985236 0 0 0 0 25.684002
1.6467251 10.944999 -0.39381373 0 0 0 0 25.688948
1.2923082 10.885431 -0.51948082 0 0 0 0 25.693893
0.76985216 8.9659004 -0.54418337 0 0 0 0 25.698841
1.3853532 10.92827 -0.39527017 0 0 0 0 25.708736
1.026455 10.813698 -0.51111245 0 0 0 0 25.713684
0.66969603 10.714128 -0.63490391 0 0 0 0 25.71863
1.5171102 14.661754 -0.52952683 0 0 0 0 25.728523
0.77211905 10.801867 -0.50553912 0 0 0 0 25.733471
0.41263071 10.618267 -0.61659294 0 0 0 0 25.738419
1.6578126 14.698359 -0.37195697 0 0 0 0 25.886286
1.1497232 14.436066 -0.52642488 0 0 0 0 25.891232
0.75501776 15.653004 -0.72123379 0 0 0 0 25.896179
1.3567491 15.205002 -0.39888468 0 0 0 0 25.906075
0.72775805 12.922383 -0.47565433 0 0 0 0 25.911022
0.35089809 14.246106 -0.65111983 0 0 0 0 25.915968
0.82526094 12.544169 -0.34373593 0 0 0 0 25.925861
0.4100973 12.515984 -0.46436208 0 0 0 0 25.930809
0.023507943 15.435019 -0.69900388 0 0 0 0 25.935757
-0.43590865 13.938947 -0.75914276 0 0 0 0 25.940702
0.52972484 12.509672 -0.3562825 0 0 0 0 25.94565
0.13652627 14.161515 -0.52878785 0 0 0 0 25.950596
-0.32245848 14.63872 -0.65793818 0 0 0 0 25.955544
-0.79663044 14.611003 -0.77963638 0 0 0 0 25.960491
0.29939184 15.514003 -0.45555362 0 0 0 0 25.965439
-0.18880603 13.675142 -0.51574481 0 0 0 0 25.970385
-0.56167012 12.362278 -0.55319494 0 0 0 0 25.97533
-1.0696266 13.688003 -0.71584272 0 0 0 0 25.980278
-0.054240968 13.78275 -0.42130864 0 0 0 0 25.985226
-0.45964983 12.399188 -0.47300416 0 0 0 0 25.990173
-1.0036746 14.56926 -0.64415872 0 0 0 0 25.995121
-1.4085404 13.856751 -0.70982718 0 0 0 0 26.000067
-0.37914768 13.827468 -0.43765423 0 0 0 0 26.005013
-0.81923389 13.571321 -0.52198964 0 0 0 0 26.00996
-1.2439648 13.482011 -0.59280258 0 0 0 0 26.014908
-1.7059139 13.607069 -0.68401653 0 0 0 0 26.019855
-0.6284067 12.371352 -0.40640897 0 0 0 0 26.024803
-1.1496307 13.67904 -0.53114665 0 0 0 0 26.029749
-1.481895 12.796804 -0.56021965 0 0 0 0 26.034695
-2.2167263 14.882397 -0.7318942 0 0 0 0 26.039642
-1.0817323 14.554386 -0.49349537 0 0 0 0 26.04459
-1.4049631 13.064022 -0.51337242 0 0 0 0 26.049538
-2.0818052 14.913004 -0.64669305 0 0 0 0 26.054483
-2.5548296 14.789041 -0.71266431 0 0 0 0 26.059431
-1.3095794 13.387105 -0.47033927 0 0 0 0 26.064377
-1.8009427 13.710334 -0.54499489 0 0 0 0 26.069324
-2.4228287 14.827703 -0.63844204 0 0 0 0 26.074272
-2.898773 14.714723 -0.69438052 0 0 0 0 26.07922
-1.5548755 12.771029 -0.4645429 0 0 0 0 26.084166
-2.3038864 14.854573 -0.59627223 0 0 0 0 26.089113
-2.764838 14.743402 -0.63218492 0 0 0 0 26.094059
-3.2560172 14.725514 -0.68085575 0 0 0 0 26.099007
-2.1668432 14.893312 -0.55804628 0 0 0 0 26.103954
-2.6498175 14.778331 -0.5999952 0 0 0 0 26.108902
-3.1327441 14.794315 -0.6305539 0 0 0 0 26.113848
-3.6232305 14.740369 -0.66632813 0 0 0 0 26.118793
-2.5097823 14.814082 -0.57477385 0 0 0 0 26.123741
-3.0167603 14.823265 -0.60938054 0 0 0 0 26.128689
-3.4951313 14.78616 -0.62708849 0 0 0 0 26.133636
-2.8711188 14.808993 -0.59330028 0 0 0 0 26.14353
-3.3703442 14.789067 -0.61698103 0 0 0 0 26.148476
-3.8574843 14.781992 -0.62460792 0 0 0 0 26.153423
-3.2285597 14.790857 -0.61185718 0 0 0 0 26.163319
-3.7444737 14.811027 -0.62643707 0 0 0 0 26.168264
-3.5871923 14.748713 -0.63048279 0 0 0 0 26.183105
-4.094492 14.722757 -0.63118523 0 0 0 0 26.188053
-4.8526716 14.379597 -0.60117912 0 0 0 0 26.212788
-5.7937946 13.580578 -0.5267567 0 0 0 0 26.257311
-5.6885314 13.633771 -0.56751549 0 0 0 0 26.272152
-4.7539048 10.457741 -0.39864811 0 0 0 0 26.2771
-5.9489331 13.367662 -0.55664444 0 0 0 0 26.291939
-4.9989281 10.357531 -0.38525739 0 0 0 0 26.296886
-4.8990626 10.352802 -0.43317595 0 0 0 0 26.311728
-5.2912569 10.344695 -0.37566608 0 0 0 0 26.316675
-5.8301001 13.627045 -0.72982901 0 0 0 0 26.321621
-4.826056 10.363344 -0.50008255 0 0 0 0 26.326569
-5.1913724 10.34099 -0.43258104 0 0 0 0 26.331516
-5.5944905 10.343933 -0.36604992 0 0 0 0 26.336464
-4.7321038 10.365749 -0.57598871 0 0 0 0 26.34141
-5.1173716 10.349546 -0.50849164 0 0 0 0 26.346355
-5.4975953 10.340275 -0.43196768 0 0 0 0 26.351303
-5.4509673 9.5475588 -0.33019769 0 0 0 0 26.356251
-5.032176 10.353486 -0.59589159 0 0 0 0 26.84691
-5.4303708 10.347164 -0.51937294 0 0 0 0 26.851858
-5.8214874 10.352766 -0.43481371 0 0 0 0 26.856804
-5.3346329 8.8517799 -0.30023843 0 0 0 0 26.861752
-5.3413382 10.357683 -0.61526638 0 0 0 0 26.866699
-5.7524691 10.361424 -0.53073394 0 0 0 0 26.871647
-5.3435869 9.0009766 -0.37986907 0 0 0 0 26.876593
-5.2272873 8.2397957 -0.27275121 0 0 0 0 26.881538
-5.6664338 10.370987 -0.63663298 0 0 0 0 26.886486
-5.3665099 9.1523237 -0.47851169 0 0 0 0 26.891434
-5.1869416 8.2916298 -0.35158014 0 0 0 0 26.896381
-5.4579029 8.1793308 -0.26318753 0 0 0 0 26.901329
-5.3724527 9.2995787 -0.59014744 0 0 0 0 26.906275
-5.191227 8.391839 -0.44933349 0 0 0 0 26.911221
-5.394804 8.1960125 -0.34808257 0 0 0 0 26.916168
-5.690515 8.1188717 -0.25362334 0 0 0 0 26.921116
-5.1844754 8.4959965 -0.55806518 0 0 0 0 26.926064
-5.3437691 8.2018213 -0.4480204 0 0 0 0 26.931011
-5.6254725 8.1265564 -0.34653911 0 0 0 0 26.935957
-5.9320736 8.0654688 -0.24504797 0 0 0 0 26.940903
-5.2896223 8.2216349 -0.55791849 0 0 0 0 26.94585
-5.5833769 8.1394482 -0.45446768 0 0 0 0 26.950798
-5.8769488 8.0832434 -0.34594789 0 0 0 0 26.955746
-6.1796503 8.009099 -0.23648436 0 0 0 0 26.960691
-5.5183225 8.1451998 -0.57238954 0 0 0 0 26.965639
-5.8279462 8.082099 -0.46090457 0 0 0 0 26.970585
-6.1186175 8.0128479 -0.34541348 0 0 0 0 26.975533
-6.4203267 7.9386668 -0.22694677 0 0 0 0 26.98048
-5.7777948 8.0999775 -0.58781081 0 0 0 0 26.985428
-6.0765176 8.0237732 -0.46934563 0 0 0 0 26.990374
-6.3692122 7.9525046 -0.34385994 0 0 0 0 26.995319
-6.6838779 7.8853884 -0.2173872 0 0 0 0 27.000267
-6.0283713 8.0396833 -0.60425854 0 0 0 0 27.005215
-6.3291464 7.9574609 -0.47580901 0 0 0 0 27.010162
-6.6287732 7.8962193 -0.34430298 0 0 0 0 27.01511
-6.9405103 7.8200507 -0.20884819 0 0 0 0 27.020056
-6.2849898 7.9734182 -0.61972541 0 0 0 0 27.025002
-6.5907192 7.8982058 -0.48426107 0 0 0 0 27.029949
-6.8904114 7.8289347 -0.34377375 0 0 0 0 27.034897
-7.2021632 7.7517362 -0.19931936 0 0 0 0 27.039845
-6.5436096 7.9061613 -0.63719398 0 0 0 0 27.044792
-6.8503981 7.8239231 -0.49174669 0 0 0 0 27.049738
-7.1590323 7.7636886 -0.34324384 0 0 0 0 27.054684
-7.4797769 7.6885233 -0.1897919 0 0 0 0 27.059631
-6.8161774 7.8459911 -0.65465671 0 0 0 0 27.064579
-7.1180363 7.7546883 -0.50022495 0 0 0 0 27.069527
-7.4316998 7.6914587 -0.34273317 0 0 0 0 27.074472
-7.5131221 7.3795552 -0.17562215 0 0 0 0 27.07942
-7.0957837 7.7798619 -0.67313927 0 0 0 0 27.084366
-7.4085703 7.6996083 -0.5106889 0 0 0 0 27.089314
-7.4710355 7.3825426 -0.33256817 0 0 0 0 27.094261
-7.3953977 6.9365101 -0.1576242 0 0 0 0 27.099209
-7.3853502 7.7187924 -0.69261658 0 0 0 0 27.104155
-7.4439983 7.3766685 -0.50255364 0 0 0 0 27.109102
-7.3672314 6.9496026 -0.31655768 0 0 0 0 27.114048
-7.3042846 6.5456653 -0.1425164 0 0 0 0 27.118996
-7.3979826 7.365696 -0.68653154 0 0 0 0 27.123943
-7.3223424 6.9216037 -0.48657778 0 0 0 0 27.128891
-7.2592888 6.5336409 -0.30149359 0 0 0 0 27.133837
-7.2030773 6.1657577 -0.12836452 0 0 0 0 27.138783
-7.2664275 6.8955579 -0.66858095 0 0 0 0 27.14373
-7.2203865 6.5066853 -0.47151542 0 0 0 0 27.148678
-7.1610813 6.1527576 -0.28834561 0 0 0 0 27.153625
-7.1077142 5.8058958 -0.11416312 0 0 0 0 27.158573
-7.1624932 6.476625 -0.65252453 0 0 0 0 27.163519
-7.1202159 6.1197872 -0.45737854 0 0 0 0 27.168465
-7.0697184 5.7919273 -0.27514926 0 0 0 0 27.173412
-7.1315351 5.5608792 -0.10379586 0 0 0 0 27.17836
-7.0643649 6.0827422 -0.6384055 0 0 0 0 27.183308
-7.0238814 5.7539234 -0.44418758 0 0 0 0 27.188253
-7.1164412 5.5600796 -0.26877207 0 0 0 0 27.193201
-7.2438574 5.3864794 -0.094342239 0 0 0 0 27.198147
-6.9581022 5.7058086 -0.62422973 0 0 0 0 27.203094
-7.1183777 5.553421 -0.44378147 0 0 0 0 27.208042
-7.1889715 5.3544116 -0.26335293 0 0 0 0 27.21299
-7.1511531 5.0696507 -0.083022296 0 0 0 0 27.217936
-7.1272016 5.5608487 -0.63476288 0 0 0 0 27.222883
-7.143189 5.3064227 -0.43941322 0 0 0 0 27.227829
-7.1032691 5.0366321 -0.25204125 0 0 0 0 27.232777
-7.0762477 4.7799516 -0.072649352 0 0 0 0 27.237724
-7.087379 5.2603946 -0.62745768 0 0 0 0 27.242672
-7.0604806 4.9886651 -0.42810291 0 0 0 0 27.247618
-7.024406 4.7399092 -0.2426801 0 0 0 0 27.252563
-5.914053 3.7997541 -0.053835846 0 0 0 0 27.257511
-7.0016861 4.9396181 -0.61614996 0 0 0 0 27.262459
-6.9716687 4.6838727 -0.41774955 0 0 0 0 27.267406
-5.8791327 3.7727845 -0.19884963 0 0 0 0 27.272354
-6.9447632 4.6500502 -0.60779095 0 0 0 0 27.282246
-0.33621806 -0.021753779 -0.0044359453 0 0 0 0 27.248211
-0.3172172 -0.02981016 -0.03439882 0 0 0 0 27.272945
-0.33434722 -0.05672108 -0.024386616 0 0 0 0 27.337257
-0.33842152 -0.073695675 -0.024372514 0 0 0 0 27.376833
-0.31848139 -0.092804983 -0.035315625 0 0 0 0 27.43125
-0.33563599 -0.12472066 -0.024311643 0 0 0 0 27.49556
-0.37276417 -0.1455334 -0.0013531201 0 0 0 0 27.525242
-0.44902399 -0.19096521 -0.030523129 0 0 0 0 27.535137
-0.33081904 -0.17072381 -0.038270872 0 0 0 0 27.589554
-0.38804829 -0.20741445 -0.013367653 0 0 0 0 27.619236
-0.35704032 -0.21458691 -0.026299106 0 0 0 0 27.653866
-0.41236287 -0.27126804 -0.013414298 0 0 0 0 27.698387
-2.6708317 -1.739061 0.054988042 0 0 0 0 27.703335
-2.5817513 -1.8593862 -0.25570983 0 0 0 0 27.888535
-2.6047356 -1.8425066 -0.14467992 0 0 0 0 27.893482
-2.623697 -1.823627 -0.044641834 0 0 0 0 27.89843
-2.6436772 -1.8077407 0.055388566 0 0 0 0 27.903378
-2.5631971 -1.9415506 -0.25682348 0 0 0 0 27.908325
-2.5911875 -1.9256421 -0.14480032 0 0 0 0 27.913271
-2.6041069 -1.8998011 -0.043740973 0 0 0 0 27.918217
-2.6331108 -1.8878591 0.056272306 0 0 0 0 27.923164
-2.5336046 -2.0177863 -0.25591251 0 0 0 0 27.928112
-2.5575571 -1.9958996 -0.14487219 0 0 0 0 27.93306
-2.5835309 -1.9789783 -0.043844856 0 0 0 0 27.938005
-2.6084979 -1.9610606 0.056185614 0 0 0 0 27.942953
-2.5140619 -2.1029549 -0.25702977 0 0 0 0 27.947899
-2.5440331 -2.0840333 -0.14500152 0 0 0 0 27.952847
-2.5659699 -2.061136 -0.04395707 0 0 0 0 27.957794
-2.5879126 -2.0392387 0.057085108 0 0 0 0 27.962742
-2.4935274 -2.1901286 -0.25814939 0 0 0 0 27.967688
-2.5214686 -2.1662214 -0.14510812 0 0 0 0 27.972633
-2.5433941 -2.1413257 -0.043059193 0 0 0 0 27.977581
-2.5723546 -2.1223855 0.057970058 0 0 0 0 27.982529
-2.4679782 -2.2753341 -0.25825888 0 0 0 0 27.987476
-2.4928827 -2.2454448 -0.14520155 0 0 0 0 27.992424
-2.5198197 -2.2225184 -0.043161537 0 0 0 0 27.99737
-2.5497737 -2.2025719 0.057869114 0 0 0 0 28.002316
-2.4424436 -2.3635385 -0.25837383 0 0 0 0 28.007263
-2.4733658 -2.3366122 -0.14532851 0 0 0 0 28.012211
-2.4982662 -2.307698 -0.043273408 0 0 0 0 28.017159
-2.5221717 -2.2797873 0.057780337 0 0 0 0 28.022106
-2.417922 -2.4547334 -0.25949511 0 0 0 0 28.027052
-2.4478269 -2.4248152 -0.14544225 0 0 0 0 28.031998
-2.4737098 -2.3928967 -0.042381443 0 0 0 0 28.036945
-2.5026212 -2.3659556 0.058665659 0 0 0 0 28.041893
-2.3883917 -2.5449598 -0.25960851 0 0 0 0 28.046841
-2.425302 -2.5159988 -0.14556403 0 0 0 0 28.051786
-2.4562149 -2.4890501 -0.042518612 0 0 0 0 28.056734
-2.4790661 -2.4521446 0.05855573 0 0 0 0 28.06168
-2.3649104 -2.6441464 -0.2607457 0 0 0 0 28.066628
-2.4018092 -2.6131876 -0.14569679 0 0 0 0 28.071575
-2.4296677 -2.5772564 -0.042629022 0 0 0 0 28.076523
-2.4504952 -2.5363629 0.058455743 0 0 0 0 28.081469
-2.3404474 -2.7473357 -0.26288933 0 0 0 0 28.086416
-2.3722885 -2.7064111 -0.14581421 0 0 0 0 28.091362
-2.4041586 -2.6724555 -0.042754345 0 0 0 0 28.09631
-2.4299867 -2.6315341 0.059325941 0 0 0 0 28.101257
-1.9785559 -2.4376013 -0.22683771 0 0 0 0 28.106205
-2.2702644 -2.7150705 -0.14168315 0 0 0 0 28.111151
-2.3786576 -2.7696538 -0.042882707 0 0 0 0 28.116096
-2.4044676 -2.7257318 0.059204001 0 0 0 0 28.121044
-1.9570465 -2.5327656 -0.22796845 0 0 0 0 28.125992
-1.9899048 -2.4967978 -0.12690613 0 0 0 0 28.130939
-2.0197644 -2.4628222 -0.037845515 0 0 0 0 28.135887
-2.0486295 -2.4298499 0.050213736 0 0 0 0 28.140833
-1.9295213 -2.6259642 -0.22908834 0 0 0 0 28.145779
-1.9694029 -2.5939553 -0.1280407 0 0 0 0 28.150726
-1.9952105 -2.5510051 -0.03795727 0 0 0 0 28.155674
-2.0260634 -2.516021 0.050104536 0 0 0 0 28.160622
-1.9070567 -2.7301323 -0.23023489 0 0 0 0 28.165567
-1.9408627 -2.6851606 -0.12815413 0 0 0 0 28.170515
-1.9716878 -2.6451809 -0.038081545 0 0 0 0 28.175461
-2.0025115 -2.6051967 0.049990952 0 0 0 0 28.180408
-1.8795758 -2.8323288 -0.2313714 0 0 0 0 28.185356
-1.9194119 -2.7923238 -0.12830654 0 0 0 0 28.190304
-1.9512076 -2.7473381 -0.038224172 0 0 0 0 28.19525
-1.9769739 -2.6973853 0.050873913 0 0 0 0 28.200197
-1.8511081 -2.9375298 -0.23251206 0 0 0 0 28.205143
-1.8929324 -2.8955131 -0.12944466 0 0 0 0 28.210091
-1.9186593 -2.8385646 -0.038331699 0 0 0 0 28.215038
-1.9534664 -2.7955589 0.050743669 0 0 0 0 28.219986
-1.8226987 -3.0537271 -0.2346746 0 0 0 0 28.224932
-1.8584261 -2.9947498 -0.12956606 0 0 0 0 28.229877
-1.8931941 -2.9447486 -0.038475785 0 0 0 0 28.234825
-1.9279662 -2.8957431 0.050612245 0 0 0 0 28.239773
-1.7922903 -3.1709349 -0.23683599 0 0 0 0 28.24472
-1.8330359 -3.1149306 -0.13073812 0 0 0 0 28.249668
-1.8677645 -3.0579314 -0.038633164 0 0 0 0 28.254614
-1.8984792 -2.9989491 0.050479267 0 0 0 0 28.25956
-1.7599123 -3.2941549 -0.2380067 0 0 0 0 28.264507
-1.8046523 -3.2371275 -0.13191019 0 0 0 0 28.269455
-1.8393471 -3.1741304 -0.038792737 0 0 0 0 28.274403
-1.8750688 -3.1161213 0.051313225 0 0 0 0 28.279348
-1.7265912 -3.4283772 -0.24019794 0 0 0 0 28.284296
-1.7692471 -3.3563654 -0.1320684 0 0 0 0 28.289242
-1.8079423 -3.2933455 -0.03895447 0 0 0 0 28.294189
-1.845624 -3.2283247 0.051164325 0 0 0 0 28.299137
-1.6973608 -3.5795724 -0.2434262 0 0 0 0 28.304085
-1.7440176 -3.50754 -0.13430017 0 0 0 0 28.309031
-1.7796168 -3.4275396 -0.040148363 0 0 0 0 28.313978
-1.815237 -3.3515325 0.05099488 0 0 0 0 28.318924
-1.6611131 -3.7288086 -0.24564233 0 0 0 0 28.323872
-1.7087142 -3.6467726 -0.13549647 0 0 0 0 28.328819
-1.7452695 -3.5587683 -0.040329143 0 0 0 0 28.333767
-1.7919695 -3.4966989 0.05077564 0 0 0 0 28.338713
-1.6198878 -3.8830717 -0.24786262 0 0 0 0 28.343658
-1.6714561 -3.7950151 -0.13670786 0 0 0 0 28.348606
-1.7130241 -3.7089844 -0.040549122 0 0 0 0 28.353554
-1.7566226 -3.6289322 0.050595317 0 0 0 0 28.358501
-1.5771971 -4.0540409 -0.24952337 0 0 0 0 28.840828
-1.6327875 -3.9629738 -0.13637777 0 0 0 0 28.845776
-1.6732945 -3.8579524 -0.040195163 0 0 0 0 28.850721
-1.7199222 -3.7768919 0.051937856 0 0 0 0 28.855669
-1.527934 -4.2193198 -0.25172904 0 0 0 0 28.860615
-1.5875052 -4.1242347 -0.1375791 0 0 0 0 28.865562
-1.6330038 -4.0171895 -0.040396802 0 0 0 0 28.87051
-1.6815809 -3.9261191 0.051753204 0 0 0 0 28.875458
-1.4788055 -4.4125953 -0.25498456 0 0 0 0 28.880404
-1.5382516 -4.2925134 -0.13878837 0 0 0 0 28.885351
-1.5897614 -4.1874375 -0.041614521 0 0 0 0 28.890297
-1.6392587 -4.0803647 0.051564198 0 0 0 0 28.895245
-1.4277236 -4.6168756 -0.25925642 0 0 0 0 28.900192
-1.4921572 -4.493773 -0.14105864 0 0 0 0 28.90514
-1.5435629 -4.3677011 -0.041846246 0 0 0 0 28.910086
-1.5950109 -4.250618 0.051349156 0 0 0 0 28.915031
-1.5885684 -5.6060214 -0.30412519 0 0 0 0 28.919979
-1.4350045 -4.6850877 -0.1422998 0 0 0 0 28.924927
-1.4944365 -4.5639758 -0.043102819 0 0 0 0 28.929874
-1.5518661 -4.4428644 0.051095262 0 0 0 0 28.934822
-1.4311388 -5.5468636 -0.29182434 0 0 0 0 28.939768
-1.5846663 -5.6403332 -0.16508736 0 0 0 0 28.944714
-1.6691366 -5.5251265 -0.049917974 0 0 0 0 28.949661
-1.4997032 -4.6331539 0.050854091 0 0 0 0 28.954609
-1.2858605 -5.5176363 -0.28058916 0 0 0 0 28.959557
-1.4221232 -5.5591865 -0.1577439 0 0 0 0 28.964502
-1.5554342 -5.6127243 -0.04991794 0 0 0 0 28.96945
-1.6652917 -5.5753813 0.059090711 0 0 0 0 28.974396
-1.1487011 -5.5123577 -0.27240491 0 0 0 0 28.979343
-1.276796 -5.5209432 -0.15249324 0 0 0 0 28.984291
-1.408107 -5.5754833 -0.049666949 0 0 0 0 28.989239
-1.5312152 -5.5890684 0.055239875 0 0 0 0 28.994184
-1.0197349 -5.5460324 -0.2642982 0 0 0 0 28.999132
-1.1385694 -5.5026588 -0.14728548 0 0 0 0 29.004078
-1.2535794 -5.497273 -0.0483386 0 0 0 0 29.009026
-1.3879158 -5.5577955 0.051475845 0 0 0 0 29.013973
-0.89797252 -5.6216602 -0.25927272 0 0 0 0 29.018921
-1.0116183 -5.5403099 -0.14418781 0 0 0 0 29.023867
-1.1255517 -5.5199251 -0.048212837 0 0 0 0 29.028812
-1.2415442 -5.5115309 0.047739286 0 0 0 0 29.03376
-0.88983226 -5.6119299 -0.14115506 0 0 0 0 29.043655
-0.99341094 -5.5195928 -0.047043674 0 0 0 0 29.048603
-1.1165572 -5.5431581 0.044846509 0 0 0 0 29.053549
-0.87779194 -5.626174 -0.047077745 0 0 0 0 29.06839
-0.98952913 -5.5667877 0.040968888 0 0 0 0 29.073338
-0.86979765 -5.6513805 0.03897747 0 0 0 0 29.093124
0.30776653 -5.9356213 -0.19632491 0 0 0 0 29.197012
0.30864757 -5.9877577 -0.11132266 0 0 0 0 29.221746
0.31878531 -5.9888988 -0.047225971 0 0 0 0 29.246483
0.32594499 -5.9870057 0.0058738212 0 0 0 0 29.271217
1.7795401 -5.6379566 -0.099090002 0 0 0 0 29.113686
1.7816236 -5.6519747 -0.063032039 0 0 0 0 29.13842
2.0085824 -5.476995 -0.080522239 0 0 0 0 29.153261
1.7987362 -5.6630278 -0.04695845 0 0 0 0 29.163155
2.0047696 -5.4699597 -0.054434169 0 0 0 0 29.177996
1.8039752 -5.6490059 -0.040849335 0 0 0 0 29.187889
2.0179496 -5.4669733 -0.046341788 0 0 0 0 29.202732
2.0291502 -5.4609594 -0.048245735 0 0 0 0 29.227467
2.9792953 -5.30825 -0.020161286 0 0 0 0 29.291777
2.748878 -5.4161024 -0.047465447 0 0 0 0 29.30167
3.0788987 -5.2056513 -0.011865789 0 0 0 0 29.311565
2.9576828 -5.2610517 -0.025023896 0 0 0 0 29.316513
2.8405933 -5.2904577 -0.047135133 0 0 0 0 29.321459
2.7106023 -5.2988019 -0.071218967 0 0 0 0 29.326405
2.9203849 -4.6918573 -0.0030491808 0 0 0 0 29.331352
3.0682204 -5.1724949 -0.020746673 0 0 0 0 29.3363
2.9491479 -5.198885 -0.047853723 0 0 0 0 29.341248
2.8350213 -5.237298 -0.075977378 0 0 0 0 29.346193
2.9781492 -4.5500636 0.0052779815 0 0 0 0 29.351141
2.8997586 -4.6446533 -0.01591742 0 0 0 0 29.356087
3.0815105 -5.1484184 -0.047627896 0 0 0 0 29.361034
2.9157927 -5.0975924 -0.078635402 0 0 0 0 29.365982
3.0686481 -4.4654155 0.01252832 0 0 0 0 29.37093
2.9863245 -4.5459833 -0.011645501 0 0 0 0 29.375875
2.9110482 -4.6175709 -0.043799456 0 0 0 0 29.380823
3.0481546 -5.0471148 -0.083411366 0 0 0 0 29.385769
3.1641202 -4.3857875 0.020771466 0 0 0 0 29.390717
3.0718646 -4.4523029 -0.0083847092 0 0 0 0 29.395664
2.996618 -4.5178871 -0.04352814 0 0 0 0 29.400612
2.9213417 -4.5904694 -0.08068274 0 0 0 0 29.405558
3.3003311 -4.3633394 0.028944077 0 0 0 0 29.410503
3.1743007 -4.3806973 -0.0041517513 0 0 0 0 29.415451
3.0931027 -4.4362497 -0.043281868 0 0 0 0 29.420399
3.0099015 -4.4927902 -0.08441449 0 0 0 0 29.425346
3.4405408 -4.3409047 0.038117755 0 0 0 0 29.430294
3.30655 -4.3502197 -0.00096943974 0 0 0 0 29.43524
3.2025027 -4.3726654 -0.043059107 0 0 0 0 29.440186
3.102417 -4.4041252 -0.088160738 0 0 0 0 29.445133
3.559871 -4.2913694 0.046321195 0 0 0 0 29.450081
3.4567127 -4.3388181 0.0031913873 0 0 0 0 29.455029
3.337749 -4.3431907 -0.043877691 0 0 0 0 29.459976
3.2237546 -4.3545856 -0.091954865 0 0 0 0 29.464922
3.7001188 -4.2599211 0.054506473 0 0 0 0 29.469868
3.5800481 -4.28829 0.0073977504 0 0 0 0 29.474815
3.5008645 -4.3428354 -0.043727823 0 0 0 0 29.479763
3.3799052 -4.3471913 -0.097797513 0 0 0 0 29.484711
3.8259816 -4.2125969 0.063103482 0 0 0 0 29.227995
3.7218335 -4.2569957 0.010969057 0 0 0 0 29.232941
3.6108103 -4.2753558 -0.045124885 0 0 0 0 29.237888
3.5226617 -4.3208218 -0.10324979 0 0 0 0 29.242836
3.9802015 -4.1882458 0.072293222 0 0 0 0 29.247784
3.8660948 -4.2245903 0.015166527 0 0 0 0 29.252729
3.7520978 -4.2379317 -0.044920437 0 0 0 0 29.257677
3.6609716 -4.279377 -0.10803997 0 0 0 0 29.262623
4.1215043 -4.1458263 0.08150363 0 0 0 0 29.26757
4.0093966 -4.1831741 0.019377049 0 0 0 0 29.272518
3.9073281 -4.2125649 -0.04572903 0 0 0 0 29.277466
3.8022799 -4.2379398 -0.11282993 0 0 0 0 29.282412
4.2648149 -4.1014104 0.090716965 0 0 0 0 29.287359
4.1616597 -4.1497936 0.02357804 0 0 0 0 29.292305
4.0566268 -4.172164 -0.046517681 0 0 0 0 29.297253
3.9545584 -4.2025476 -0.11762472 0 0 0 0 29.3022
4.4569421 -4.0962157 0.10089405 0 0 0 0 29.307148
4.3109674 -4.1063924 0.027792279 0 0 0 0 29.312094
4.2069235 -4.1317625 -0.046307504 0 0 0 0 29.317039
4.1008821 -4.1571198 -0.12340826 0 0 0 0 29.321987
4.603281 -4.0448012 0.11111755 0 0 0 0 29.326935
4.4881721 -4.085113 0.031985562 0 0 0 0 29.331882
4.3652096 -4.09339 -0.047097385 0 0 0 0 29.33683
4.2571807 -4.1167316 -0.12919568 0 0 0 0 29.341776
4.7536235 -3.9923978 0.12034332 0 0 0 0 29.346722
4.5628295 -3.9643559 0.036277421 0 0 0 0 29.351669
5.0722885 -4.539516 -0.052345611 0 0 0 0 29.356617
4.419486 -4.0743642 -0.13497779 0 0 0 0 29.361565
4.8611369 -3.9017913 0.1296033 0 0 0 0 29.36651
5.3876462 -4.467031 0.04800909 0 0 0 0 29.371458
5.2686 -4.4972906 -0.053106967 0 0 0 0 29.376404
5.1595278 -4.5335922 -0.15722634 0 0 0 0 29.381351
5.1151619 -3.9178526 0.14277738 0 0 0 0 29.386299
5.5789924 -4.415782 0.053256892 0 0 0 0 29.391247
5.4659357 -4.4490614 -0.053859953 0 0 0 0 29.396193
5.3548636 -4.4863462 -0.1639818 0 0 0 0 29.40114
5.9144239 -4.3233972 0.17265172 0 0 0 0 29.406086
5.7833228 -4.3675838 0.058505531 0 0 0 0 29.411034
5.6642928 -4.3958282 -0.054606382 0 0 0 0 29.415981
5.5532341 -4.4311037 -0.1717245 0 0 0 0 29.420929
6.1277556 -4.2732406 0.18590629 0 0 0 0 29.425875
5.989686 -4.3113871 0.064766191 0 0 0 0 29.43082
5.8696518 -4.3416181 -0.055349231 0 0 0 0 29.435768
5.7645831 -4.3799129 -0.17846814 0 0 0 0 29.440716
4.2772713 -2.8447199 0.13212304 0 0 0 0 29.445663
6.2060299 -4.2592239 0.070023984 0 0 0 0 29.450611
6.0949855 -4.2924876 -0.056090411 0 0 0 0 29.455557
5.9769616 -4.3217154 -0.18620221 0 0 0 0 29.460503
4.7755423 -3.0248735 0.15317225 0 0 0 0 29.46545
4.2537127 -2.7793543 0.049256049 0 0 0 0 29.470398
6.3243403 -4.2383642 -0.057823561 0 0 0 0 29.475346
6.1624489 -4.2383895 -0.19391476 0 0 0 0 29.480291
6.8028522 -4.0968747 0.22871874 0 0 0 0 29.485239
4.8068743 -2.9867187 0.058293864 0 0 0 0 29.490185
4.3020382 -2.7402997 -0.03961033 0 0 0 0 29.495132
5.9670577 -3.8973935 -0.18844797 0 0 0 0 29.50008
7.0412536 -4.0287933 0.2440073 0 0 0 0 29.505028
4.7657275 -2.8114283 0.060583014 0 0 0 0 29.509974
4.281785 -2.5881097 -0.039345771 0 0 0 0 29.514921
4.6306324 -2.8704441 -0.14857884 0 0 0 0 29.519867
7.3235798 -3.9768958 0.26029369 0 0 0 0 29.524815
4.714561 -2.6390939 0.061858937 0 0 0 0 29.529762
4.3383012 -2.4872572 -0.039118987 0 0 0 0 29.53471
5.8512774 -3.4356165 -0.18671097 0 0 0 0 29.539656
7.5879927 -3.9049075 0.27659824 0 0 0 0 29.544601
4.7022767 -2.4919331 0.064115934 0 0 0 0 29.549549
4.4616594 -2.4216936 -0.038910139 0 0 0 0 29.554497
4.389658 -2.4401891 -0.14297569 0 0 0 0 29.559444
6.5641913 -3.1942313 0.24514033 0 0 0 0 29.564392
6.8612442 -3.4382539 0.099937849 0 0 0 0 29.569338
5.3752918 -2.756542 -0.04486471 0 0 0 0 29.574284
4.4701328 -2.3474312 -0.14575125 0 0 0 0 29.579231
8.1648445 -3.7521095 0.31324023 0 0 0 0 29.584179
6.5925236 -3.1886568 -0.052794229 0 0 0 0 29.594072
5.6632724 -2.8034079 -0.18473262 0 0 0 0 29.59902
4.622509 -2.0034661 0.17891601 0 0 0 0 29.603966
5.768858 -2.6857252 -0.18845867 0 0 0 0 29.618809
4.6979523 -1.9136895 0.18512617 0 0 0 0 29.623755
4.6748457 -1.9573884 0.073050238 0 0 0 0 29.628702
4.6667638 -1.9951537 -0.038007416 0 0 0 0 29.633648
5.7946 -2.5297003 -0.19017436 0 0 0 0 29.638596
4.7863822 -1.825968 0.19333872 0 0 0 0 29.643543
5.7923651 -2.3665559 -0.1918979 0 0 0 0 29.658382
4.8838043 -1.7392806 0.20155282 0 0 0 0 29.66333
5.7182231 -2.1791127 -0.19062798 0 0 0 0 29.678173
5.011188 -1.6607167 0.21076956 0 0 0 0 29.683119
6.1543741 -2.1360703 -0.046294343 0 0 0 0 29.693012
5.746902 -2.0330999 -0.19236504 0 0 0 0 29.69796
5.6751895 -1.7417464 0.24314632 0 0 0 0 29.80637
6.2373643 -1.9668064 0.11012496 0 0 0 0 29.811317
5.7169476 -1.8701706 -0.19200796 0 0 0 0 29.821211
5.8196254 -1.6472167 0.25438491 0 0 0 0 29.826157
5.7316499 -1.6646025 0.10331529 0 0 0 0 29.831104
5.6466966 -1.6987582 -0.19077274 0 0 0 0 29.841
6.4934392 -1.7552848 -0.045383021 0 0 0 0 29.855839
5.6383467 -1.5505949 -0.19154039 0 0 0 0 29.860786
5.4421582 -1.3151741 0.10170865 0 0 0 0 29.870682
5.6080065 -1.3983455 -0.19131608 0 0 0 0 29.880575
5.6166158 -1.2572509 -0.19208938 0 0 0 0 29.900364
5.5942311 -1.1130334 -0.19287682 0 0 0 0 29.920151
6.3882399 -1.1002834 -0.041429877 0 0 0 0 29.934992
5.5738316 -0.97082615 -0.19266817 0 0 0 0 29.939938
6.3928738 -0.94915611 -0.041199397 0 0 0 0 29.954781
5.5364304 -0.82755333 -0.1924689 0 0 0 0 29.959726
9.140028 -1.1115139 0.44900197 0 0 0 0 29.964674
6.354528 -0.79086262 -0.03998334 0 0 0 0 29.974567
5.5459881 -0.69346339 -0.19326037 0 0 0 0 29.979515
6.376133 -0.64380163 -0.039754566 0 0 0 0 29.994356
5.4935622 -0.55313617 -0.19207695 0 0 0 0 29.999302
6.3677468 -0.49262565 -0.038537733 0 0 0 0 30.014145
5.464108 -0.41889673 -0.19289219 0 0 0 0 30.019091
6.3213544 -0.34130451 -0.037342213 0 0 0 0 30.033932
5.4586439 -0.28575176 -0.1926987 0 0 0 0 30.038879
6.2809472 -0.19200812 -0.036148496 0 0 0 0 30.053719
5.4271708 -0.1535082 -0.19252153 0 0 0 0 30.058666
6.2645192 -0.046802953 -0.035950515 0 0 0 0 30.073507
4.0906701 -0.018395735 -0.14699066 0 0 0 0 30.078455
4.1870623 0.080341846 -0.15079509 0 0 0 0 30.098244
4.4425082 0.19349734 -0.16050428 0 0 0 0 30.118031
5.0589185 0.3170985 -0.027029173 0 0 0 0 30.132872
5.3631783 0.36422491 -0.19381617 0 0 0 0 30.137817
5.7504048 0.4663969 0.14051202 0 0 0 0 30.147713
5.9296627 0.5129993 -0.030338112 0 0 0 0 30.15266
5.3026433 0.48756891 -0.19267422 0 0 0 0 30.157608
6.4591699 0.67289227 0.16113217 0 0 0 0 30.1675
5.297121 0.61571085 -0.193501 0 0 0 0 30.177395
7.3358784 0.89644563 0.41684839 0 0 0 0 30.182343
5.2925906 0.74284899 -0.1943306 0 0 0 0 30.197182
8.7651997 1.2672889 0.5050112 0 0 0 0 30.202129
6.1693482 0.97053277 -0.028613681 0 0 0 0 30.212025
5.2600493 0.86908585 -0.19317648 0 0 0 0 30.21697
6.1578765 1.1177133 -0.027427873 0 0 0 0 30.231812
5.261519 0.99920267 -0.19500312 0 0 0 0 30.236759
6.1153769 1.2590047 -0.026266363 0 0 0 0 30.251598
5.2249632 1.1244519 -0.19385572 0 0 0 0 30.256546
5.2164202 1.2546009 -0.19369076 0 0 0 0 30.276335
6.0939035 1.5600572 -0.02417599 0 0 0 0 30.965263
5.1774464 1.3808376 -0.1936551 0 0 0 0 30.970211
6.0883064 1.7102103 -0.023031374 0 0 0 0 30.985052
5.1427827 1.5060513 -0.1935405 0 0 0 0 30.989998
5.1571498 1.6441292 -0.19439925 0 0 0 0 31.009787
8.3725109 2.5775652 0.52554363 0 0 0 0 31.014732
5.1164722 1.7683574 -0.19429113 0 0 0 0 31.029575
8.3500109 2.773814 0.53070986 0 0 0 0 31.034523
5.1128254 1.9054842 -0.19516045 0 0 0 0 31.049362
8.0332317 2.8688788 0.51668316 0 0 0 0 31.05431
7.5010538 2.7756572 0.2254235 0 0 0 0 31.059258
6.5123854 2.5066152 -0.019146798 0 0 0 0 31.064205
5.1031771 2.044626 -0.19503169 0 0 0 0 31.069151
7.0086932 2.67888 0.45616364 0 0 0 0 31.074097
6.2151799 2.463316 0.1897094 0 0 0 0 31.079044
5.5938025 2.3042202 -0.015635652 0 0 0 0 31.083992
5.1906357 2.2255118 -0.19883516 0 0 0 0 31.08894
8.2594767 3.3686166 0.54519039 0 0 0 0 31.093885
5.6409397 2.3850031 0.17444876 0 0 0 0 31.098833
4.939414 2.1710844 -0.012969067 0 0 0 0 31.103779
4.2758775 1.9560226 -0.16537476 0 0 0 0 31.108727
8.1758928 3.5460267 0.54630911 0 0 0 0 31.113674
4.6053395 2.1540768 -0.011089984 0 0 0 0 31.123568
3.9918175 1.9438581 -0.15547197 0 0 0 0 31.128515
3.850913 1.9903127 -0.15046975 0 0 0 0 31.148304
4.9978361 2.7364776 -0.19543873 0 0 0 0 31.168091
4.9581442 2.8726919 -0.19433326 0 0 0 0 31.187878
4.9555078 3.0328119 -0.19519705 0 0 0 0 31.207666
8.8524561 5.0671682 0.6337617 0 0 0 0 31.212614
7.9636974 4.7966599 0.57822716 0 0 0 0 31.232403
7.5065122 4.6991448 0.26600525 0 0 0 0 31.237349
7.3893213 4.6763096 0.54292494 0 0 0 0 31.25219
7.0372677 4.6334949 0.25478423 0 0 0 0 31.257137
7.0131979 4.6574292 0.52277315 0 0 0 0 31.271976
6.4798079 4.4790463 0.23846409 0 0 0 0 31.276924
9.908576 6.9012861 0.75151086 0 0 0 0 31.291767
6.0775604 4.4091887 0.22826669 0 0 0 0 31.296713
5.8225875 4.4050512 0.002191138 0 0 0 0 31.301659
4.8852897 3.8615468 -0.19654194 0 0 0 0 31.306606
9.7660055 7.1308589 0.75261724 0 0 0 0 31.311554
5.7313743 4.3631754 0.22010896 0 0 0 0 31.316502
5.3621607 4.2612963 0.0039189043 0 0 0 0 31.321447
4.9658604 4.1244669 -0.200308 0 0 0 0 31.326395
9.5482893 7.3036127 0.74665201 0 0 0 0 31.331341
5.5103784 4.3958435 0.21505545 0 0 0 0 31.336288
4.9748077 4.1453466 0.0046950923 0 0 0 0 31.341236
4.7388 4.1301155 -0.19238174 0 0 0 0 31.346184
9.3375654 7.4763393 0.74168748 0 0 0 0 31.35113
4.6445255 4.0572438 0.0065143881 0 0 0 0 31.361023
4.3724155 4.0000796 -0.17860639 0 0 0 0 31.365971
9.1268263 7.6450572 0.73671842 0 0 0 0 31.370918
4.4825673 4.1047311 0.0084958356 0 0 0 0 31.380812
4.1102142 3.9447863 -0.16873649 0 0 0 0 31.385757
8.8870134 7.7858353 0.72971725 0 0 0 0 31.390705
3.9091225 3.9353416 -0.16080993 0 0 0 0 31.405548
8.6542053 7.9315863 0.72272176 0 0 0 0 31.410494
3.7741725 3.9867387 -0.15581454 0 0 0 0 31.425335
8.4006624 8.0444088 0.71473408 0 0 0 0 31.126453
7.9806314 8.008913 0.35356244 0 0 0 0 31.131401
8.0054407 8.016654 0.69452775 0 0 0 0 31.14624
7.1311383 7.4933352 0.32476014 0 0 0 0 31.151188
7.2171178 7.5599341 0.63780427 0 0 0 0 31.166029
5.7800679 6.3570404 0.2692396 0 0 0 0 31.170975
5.356689 6.1963968 0.026957944 0 0 0 0 31.175922
8.6598883 9.4852638 0.78197151 0 0 0 0 31.185818
5.1125822 6.2001424 0.028853552 0 0 0 0 31.195711
8.3428888 9.5562849 0.76787257 0 0 0 0 31.205605
4.8955326 6.2268066 0.031779833 0 0 0 0 31.2155
4.643621 6.2496848 -0.19427624 0 0 0 0 31.220446
8.0318909 9.6292744 0.75577855 0 0 0 0 31.225391
4.6995378 6.2754107 0.033733424 0 0 0 0 31.235287
4.5178623 6.3931012 -0.18921509 0 0 0 0 31.240234
7.7539554 9.729166 0.74571937 0 0 0 0 31.245182
7.4383297 9.8613281 0.39073929 0 0 0 0 31.250128
4.5085335 6.3209925 0.036686327 0 0 0 0 31.255074
4.3138204 6.425704 -0.18127763 0 0 0 0 31.260021
7.4559374 9.7970972 0.73362637 0 0 0 0 31.264969
6.5312138 9.082777 0.35371289 0 0 0 0 31.269917
4.3325758 6.3865285 0.039662164 0 0 0 0 31.274864
4.1137691 6.4552884 -0.1733408 0 0 0 0 31.27981
8.3559456 11.512959 0.84334248 0 0 0 0 31.284756
6.4267807 9.386179 0.35989389 0 0 0 0 31.289703
4.179697 6.4850006 0.042674124 0 0 0 0 31.294651
3.9217298 6.4898453 -0.1663963 0 0 0 0 31.299599
7.9456425 11.480173 0.82211524 0 0 0 0 31.304544
5.8195 8.9338245 0.33726367 0 0 0 0 31.309492
5.2606988 8.5944624 0.060802884 0 0 0 0 31.314438
3.7417276 6.5403652 -0.15943351 0 0 0 0 31.319386
7.6296306 11.568132 0.81002325 0 0 0 0 31.324333
5.3706999 8.6730547 0.3218556 0 0 0 0 31.329281
4.8710489 8.3945179 0.062469386 0 0 0 0 31.334227
3.5797861 6.6168346 -0.15344258 0 0 0 0 31.339172
11.562737 18.424501 1.2649779 0 0 0 0 31.34412
5.7843051 9.8361588 0.36092603 0 0 0 0 31.349068
4.5837555 8.3403139 0.064295664 0 0 0 0 31.354015
3.4268746 6.7072763 -0.14743704 0 0 0 0 31.358963
10.913042 18.287342 1.2285408 0 0 0 0 31.363909
5.5102301 9.8859444 0.35783315 0 0 0 0 31.368855
4.3416243 8.3539886 0.068195283 0 0 0 0 31.373802
3.2488549 6.7537684 -0.13947608 0 0 0 0 31.37875
10.243176 18.074203 1.1880397 0 0 0 0 31.383698
6.1240559 11.602588 0.41440108 0 0 0 0 31.388645
4.7887735 9.768033 0.083474047 0 0 0 0 31.393591
3.8287351 8.4655151 -0.16389482 0 0 0 0 31.398537
8.605052 16.021387 1.0317322 0 0 0 0 31.403484
5.7938504 11.613502 0.41024807 0 0 0 0 31.408432
4.4995279 9.7458115 0.086321741 0 0 0 0 31.41338
3.6187358 8.5380821 -0.15593334 0 0 0 0 31.418325
7.780076 15.30055 0.96379614 0 0 0 0 31.423273
7.0152063 14.914736 0.52126253 0 0 0 0 31.428219
4.2192922 9.7275562 0.090177484 0 0 0 0 31.433167
3.4237995 8.6396055 -0.14794329 0 0 0 0 31.438114
7.069459 14.724401 0.90902632 0 0 0 0 31.443062
6.2993407 14.227555 0.49040529 0 0 0 0 31.448008
4.6992865 11.566548 0.1117743 0 0 0 0 31.452955
3.2308798 8.7501163 -0.13994524 0 0 0 0 31.457901
7.9023237 17.455564 1.0563931 0 0 0 0 31.462849
5.9181051 14.250566 0.48623386 0 0 0 0 31.467796
4.3618927 11.495414 0.11556087 0 0 0 0 31.472744
3.2997055 9.6370411 -0.14224187 0 0 0 0 31.47769
6.1150842 14.371922 0.8522979 0 0 0 0 31.482635
5.7731681 14.855018 0.50159937 0 0 0 0 31.487583
4.0435896 11.463223 0.12038761 0 0 0 0 31.492531
5.8554587 14.670646 0.85238183 0 0 0 0 31.502424
5.0910921 14.052689 0.4696843 0 0 0 0 31.507372
5.5223732 16.896008 0.18508688 0 0 0 0 31.51232
3.2870491 11.324224 -0.14098053 0 0 0 0 31.517265
5.626061 15.079285 0.85955936 0 0 0 0 31.522213
4.6623769 13.855759 0.45833361 0 0 0 0 31.527161
4.3385763 14.407739 0.162692 0 0 0 0 31.532106
2.9897592 11.296939 -0.1281365 0 0 0 0 31.537054
4.7668233 13.726363 0.76717645 0 0 0 0 31.542002
4.911314 15.799284 0.51785731 0 0 0 0 31.546947
4.0085483 14.530549 0.17062338 0 0 0 0 31.551895
2.6843128 11.196659 -0.11535007 0 0 0 0 31.556841
4.5443978 14.120953 0.77435118 0 0 0 0 31.561789
4.1401725 14.486095 0.47053835 0 0 0 0 31.566736
3.5282576 14.067673 0.17105792 0 0 0 0 31.571682
3.5060382 16.303003 -0.14918905 0 0 0 0 31.57663
4.3663535 14.702433 0.79067886 0 0 0 0 31.581577
3.70628 14.204129 0.45712933 0 0 0 0 31.586523
3.7048647 16.371359 0.2058191 0 0 0 0 31.591471
3.0824695 16.194965 -0.12946852 0 0 0 0 31.596418
3.8453588 14.103486 0.7452212 0 0 0 0 31.352787
3.3292534 14.059999 0.45003444 0 0 0 0 31.357733
3.2875009 16.274336 0.21295166 0 0 0 0 31.362679
2.6811006 16.109076 -0.11036618 0 0 0 0 31.367626
3.4940259 14.081425 0.7300216 0 0 0 0 31.372574
3.4662571 16.306705 0.51793867 0 0 0 0 31.377522
2.8759091 16.165377 0.21864806 0 0 0 0 31.382469
2.2785699 16.026068 -0.091640711 0 0 0 0 31.387415
3.1567519 14.084315 0.71585 0 0 0 0 31.392361
3.0607734 16.241743 0.51167554 0 0 0 0 31.397308
2.4743409 16.064377 0.22435863 0 0 0 0 31.402256
1.8860335 15.939019 -0.072911948 0 0 0 0 31.407204
2.6926894 16.348673 0.51157296 0 0 0 0 31.417097
2.0828652 16.001339 0.23010883 0 0 0 0 31.422043
1.4924043 15.809957 -0.054214913 0 0 0 0 31.426991
1.6912247 15.865282 0.23580101 0 0 0 0 31.441832
0.88965929 12.564341 -0.030202024 0 0 0 0 31.446779
1.3220818 15.946157 0.24468602 0 0 0 0 31.46162
0.74035376 15.635703 -0.019727325 0 0 0 0 31.466568
0.76273072 12.815475 0.20185216 0 0 0 0 31.481407
0.35782775 15.099565 -0.0013521716 0 0 0 0 31.486355
0.0038625477 14.805349 0.015239856 0 0 0 0 31.506144
-0.29401878 12.722995 0.026390234 0 0 0 0 31.52593
0.95088983 15.965714 0.71427149 0 0 0 0 31.530878
-0.1547658 14.781509 0.25603583 0 0 0 0 31.540771
-0.68104351 14.669824 0.048817161 0 0 0 0 31.545719
0.016087504 14.834991 0.44704849 0 0 0 0 31.555613
-0.4961786 14.730246 0.26284015 0 0 0 0 31.56056
-1.0205618 14.569533 0.065585993 0 0 0 0 31.565506
-0.32937002 14.761743 0.44383472 0 0 0 0 31.575401
-0.83270437 14.624958 0.26860598 0 0 0 0 31.580347
-1.3559905 14.509219 0.082391582 0 0 0 0 31.585295
-0.14354673 14.800204 0.62583709 0 0 0 0 31.590242
-0.66686445 14.669463 0.43961132 0 0 0 0 31.595188
-1.1701876 14.537657 0.27539009 0 0 0 0 31.600136
-1.690423 14.445888 0.10019858 0 0 0 0 31.605083
-0.48387828 14.783938 0.61367327 0 0 0 0 31.610029
-1.0053216 14.593171 0.43640435 0 0 0 0 31.614977
-1.5085226 14.519341 0.28323185 0 0 0 0 31.619925
-2.0396481 14.480574 0.11908271 0 0 0 0 31.62487
-0.82050425 14.625652 0.59640282 0 0 0 0 31.629818
-1.3397568 14.525856 0.43320897 0 0 0 0 31.634766
-1.8390412 14.411997 0.29000932 0 0 0 0 31.639711
-1.1539674 14.543344 0.58219647 0 0 0 0 31.649607
-1.6751891 14.458529 0.43101707 0 0 0 0 31.654552
-1.4883598 14.49402 0.56901896 0 0 0 0 31.669394
-2.0056267 14.387176 0.42782667 0 0 0 0 31.674341
-3.1578252 14.834681 0.1789248 0 0 0 0 31.684235
-1.8168874 14.376673 0.55479467 0 0 0 0 31.689182
-3.1475115 14.890313 0.44278035 0 0 0 0 31.733706
-3.2961922 14.818433 0.53157318 0 0 0 0 31.768333
-5.0347085 14.399651 0.38083607 0 0 0 0 31.817804
-5.0281987 14.401437 0.47139394 0 0 0 0 31.646196
-5.8608971 13.640154 0.39662868 0 0 0 0 31.65609
-4.8866944 10.347208 0.28027502 0 0 0 0 31.661037
-6.1256742 13.39357 0.40134022 0 0 0 0 31.675879
-5.1789169 10.339689 0.29818496 0 0 0 0 31.680824
-6.0156145 13.524244 0.41541871 0 0 0 0 31.69072
-5.0230813 10.335282 0.31918466 0 0 0 0 31.695665
-5.4711566 10.323158 0.31609058 0 0 0 0 31.700613
-5.8785739 13.646874 0.42249361 0 0 0 0 31.705561
-4.8942103 10.346951 0.31919089 0 0 0 0 31.710506
-5.3202963 10.330766 0.33009875 0 0 0 0 31.715454
-5.7853489 10.330658 0.33601287 0 0 0 0 31.7204
-6.1124983 13.317232 0.40415636 0 0 0 0 31.725348
-5.1844611 10.323424 0.32109243 0 0 0 0 31.730295
-5.6205201 10.321243 0.34001106 0 0 0 0 31.735241
-5.57131 9.4341269 0.32536176 0 0 0 0 31.740189
-5.0495586 10.350092 0.30711007 0 0 0 0 31.745136
-5.490664 10.323916 0.32401153 0 0 0 0 31.750082
-5.9427071 10.330749 0.35193622 0 0 0 0 31.75503
-5.391973 8.6716719 0.3158145 0 0 0 0 31.759977
-5.3468013 10.329572 0.30101556 0 0 0 0 31.764923
-5.8018713 10.322406 0.32593083 0 0 0 0 31.769871
-5.4873724 9.0487728 0.31805715 0 0 0 0 31.774818
-5.3710318 8.2075224 0.31646696 0 0 0 0 31.779764
-5.6580129 10.325064 0.29493305 0 0 0 0 31.784712
-5.572854 9.3878679 0.30027035 0 0 0 0 31.78966
-5.2999687 8.3013163 0.30153361 0 0 0 0 31.794605
-5.603301 8.1498451 0.33137625 0 0 0 0 31.799553
-5.5605927 9.5957832 0.26840207 0 0 0 0 31.804501
-5.4144197 8.65347 0.27875319 0 0 0 0 31.809446
-5.4953599 8.1785736 0.30740267 0 0 0 0 31.814394
-5.8445544 8.0991735 0.34729189 0 0 0 0 31.819342
-5.4012032 8.8333893 0.2428676 0 0 0 0 31.824287
-5.4014401 8.195344 0.2674177 0 0 0 0 31.829235
-5.733624 8.1219006 0.31631494 0 0 0 0 31.834181
-6.0918136 8.0445032 0.36420658 0 0 0 0 31.839128
-5.3114667 8.241128 0.22145149 0 0 0 0 31.844076
-5.6466875 8.1466856 0.26933503 0 0 0 0 31.849022
-5.979887 8.0642319 0.32522815 0 0 0 0 31.85397
-6.3310976 7.9748073 0.38111493 0 0 0 0 31.858917
-5.5447593 8.1674509 0.21535367 0 0 0 0 31.863863
-5.8889565 8.0850124 0.2702466 0 0 0 0 31.868811
-6.2261524 8.0035524 0.33414212 0 0 0 0 31.873758
-6.5863585 7.9161296 0.39903152 0 0 0 0 31.878704
-5.7890272 8.1057835 0.20926547 0 0 0 0 31.883652
-6.140223 8.023344 0.27315983 0 0 0 0 31.888599
-6.4764233 7.938869 0.34405583 0 0 0 0 31.893545
-6.8446202 7.8554468 0.41594929 0 0 0 0 31.898493
-6.0432849 8.0481243 0.20318155 0 0 0 0 31.90344
-6.3884978 7.9556608 0.27407241 0 0 0 0 31.908386
-6.7416787 7.8812008 0.35497519 0 0 0 0 31.913334
-7.106885 7.7917595 0.43486756 0 0 0 0 31.918282
-6.3015442 7.9884601 0.19809867 0 0 0 0 31.923227
-6.6527586 7.8939929 0.27698991 0 0 0 0 31.928175
-6.9959593 7.8075032 0.36388844 0 0 0 0 31.933123
-7.3841414 7.7310863 0.45478901 0 0 0 0 31.938068
-6.5608144 7.9207864 0.19201344 0 0 0 0 31.943016
-6.914031 7.8243093 0.27990565 0 0 0 0 31.947964
-7.2712212 7.7428293 0.37580818 0 0 0 0 31.952909
-7.6524196 7.6563869 0.47370562 0 0 0 0 31.957857
-6.8290801 7.8541174 0.18593089 0 0 0 0 31.962803
-7.1912885 7.761641 0.28282714 0 0 0 0 31.967751
-7.5424957 7.669138 0.38672572 0 0 0 0 31.972698
-7.603229 7.2661462 0.47446066 0 0 0 0 31.977644
-7.11233 7.7954617 0.18085489 0 0 0 0 31.982592
-7.4785423 7.6989779 0.28575069 0 0 0 0 31.987539
-7.6161036 7.3951068 0.38754213 0 0 0 0 31.992485
-7.4940767 6.8428097 0.47020727 0 0 0 0 31.997433
-7.3906002 7.722785 0.17577374 0 0 0 0 32.00238
-7.6410131 7.5050969 0.28460887 0 0 0 0 32.007324
-7.4969888 6.9467573 0.37927532 0 0 0 0 32.012276
-7.3758798 6.4354634 0.46497053 0 0 0 0 32.01722
-7.6229668 7.5900207 0.16966352 0 0 0 0 32.022167
-7.5029364 7.0307183 0.2733295 0 0 0 0 32.027115
-7.3638306 6.5133896 0.37102532 0 0 0 0 32.032063
-7.2905927 6.072175 0.46276292 0 0 0 0 32.03701
-7.4888959 7.1086531 0.15438105 0 0 0 0 32.041954
-7.2805457 6.1461077 0.36481625 0 0 0 0 32.051849
-7.1862807 5.7148595 0.45956579 0 0 0 0 32.056797
-7.2765307 6.2010574 0.25285664 0 0 0 0 32.066689
-7.187233 5.7868128 0.35861805 0 0 0 0 32.07164
-7.0979052 5.3875742 0.4563899 0 0 0 0 32.076584
-7.2479219 6.2352986 0.13019744 0 0 0 0 32.832119
-7.18226 5.822176 0.24507149 0 0 0 0 32.837067
-7.0975699 5.4410424 0.35295549 0 0 0 0 32.842014
-7.0248642 5.0749211 0.45584595 0 0 0 0 32.846962
-7.1593146 5.866086 0.11909143 0 0 0 0 32.851906
-7.1865673 5.5520334 0.24000363 0 0 0 0 32.856857
-7.0348911 5.1378527 0.34987712 0 0 0 0 32.861801
-6.9421697 4.7797189 0.45377177 0 0 0 0 32.866749
-7.1516333 5.5759349 0.11101825 0 0 0 0 32.871696
-7.2448287 5.3289289 0.23695689 0 0 0 0 32.87664
-6.9781852 4.8536701 0.34580877 0 0 0 0 32.881592
-6.8744464 4.5055304 0.45270839 0 0 0 0 32.886536
-7.2598691 5.3848653 0.10498493 0 0 0 0 32.891483
-7.2071252 5.0417557 0.23188983 0 0 0 0 32.896431
-6.9294558 4.5864949 0.34274963 0 0 0 0 32.901379
-5.9770627 3.7277892 0.39545333 0 0 0 0 32.906326
-7.174191 5.0566587 0.095904507 0 0 0 0 32.91127
-7.1214213 4.7365508 0.22581862 0 0 0 0 32.916222
-5.9551034 3.7447114 0.29447326 0 0 0 0 32.921165
-7.0864887 4.7444544 0.0878326 0 0 0 0 32.931061
-5.9391541 3.7496395 0.18549019 0 0 0 0 32.936005
-0.40047157 0.2240448 0.025162719 0 0 0 0 32.9459
-5.9162045 3.7575643 0.067507178 0 0 0 0 32.950848
-0.40245959 0.22704621 0.018184569 0 0 0 0 32.960739
-0.37545884 0.21202993 0.010199547 0 0 0 0 32.975582
-0.3954581 0.19903724 0.026212057 0 0 0 0 32.985477
-0.36545113 0.20802461 0.0022186544 0 0 0 0 32.990425
-0.39644715 0.20003819 0.01823345 0 0 0 0 33.00032
-0.37944198 0.19102876 0.01025088 0 0 0 0 33.01516
-0.4184351 0.18704557 0.028267654 0 0 0 0 33.025055
-0.37043381 0.18702422 0.0022701945 0 0 0 0 33.029999
-0.4204236 0.18904674 0.01928949 0 0 0 0 33.039894
-0.40041855 0.17903619 0.010306548 0 0 0 0 33.054733
-0.42841423 0.16904546 0.029321399 0 0 0 0 33.064629
-0.39940861 0.17803586 0.001327436 0 0 0 0 33.069576
-0.43340257 0.17104778 0.020343665 0 0 0 0 33.079468
-0.42139494 0.1650416 0.011362525 0 0 0 0 33.094311
-0.48138481 0.16506426 0.033383291 0 0 0 0 33.104202
-0.45037976 0.17505503 0.0013889968 0 0 0 0 33.109154
-0.48037472 0.16406283 0.023404507 0 0 0 0 33.119045
-0.44537064 0.15004672 0.011419428 0 0 0 0 33.133888
-0.38237733 0.11201537 0.026419546 0 0 0 0 33.143784
-0.44036126 0.14704394 0.0014397984 0 0 0 0 33.148727
-0.3843658 0.11201627 0.018441316 0 0 0 0 33.158623
-0.37735602 0.10801362 0.0094613172 0 0 0 0 33.173462
-0.34435472 0.08499752 0.024467774 0 0 0 0 33.183357
-0.37134618 0.10401146 0.00048145012 0 0 0 0 33.188301
-0.35134268 0.085000508 0.017490242 0 0 0 0 33.198196
-0.34333271 0.079998188 0.0085100327 0 0 0 0 33.213039
-0.33332676 0.065991849 0.024521017 0 0 0 0 33.222931
-0.35032082 0.08000093 0.00053257484 0 0 0 0 33.227882
-0.33831495 0.064994089 0.016543211 0 0 0 0 33.237774
-0.32730436 0.059991118 0.0085626766 0 0 0 0 33.252617
-0.33629596 0.050991323 0.024577184 0 0 0 0 33.262508
-0.33629236 0.059994418 -0.00041437981 0 0 0 0 33.267456
-0.3332845 0.047990911 0.016598126 0 0 0 0 33.277351
-0.33127296 0.044990774 0.0086192228 0 0 0 0 33.292191
-0.33726376 0.035989903 0.025633568 0 0 0 0 33.302086
-0.33956873 0.043010935 -0.00085380883 0 0 0 0 32.969662
-0.3355644 0.033003818 0.016157944 0 0 0 0 32.979553
-0.33155373 0.029002745 0.0081784986 0 0 0 0 32.994396
-0.33854759 0.021002186 0.026191818 0 0 0 0 33.004288
-0.33854249 0.026008282 -0.00079969713 0 0 0 0 33.009239
-0.33753672 0.017003082 0.017212747 0 0 0 0 33.019131
-0.33252576 0.013001705 0.0082333386 0 0 0 0 33.033974
-0.33751899 0.0050000348 0.026246708 0 0 0 0 33.043865
-0.33751422 0.010005714 -0.00074486149 0 0 0 0 33.048813
-0.33550721 0.0020003256 0.017267894 0 0 0 0 33.058708
-0.33049545 -0.0010009414 0.0082887914 0 0 0 0 33.073547
-0.34548789 -0.0089977793 0.027303429 0 0 0 0 33.083443
-0.33748457 -0.0059962757 -0.00068943924 0 0 0 0 33.088387
-0.33747643 -0.013000341 0.017323902 0 0 0 0 33.098282
-0.33646479 -0.016999714 0.0083451495 0 0 0 0 33.113121
-0.341456 -0.024001677 0.028359164 0 0 0 0 33.123016
-0.34145349 -0.021996481 -0.00063305971 0 0 0 0 33.127964
-0.3364442 -0.02800267 0.018380063 0 0 0 0 33.137859
-0.33343276 -0.033002779 0.0084010419 0 0 0 0 33.152702
-0.34442335 -0.04000216 0.028415978 0 0 0 0 33.162594
-0.33842149 -0.038999856 -0.00057714299 0 0 0 0 33.167542
-0.33941117 -0.044003144 0.018437002 0 0 0 0 33.177437
-0.33039925 -0.049005743 0.0094573721 0 0 0 0 33.192276
-0.34238881 -0.055004891 0.02947285 0 0 0 0 33.202171
-0.33338764 -0.055003684 -0.00052085542 0 0 0 0 33.207115
-0.33937666 -0.060005076 0.019494087 0 0 0 0 33.21701
-0.33036444 -0.065007277 0.0095145544 0 0 0 0 33.23185
-0.34035295 -0.070007414 0.030530153 0 0 0 0 33.241745
-0.33535272 -0.07200487 -0.0004633223 0 0 0 0 33.246693
-0.33534089 -0.076008059 0.019551108 0 0 0 0 33.256584
-0.32732794 -0.080009677 0.0095719416 0 0 0 0 33.271427
-0.34631661 -0.08800751 0.03158867 0 0 0 0 33.281322
-0.34631738 -0.093003772 -0.00040441894 0 0 0 0 33.28627
-0.36430535 -0.10000241 0.022612473 0 0 0 0 33.296165
-0.36029282 -0.10700318 0.011633783 0 0 0 0 33.311005
-0.36227924 -0.10900584 0.033649031 0 0 0 0 33.3209
