# .PCD v0.7 - Point Cloud Data file format
VERSION 0.7
FIELDS x y z normal_x normal_y normal_z intensity curvature
SIZE 4 4 4 4 4 4 4 4
TYPE F F F F F F F F
COUNT 1 1 1 1 1 1 1 1
WIDTH 357
HEIGHT 1
VIEWPOINT 0 0 0 1 0 0 0
POINTS 357
DATA ascii
-8.0352306 -13.935285 0.37053421 0 0 0 0 30.485094
-9.5500641 -12.284545 -0.46441087 0 0 0 0 30.504881
-9.829381 -12.264771 -0.25778216 0 0 0 0 30.509829
-9.4313555 -12.338887 -0.26024127 0 0 0 0 30.529617
-9.6937532 -12.273085 -0.058654632 0 0 0 0 30.534563
-9.0413256 -12.416028 -0.26271102 0 0 0 0 30.549404
-8.4878254 -12.396519 -0.10418137 0 0 0 0 30.593927
-8.1507254 -12.504806 -0.11968472 0 0 0 0 30.613716
-7.7637844 -12.530005 -0.13424729 0 0 0 0 30.633503
-5.8602796 -12.719788 -0.50791132 0 0 0 0 30.678026
-6.0497904 -12.68673 -0.28326291 0 0 0 0 30.707708
-5.9860411 -12.684424 -0.20626764 0 0 0 0 30.732443
-4.5758362 -12.121146 -0.42841345 0 0 0 0 30.737391
-4.2658939 -12.166514 -0.41206595 0 0 0 0 30.757179
-4.5300455 -12.148872 -0.33340371 0 0 0 0 30.762125
-4.7871494 -12.142249 -0.27871853 0 0 0 0 30.767073
-3.9440532 -12.155868 -0.3947812 0 0 0 0 30.776966
-4.2151389 -12.167252 -0.32808831 0 0 0 0 30.781914
-4.4841819 -12.188661 -0.28337961 0 0 0 0 30.78686
-4.7353635 -12.133033 -0.23674907 0 0 0 0 30.791807
-3.641139 -12.185264 -0.37946948 0 0 0 0 30.796755
-3.8992794 -12.160635 -0.32080731 0 0 0 0 30.801701
-4.1633096 -12.183044 -0.28609091 0 0 0 0 30.806648
-4.4473324 -12.209489 -0.2513912 0 0 0 0 30.811596
-3.3382218 -12.216669 -0.36415887 0 0 0 0 30.816542
-3.5953779 -12.177047 -0.31451353 0 0 0 0 30.821489
-3.8494403 -12.175449 -0.2888158 0 0 0 0 30.826437
-4.1225009 -12.173885 -0.26413846 0 0 0 0 30.831383
-3.0542123 -12.300117 -0.35080707 0 0 0 0 30.83633
-3.2974415 -12.212481 -0.31020579 0 0 0 0 30.841278
-3.5475385 -12.185884 -0.29253426 0 0 0 0 30.846224
-3.810612 -12.171311 -0.27686128 0 0 0 0 30.851171
-2.7523386 -12.307539 -0.33553529 0 0 0 0 30.856119
-3.0184042 -12.305955 -0.30684984 0 0 0 0 30.861065
-3.2565596 -12.240346 -0.29721302 0 0 0 0 30.866013
-3.5146732 -12.196774 -0.29056981 0 0 0 0 30.87096
-2.4603729 -12.366987 -0.32221276 0 0 0 0 30.875906
-2.7125454 -12.298388 -0.30159461 0 0 0 0 30.880854
-2.9735484 -12.313829 -0.30288073 0 0 0 0 30.885801
-3.2276707 -12.259259 -0.30524564 0 0 0 0 30.890747
-2.4394591 -12.421888 -0.29921609 0 0 0 0 30.90064
-2.6696846 -12.303282 -0.30663356 0 0 0 0 30.905588
-2.9406939 -12.307753 -0.31994274 0 0 0 0 30.910536
-2.4055259 -12.463816 -0.31522265 0 0 0 0 30.925377
-2.642792 -12.313231 -0.33368438 0 0 0 0 30.930323
-2.3786299 -12.470781 -0.35228068 0 0 0 0 30.950111
-1.3833982 -13.388225 -0.28592914 0 0 0 0 30.693687
-1.7379171 -10.41188 -0.30532303 0 0 0 0 30.708529
-1.3536266 -13.347171 -0.30006069 0 0 0 0 30.718422
-1.6019555 -13.156677 -0.34561628 0 0 0 0 30.72337
-1.3136718 -13.380155 -0.35708377 0 0 0 0 30.743158
-1.2857867 -13.361189 -0.43618891 0 0 0 0 30.767893
0.17995258 -13.447289 -0.21654321 0 0 0 0 30.792627
0.19981025 -13.421344 -0.28267643 0 0 0 0 30.817362
0.23876867 -13.428414 -0.38774651 0 0 0 0 30.842098
0.26484117 -13.484541 -0.52077013 0 0 0 0 30.866833
2.483973 -13.463066 -0.64411491 0 0 0 0 31.005348
3.5595989 -13.014629 -0.075528316 0 0 0 0 31.010296
3.1560652 -13.697779 -0.46620274 0 0 0 0 31.020189
2.8189116 -13.496574 -0.66482884 0 0 0 0 31.025137
3.9025733 -13.086105 -0.064191073 0 0 0 0 31.030083
3.5413444 -12.844924 -0.24988796 0 0 0 0 31.03503
3.3147924 -13.009542 -0.45196161 0 0 0 0 31.039978
3.1568534 -13.532085 -0.68654126 0 0 0 0 31.044924
4.2314239 -13.081612 -0.052962773 0 0 0 0 31.049871
3.654093 -12.15877 -0.23568423 0 0 0 0 31.054819
3.5682511 -12.755175 -0.45210266 0 0 0 0 31.059765
3.3478155 -12.978806 -0.67810094 0 0 0 0 31.064713
4.5803576 -13.129095 -0.041655976 0 0 0 0 31.06966
3.4976709 -10.740033 -0.20860672 0 0 0 0 31.074606
3.7162068 -12.189968 -0.44071436 0 0 0 0 31.079554
3.6113541 -12.767433 -0.68618047 0 0 0 0 31.084501
4.947341 -13.208558 -0.030297579 0 0 0 0 31.089447
4.3833518 -12.468713 -0.24177347 0 0 0 0 31.094395
3.5608068 -10.782209 -0.39860806 0 0 0 0 31.099342
3.8306751 -12.42013 -0.68746197 0 0 0 0 31.104288
4.4629259 -11.141367 -0.016301395 0 0 0 0 31.109236
4.3798432 -11.602754 -0.22488324 0 0 0 0 31.114182
4.4153051 -12.388992 -0.46797118 0 0 0 0 31.119129
3.6712217 -10.979353 -0.62638468 0 0 0 0 31.124077
5.4302588 -12.701903 -0.007616689 0 0 0 0 31.129023
4.4568205 -11.028677 -0.21456255 0 0 0 0 31.13397
4.5764885 -11.949788 -0.46241543 0 0 0 0 31.138918
3.8295538 -10.622148 -0.62372261 0 0 0 0 31.143864
5.2683806 -11.583211 0.0028287091 0 0 0 0 31.148811
4.8079147 -11.156191 -0.21715647 0 0 0 0 31.153759
5.0529919 -12.334136 -0.48759899 0 0 0 0 31.158705
4.1134639 -10.618775 -0.64252812 0 0 0 0 31.163652
5.6165414 -11.653844 0.0084315613 0 0 0 0 32.011105
5.0049496 -10.924663 -0.21765377 0 0 0 0 32.016052
6.053205 -13.869882 -0.56556225 0 0 0 0 32.021
5.1077785 -12.338018 -0.77253437 0 0 0 0 32.025944
7.1758566 -14.059332 0.020418679 0 0 0 0 32.030891
5.6806254 -11.685057 -0.23363206 0 0 0 0 32.035839
5.0669909 -10.907862 -0.45574442 0 0 0 0 32.040787
6.1633773 -13.954118 -0.89957464 0 0 0 0 32.045734
7.5987372 -14.092991 0.033642638 0 0 0 0 32.050682
7.2158771 -14.017635 -0.28175467 0 0 0 0 32.055626
5.7426553 -11.648286 -0.49875012 0 0 0 0 32.060574
4.2210536 -8.976882 -0.59599793 0 0 0 0 32.065521
8.0236015 -14.10866 0.044849791 0 0 0 0 32.070469
7.6708088 -14.091281 -0.28547832 0 0 0 0 32.075417
7.3470149 -14.071871 -0.6167841 0 0 0 0 32.080364
4.4469151 -8.9107218 -0.60895091 0 0 0 0 32.085308
8.4935122 -14.173295 0.057124168 0 0 0 0 32.090256
8.1207151 -14.140941 -0.28822955 0 0 0 0 32.095203
7.7879052 -14.094545 -0.63456118 0 0 0 0 32.100151
4.7228642 -8.9275236 -0.62880492 0 0 0 0 32.105099
8.9734116 -14.227932 0.069393121 0 0 0 0 32.110043
8.5986338 -14.203587 -0.29295483 0 0 0 0 32.11499
5.0298543 -8.9853048 -0.65260786 0 0 0 0 32.124886
9.4633093 -14.282571 0.081663989 0 0 0 0 32.129833
9.077528 -14.242242 -0.29670268 0 0 0 0 32.134781
5.540647 -9.0167046 -0.42725411 0 0 0 0 32.139725
4.2409759 -7.1770244 -0.53760636 0 0 0 0 32.144672
9.960186 -14.314217 0.093917839 0 0 0 0 32.14962
9.5934582 -14.318875 -0.30240035 0 0 0 0 32.154568
5.8325682 -9.0125074 -0.4381215 0 0 0 0 32.159515
4.4599094 -7.159883 -0.55251753 0 0 0 0 32.164463
10.085576 -13.822219 0.10350943 0 0 0 0 32.169407
10.066303 -14.30656 -0.3062005 0 0 0 0 32.174355
6.1625347 -9.0552855 -0.45192954 0 0 0 0 32.179302
4.7058702 -7.1687241 -0.57039183 0 0 0 0 32.18425
10.141921 -13.264291 0.11000896 0 0 0 0 32.189198
10.14563 -13.737606 -0.29769406 0 0 0 0 32.194145
6.4664512 -9.0450945 -0.46479839 0 0 0 0 32.199089
4.9728532 -7.2005544 -0.59123677 0 0 0 0 32.204037
10.202304 -12.73336 0.1165389 0 0 0 0 32.208984
6.9150829 -8.9305649 -0.19660917 0 0 0 0 32.213932
5.4507041 -7.2600279 -0.38388878 0 0 0 0 32.21888
5.2298079 -7.2033982 -0.61011249 0 0 0 0 32.223824
10.269732 -12.238425 0.12310691 0 0 0 0 32.228771
7.1448879 -8.8014488 -0.19762032 0 0 0 0 32.233719
5.590497 -7.0939736 -0.38597125 0 0 0 0 32.238667
5.4677229 -7.1632633 -0.62703437 0 0 0 0 32.243614
10.31918 -11.752509 0.12867506 0 0 0 0 32.248562
7.4037228 -8.7023134 -0.1995898 0 0 0 0 32.253506
5.7893653 -7.0058746 -0.39295602 0 0 0 0 32.258453
5.6976266 -7.1111398 -0.64197195 0 0 0 0 32.263401
9.6790133 -10.533196 0.12424911 0 0 0 0 32.268349
7.6225185 -8.5562172 -0.19962129 0 0 0 0 32.273296
5.994235 -6.9167747 -0.39993763 0 0 0 0 32.278244
3.9933949 -4.7515364 -0.44386607 0 0 0 0 32.283188
10.386139 -10.808707 0.13782887 0 0 0 0 32.288136
7.8152885 -8.3761501 -0.19969408 0 0 0 0 32.293083
6.2041121 -6.8336759 -0.40691224 0 0 0 0 32.298031
4.4446397 -5.0412326 -0.48639205 0 0 0 0 32.302979
6.5197606 -6.6773095 -0.16283937 0 0 0 0 32.31287
5.0797501 -5.3416409 -0.32877266 0 0 0 0 32.317818
4.7236767 -5.1070704 -0.51019722 0 0 0 0 32.322765
6.6565719 -6.5142789 -0.16291966 0 0 0 0 32.332661
5.3717613 -5.389473 -0.34258723 0 0 0 0 32.337608
5.2289085 -5.3917441 -0.5577035 0 0 0 0 32.342552
8.5553675 -7.7826099 0.12119964 0 0 0 0 32.3475
6.8154054 -6.3722343 -0.16396952 0 0 0 0 32.352448
5.6057143 -5.3693571 -0.35349017 0 0 0 0 32.357395
5.474875 -5.3826213 -0.57659048 0 0 0 0 32.362343
8.6981211 -7.5606027 0.12406816 0 0 0 0 32.367287
6.9822459 -6.2341876 -0.16501044 0 0 0 0 32.372234
5.7485852 -5.2533154 -0.35751992 0 0 0 0 32.377182
5.6777997 -5.3245354 -0.59154087 0 0 0 0 32.38213
8.8749065 -7.3735709 0.1289847 0 0 0 0 32.387077
7.1330757 -6.0791574 -0.16607265 0 0 0 0 32.392025
5.8814554 -5.1302862 -0.3625606 0 0 0 0 32.396969
9.0366869 -7.1745563 0.13288462 0 0 0 0 32.406864
6.0761271 -4.946053 -0.13857979 0 0 0 0 32.411812
6.0233283 -5.0092516 -0.36659312 0 0 0 0 32.416759
9.1924677 -6.9675498 0.13577715 0 0 0 0 32.426651
6.1609721 -4.7860651 -0.13867483 0 0 0 0 32.431599
6.1241813 -4.8582516 -0.36967161 0 0 0 0 32.436546
9.4112883 -6.8084993 0.14074378 0 0 0 0 32.446442
6.2498245 -4.6290774 -0.13976353 0 0 0 0 32.451385
6.2430477 -4.7202406 -0.37372854 0 0 0 0 32.456333
9.5560713 -6.5915098 0.14362575 0 0 0 0 32.466228
6.3126674 -4.4571099 -0.13887724 0 0 0 0 32.471176
6.3158898 -4.5472655 -0.37483644 0 0 0 0 32.476124
5.1414127 -3.7832274 -0.51109946 0 0 0 0 32.481068
7.8403931 -5.1506624 0.11837261 0 0 0 0 32.243397
6.3868208 -4.2911391 -0.1393114 0 0 0 0 32.248344
6.3870621 -4.3733191 -0.37526944 0 0 0 0 32.253292
7.9031792 -4.9447079 0.12021212 0 0 0 0 32.263184
6.4706616 -4.135148 -0.14040799 0 0 0 0 32.268131
6.4468842 -4.1973472 -0.37639758 0 0 0 0 32.273079
7.9909844 -4.754734 0.12108339 0 0 0 0 32.282974
6.5405016 -3.9741712 -0.14051647 0 0 0 0 32.287918
8.0567856 -4.5537806 0.1219336 0 0 0 0 32.302761
6.6223502 -3.8181858 -0.14161101 0 0 0 0 32.307709
6.6235771 -3.8853624 -0.38157943 0 0 0 0 32.312653
5.0699334 -3.0297511 -0.48927867 0 0 0 0 32.3176
8.1145906 -4.3528357 0.12278064 0 0 0 0 32.322548
6.7182121 -3.6731911 -0.14268655 0 0 0 0 32.327496
6.7354426 -3.7433553 -0.38664186 0 0 0 0 32.332443
5.0717897 -2.8698108 -0.48741698 0 0 0 0 32.337391
8.1874065 -4.1578803 0.12264506 0 0 0 0 32.342335
6.7650552 -3.5012388 -0.14381316 0 0 0 0 32.347282
5.071651 -2.7128716 -0.48455215 0 0 0 0 32.357178
8.297245 -3.9858961 0.12355292 0 0 0 0 32.362125
6.8209062 -3.3342798 -0.14392784 0 0 0 0 32.367073
5.0445056 -2.5439527 -0.47971147 0 0 0 0 32.376965
6.8787637 -3.1703212 -0.14503704 0 0 0 0 32.38686
5.0233707 -2.3840284 -0.47485799 0 0 0 0 32.396755
6.8726039 -2.9794133 -0.14520577 0 0 0 0 32.406647
5.006247 -2.231101 -0.47099453 0 0 0 0 32.416542
6.8804569 -2.7994945 -0.14535484 0 0 0 0 32.426434
6.9493337 -2.6435308 -0.1474444 0 0 0 0 32.446224
3.7625868 -1.4660873 -0.35136807 0 0 0 0 32.456116
6.8769832 -2.4055066 0.097332798 0 0 0 0 32.461063
6.9431949 -2.4626236 -0.14759845 0 0 0 0 32.466011
4.2046647 -1.5218323 -0.39204949 0 0 0 0 32.475906
6.9160557 -2.2757316 -0.14776731 0 0 0 0 32.485798
4.6395936 -1.5394783 -0.25975737 0 0 0 0 32.490746
4.3456349 -1.4577895 -0.4040105 0 0 0 0 32.495693
5.5176044 -1.67681 -0.1190995 0 0 0 0 32.505589
5.1166391 -1.5652105 -0.28644198 0 0 0 0 32.510536
5.0397563 -1.5553842 -0.46750596 0 0 0 0 32.51548
6.7015953 -1.8549027 0.090779662 0 0 0 0 32.520428
6.1666532 -1.7214296 -0.13366513 0 0 0 0 32.525375
5.8187208 -1.6318024 -0.3259576 0 0 0 0 32.530323
4.909637 -1.38853 -0.45371139 0 0 0 0 32.535271
7.5616355 -1.9123834 0.10035232 0 0 0 0 32.540215
5.8196278 -1.4868747 -0.32606649 0 0 0 0 32.55011
4.8875527 -1.2556044 -0.45082209 0 0 0 0 32.555058
8.8487139 -2.0305889 0.11523259 0 0 0 0 32.560005
5.7355223 -1.3240021 -0.32123908 0 0 0 0 32.569897
4.8674755 -1.1276776 -0.4489263 0 0 0 0 32.574844
5.6774292 -1.1721114 -0.31838521 0 0 0 0 32.589687
4.8333998 -0.99875844 -0.44503793 0 0 0 0 32.594635
5.6493478 -1.0292006 -0.3175039 0 0 0 0 32.609474
4.8263345 -0.87782252 -0.44412529 0 0 0 0 32.614422
5.1379838 -0.32484737 -0.29228526 0 0 0 0 32.708416
5.126483 -0.22588953 -0.12314843 0 0 0 0 32.444633
5.1525917 -0.20398797 -0.29414698 0 0 0 0 32.449581
5.1274238 -0.1099562 -0.12523031 0 0 0 0 32.464424
6.7102523 -0.023731234 0.061795704 0 0 0 0 32.479263
5.1493664 0.0059925588 -0.12729591 0 0 0 0 32.484211
6.01719 0.11067434 0.052225757 0 0 0 0 32.49905
5.1993108 0.12595989 -0.13134311 0 0 0 0 32.503998
5.6381392 0.22932236 0.045886289 0 0 0 0 32.518841
4.8522635 0.2276506 -0.12464638 0 0 0 0 32.523785
4.753221 0.33151925 -0.12377957 0 0 0 0 32.543575
4.3313127 0.33513954 -0.25306556 0 0 0 0 32.548523
5.2611566 0.48779684 -0.1395354 0 0 0 0 32.563362
4.2132792 0.42500633 -0.24819845 0 0 0 0 32.56831
5.2741094 0.61073625 -0.14260224 0 0 0 0 32.583149
5.2710657 0.73266476 -0.14567713 0 0 0 0 32.60294
6.0308652 1.26292 -0.17648149 0 0 0 0 32.662304
5.1600404 1.1402904 -0.31497669 0 0 0 0 32.667248
4.4741807 1.0407956 -0.42436406 0 0 0 0 32.672195
5.9308343 1.3847816 -0.17761223 0 0 0 0 32.682091
5.1110096 1.2571955 -0.3150689 0 0 0 0 32.687038
4.4451561 1.1457227 -0.42343473 0 0 0 0 32.691986
7.7484341 1.9009166 0.018275296 0 0 0 0 32.69693
5.8858008 1.5166781 -0.17971027 0 0 0 0 32.701878
5.0669832 1.3721048 -0.31515455 0 0 0 0 32.706825
4.4221315 1.2546536 -0.42350158 0 0 0 0 32.711773
7.2204661 1.941502 0.010915543 0 0 0 0 32.716721
5.0579553 1.4970347 -0.3172209 0 0 0 0 32.726612
4.3961105 1.3615837 -0.42256728 0 0 0 0 32.73156
6.8964767 2.0202188 0.0046701618 0 0 0 0 32.736507
5.8137431 1.7844838 -0.18588923 0 0 0 0 32.741455
4.9979362 1.6079371 -0.31630993 0 0 0 0 32.746403
4.3730917 1.4715153 -0.42363051 0 0 0 0 32.75135
6.6544809 2.1109912 0.00047416016 0 0 0 0 32.756294
6.2326417 2.0716374 -0.20376705 0 0 0 0 32.761242
4.9519196 1.7218478 -0.3173894 0 0 0 0 32.76619
4.3500752 1.5804479 -0.42369124 0 0 0 0 32.771137
6.1575408 2.1066272 -0.0058296411 0 0 0 0 32.776085
5.9846539 2.141423 -0.2009508 0 0 0 0 32.781029
4.9229021 1.842769 -0.31845933 0 0 0 0 32.785976
4.3040648 1.6813695 -0.42176026 0 0 0 0 32.790924
5.8255811 2.1383653 -0.011044973 0 0 0 0 32.795872
5.6446896 2.1671669 -0.1941666 0 0 0 0 32.800819
4.8688922 1.952678 -0.31853715 0 0 0 0 32.805767
4.2780538 1.7903019 -0.42181867 0 0 0 0 32.810711
5.6455979 2.2151921 -0.016185239 0 0 0 0 32.815659
5.3637228 2.2009492 -0.18934678 0 0 0 0 32.820606
5.017848 2.1506884 -0.33253005 0 0 0 0 32.825554
4.2520447 1.9012346 -0.42287588 0 0 0 0 32.830502
5.2426667 2.1939085 -0.020412305 0 0 0 0 32.835449
5.0807624 2.2227376 -0.18351951 0 0 0 0 32.840393
4.8888564 2.2315614 -0.32763532 0 0 0 0 32.845341
4.2320371 2.0151708 -0.42392877 0 0 0 0 32.850288
5.0606947 2.2527461 -0.02453954 0 0 0 0 32.855236
4.8098078 2.2355385 -0.17867813 0 0 0 0 32.860184
4.7548699 2.307435 -0.32273877 0 0 0 0 32.865128
4.3060136 2.1781502 -0.43494511 0 0 0 0 32.870075
4.5968456 2.2663734 -0.17580746 0 0 0 0 32.879971
4.5029135 2.3162572 -0.30988044 0 0 0 0 32.884918
4.2840085 2.2980855 -0.43599752 0 0 0 0 32.889866
4.3938856 2.2932186 -0.17192669 0 0 0 0 32.899757
4.2539611 2.3160872 -0.29701406 0 0 0 0 32.904705
4.167027 2.36498 -0.42808095 0 0 0 0 32.909653
4.250196 2.3438029 -0.17116317 0 0 0 0 32.665676
4.0782833 2.3466234 -0.28927124 0 0 0 0 32.670624
4.0263362 2.4165137 -0.41833618 0 0 0 0 32.675571
4.1212196 2.3976688 -0.17126025 0 0 0 0 32.685463
3.9003208 2.3674676 -0.28038177 0 0 0 0 32.690411
3.8083832 2.411341 -0.39945802 0 0 0 0 32.695358
3.7593517 2.4043362 -0.27547476 0 0 0 0 32.710197
3.6184275 2.4141884 -0.38356408 0 0 0 0 32.715145
3.614387 2.4332068 -0.26856434 0 0 0 0 32.729988
3.4504697 2.4230521 -0.36965737 0 0 0 0 32.734936
5.1188135 3.471051 -0.23311281 0 0 0 0 32.744827
3.5214088 2.4921081 -0.26663399 0 0 0 0 32.749775
3.324502 2.4549413 -0.36073372 0 0 0 0 32.754723
5.0398202 3.5859401 -0.23619828 0 0 0 0 32.764618
3.204535 2.4878364 -0.35180503 0 0 0 0 32.774509
3.0965683 2.5237401 -0.34486869 0 0 0 0 32.7943
4.3520594 3.5633788 -0.3485623 0 0 0 0 32.809139
4.8238444 3.9606283 -0.24943908 0 0 0 0 32.823982
4.3060613 3.6972983 -0.35162732 0 0 0 0 32.828926
4.7738476 4.1085386 -0.25551063 0 0 0 0 32.843769
4.252069 3.8272154 -0.35469264 0 0 0 0 32.848717
3.785269 3.5669293 -0.43985108 0 0 0 0 32.853661
4.2170691 3.9791422 -0.35975346 0 0 0 0 32.868504
3.7522709 3.7078645 -0.44290549 0 0 0 0 32.873451
4.284029 4.042182 -0.24572189 0 0 0 0 32.883343
4.1330929 4.0860481 -0.35982129 0 0 0 0 32.88829
3.7032809 3.8367937 -0.44396159 0 0 0 0 32.893238
4.2720256 4.0211854 -0.12270145 0 0 0 0 32.898186
4.0881023 4.2339725 -0.36488059 0 0 0 0 32.908081
3.6512926 3.969722 -0.4460184 0 0 0 0 32.913025
4.0291181 4.3748927 -0.3689422 0 0 0 0 32.927868
3.5963078 4.1006508 -0.44707337 0 0 0 0 32.932816
4.241025 4.5929875 -0.27288514 0 0 0 0 32.942707
3.9581416 4.502809 -0.37100264 0 0 0 0 32.947655
3.558316 4.2585874 -0.45112649 0 0 0 0 32.952602
4.15307 4.4779544 -0.15086822 0 0 0 0 32.95755
4.3599639 4.9459782 -0.2919229 0 0 0 0 32.962498
3.7772171 4.5076828 -0.36407524 0 0 0 0 32.967445
3.5073321 4.40552 -0.45417967 0 0 0 0 32.972389
4.8057666 5.4221673 -0.18782862 0 0 0 0 32.977337
3.7862253 4.501688 -0.26404437 0 0 0 0 32.982285
3.8621712 4.8336639 -0.38311729 0 0 0 0 32.987232
3.4693418 4.5784583 -0.45923233 0 0 0 0 32.99218
3.8102312 4.4986992 -0.16100647 0 0 0 0 32.997124
4.0850816 5.0897512 -0.29706243 0 0 0 0 33.002071
3.776206 4.9605789 -0.38617676 0 0 0 0 33.007019
3.4133618 4.7343907 -0.46228549 0 0 0 0 33.011967
3.8312016 5.0035992 -0.29013559 0 0 0 0 33.021862
3.7042356 5.1095009 -0.39023337 0 0 0 0 33.026806
3.3363943 4.8653173 -0.46333811 0 0 0 0 33.031754
3.6322675 5.2634249 -0.39528856 0 0 0 0 33.046597
3.2734196 5.0262508 -0.46639055 0 0 0 0 33.051544
3.9891202 5.7415471 -0.33123085 0 0 0 0 33.061436
3.5812886 5.4603572 -0.40334374 0 0 0 0 33.066383
3.212445 5.1981859 -0.47044232 0 0 0 0 33.071331
3.6772771 5.5603862 -0.31929567 0 0 0 0 33.081223
3.4823365 5.588275 -0.40639782 0 0 0 0 33.08617
3.1304817 5.347116 -0.47249421 0 0 0 0 33.091118
3.6753194 5.500381 -0.2242467 0 0 0 0 33.096066
3.7792237 6.0173669 -0.34534898 0 0 0 0 33.101013
3.3933792 5.7421989 -0.41045189 0 0 0 0 33.105961
3.06651 5.5360527 -0.47754613 0 0 0 0 33.110905
3.9501865 6.2124171 -0.2592887 0 0 0 0 33.115852
3.6682823 6.1492786 -0.35240427 0 0 0 0 33.1208
3.300426 5.8981223 -0.41650525 0 0 0 0 33.125748
