# .PCD v0.7 - Point Cloud Data file format
VERSION 0.7
FIELDS x y z normal_x normal_y normal_z intensity curvature
SIZE 4 4 4 4 4 4 4 4
TYPE F F F F F F F F
COUNT 1 1 1 1 1 1 1 1
WIDTH 978
HEIGHT 1
VIEWPOINT 0 0 0 1 0 0 0
POINTS 978
DATA ascii
-0.37968114 -4.6940594 5.3381138 0 0 0 0 54.042084
-0.51785558 -4.597425 5.3252344 0 0 0 0 54.047028
0.015562449 -4.9138398 5.4144559 0 0 0 0 54.051971
-0.13657913 -4.8122849 5.3895049 0 0 0 0 54.056923
-0.27768517 -4.7277007 5.3656611 0 0 0 0 54.061867
-0.41980705 -4.6331277 5.3397737 0 0 0 0 54.066818
0.12451253 -4.9085107 5.4298773 0 0 0 0 54.071762
-0.030605471 -4.8219519 5.4079738 0 0 0 0 54.076706
-0.17466991 -4.7473946 5.3791575 0 0 0 0 54.081657
-0.32076952 -4.6688147 5.3573174 0 0 0 0 54.086601
0.23543844 -4.9071417 5.4543233 0 0 0 0 54.091553
0.07536716 -4.8296223 5.4254355 0 0 0 0 54.096497
-0.071672216 -4.7690639 5.3986621 0 0 0 0 54.101448
-0.2207551 -4.7104602 5.3848891 0 0 0 0 54.106392
0.34635812 -4.904768 5.4797654 0 0 0 0 54.111336
0.18232302 -4.8412619 5.4499178 0 0 0 0 54.116287
0.032315213 -4.7927151 5.4221802 0 0 0 0 54.121231
-0.11871903 -4.7391553 5.3984184 0 0 0 0 54.126183
0.45600113 -4.891757 5.4988112 0 0 0 0 54.925507
0.29099876 -4.8422723 5.4689832 0 0 0 0 54.93045
0.13901451 -4.8147187 5.4482942 0 0 0 0 54.935402
-0.014979792 -4.7702026 5.4195275 0 0 0 0 54.940346
0.56589729 -4.8893514 5.5292673 0 0 0 0 54.945297
0.3999272 -4.8548646 5.5004954 0 0 0 0 54.950241
0.24599555 -4.8283691 5.4668026 0 0 0 0 54.955185
0.089026332 -4.8038363 5.4441061 0 0 0 0 54.960136
0.67480725 -4.8720007 5.5466585 0 0 0 0 54.96508
0.50787336 -4.8525167 5.5179443 0 0 0 0 54.970032
0.35296977 -4.844007 5.4883204 0 0 0 0 54.974976
0.19504741 -4.8245134 5.4566402 0 0 0 0 54.979927
0.78369868 -4.8566241 5.5700593 0 0 0 0 54.984871
0.61580878 -4.8521514 5.5394015 0 0 0 0 54.989815
0.46094632 -4.8526626 5.5048146 0 0 0 0 54.994766
0.30304521 -4.8531408 5.4802151 0 0 0 0 54.99971
0.89258021 -4.8452272 5.5984764 0 0 0 0 55.004662
0.72472024 -4.8547502 5.5688753 0 0 0 0 55.009605
0.56990147 -4.8652825 5.5293293 0 0 0 0 55.014549
0.4120425 -4.8767767 5.5007749 0 0 0 0 55.019501
0.99946296 -4.8248591 5.6208496 0 0 0 0 55.024445
0.83265203 -4.8434081 5.5842896 0 0 0 0 55.029396
0.679856 -4.8729115 5.5508285 0 0 0 0 55.03434
0.52303201 -4.9003997 5.5233436 0 0 0 0 55.039284
1.1053561 -4.7945294 5.6341786 0 0 0 0 55.044235
0.94156462 -4.8370304 5.607728 0 0 0 0 55.049179
0.78980553 -4.8785396 5.57232 0 0 0 0 55.054131
0.63500297 -4.9259944 5.5519247 0 0 0 0 55.059074
1.2132078 -4.7791123 5.6675777 0 0 0 0 55.064026
1.051457 -4.833621 5.6381841 0 0 0 0 55.06897
0.90074331 -4.8841529 5.5968165 0 0 0 0 55.073914
0.74798739 -4.9396315 5.5694613 0 0 0 0 55.078865
1.3190718 -4.7497487 5.6889119 0 0 0 0 55.083809
1.159367 -4.8182654 5.6565838 0 0 0 0 55.08876
1.0146649 -4.8927326 5.6273375 0 0 0 0 55.093704
0.86295575 -4.9562387 5.5930195 0 0 0 0 55.098648
1.4239289 -4.7223749 5.7132511 0 0 0 0 55.1036
1.2692537 -4.8078666 5.6840119 0 0 0 0 55.108543
1.1256014 -4.8883691 5.6457949 0 0 0 0 55.113495
0.97594595 -4.9579115 5.6015086 0 0 0 0 55.118439
1.5297672 -4.6969728 5.7436032 0 0 0 0 55.12339
1.3781358 -4.7924786 5.7094164 0 0 0 0 55.128334
1.2385231 -4.8859797 5.6692681 0 0 0 0 55.133278
1.0998298 -5.0053258 5.6662307 0 0 0 0 55.138229
1.6316211 -4.6606259 5.7628946 0 0 0 0 55.143173
1.4840325 -4.767138 5.7247691 0 0 0 0 55.148125
1.352433 -4.8835745 5.6957464 0 0 0 0 55.153069
1.2148135 -4.9980092 5.6706929 0 0 0 0 55.158012
1.7304827 -4.6163144 5.7751417 0 0 0 0 55.162964
1.5929029 -4.7487445 5.7511625 0 0 0 0 55.167908
1.4663438 -4.875185 5.7182012 0 0 0 0 55.172859
1.3347477 -5.005589 5.6972361 0 0 0 0 55.177803
1.8342971 -4.5878992 5.8094754 0 0 0 0 55.182747
1.7007674 -4.726357 5.7765365 0 0 0 0 55.187698
1.5792513 -4.8608103 5.7376275 0 0 0 0 55.192642
1.4566793 -5.0121632 5.7237849 0 0 0 0 55.197594
1.9341278 -4.545547 5.8307352 0 0 0 0 55.202538
1.8066432 -4.6960068 5.7938695 0 0 0 0 55.207489
1.6941395 -4.851397 5.7650833 0 0 0 0 55.212433
1.5776083 -5.0097599 5.7452931 0 0 0 0 55.217377
2.0319595 -4.502203 5.8509841 0 0 0 0 55.222328
1.9164875 -4.6735921 5.8242526 0 0 0 0 55.227272
1.8070405 -4.8280377 5.7804737 0 0 0 0 55.232224
1.6985334 -5.0073519 5.7678022 0 0 0 0 55.237167
2.1277883 -4.4528766 5.8682003 0 0 0 0 55.242111
2.0223379 -4.6442122 5.8485909 0 0 0 0 55.247063
1.9229161 -4.8136201 5.8079138 0 0 0 0 55.252007
1.8234425 -5.0049162 5.7943277 0 0 0 0 55.256958
2.2226102 -4.4025474 5.8864093 0 0 0 0 55.261902
2.1251996 -4.6018839 5.8618646 0 0 0 0 55.266853
2.0407698 -4.803164 5.843379 0 0 0 0 55.271797
1.9503274 -5.0054426 5.8288741 0 0 0 0 55.276741
2.3164282 -4.3522158 5.9056149 0 0 0 0 55.281693
2.2300436 -4.5655174 5.8831711 0 0 0 0 55.286636
2.1556416 -4.7777729 5.8647714 0 0 0 0 55.291588
2.0742297 -4.9940252 5.8513603 0 0 0 0 55.296532
2.411227 -4.3038568 5.9308324 0 0 0 0 55.301476
2.3408496 -4.5390692 5.9205437 0 0 0 0 55.306427
2.2695072 -4.7483878 5.8851438 0 0 0 0 55.311371
2.204098 -4.9895377 5.8868999 0 0 0 0 55.316322
2.5070128 -4.2584734 5.9610662 0 0 0 0 55.321266
2.4436815 -4.4977064 5.9418225 0 0 0 0 55.32621
2.389339 -4.7309203 5.9215894 0 0 0 0 55.331161
2.3309774 -4.9721036 5.9113741 0 0 0 0 55.336105
2.6007972 -4.2061114 5.9872642 0 0 0 0 55.341057
2.5474968 -4.4563231 5.9671063 0 0 0 0 55.346001
2.5011978 -4.6925554 5.9379182 0 0 0 0 55.350952
2.4578514 -4.9526682 5.9358411 0 0 0 0 55.355896
2.690588 -4.1517711 6.0104384 0 0 0 0 55.36084
2.6453416 -4.4030175 5.9773169 0 0 0 0 55.365791
2.6180284 -4.662128 5.9662995 0 0 0 0 55.370735
2.5886986 -4.9351888 5.9683328 0 0 0 0 55.375687
2.7813642 -4.0964155 6.0366125 0 0 0 0 55.38063
2.7441649 -4.3506837 5.9935355 0 0 0 0 55.385574
2.7348516 -4.6286998 5.994669 0 0 0 0 55.390526
2.7155552 -4.9087524 5.9927721 0 0 0 0 55.39547
2.865979 -4.0324163 6.0521355 0 0 0 0 55.150337
2.846771 -4.3055882 6.0211978 0 0 0 0 55.155289
2.8524644 -4.5955501 6.0264277 0 0 0 0 55.160233
2.8402147 -4.8736472 6.0095387 0 0 0 0 55.165184
2.9557414 -3.9770491 6.0823045 0 0 0 0 55.170128
2.9505584 -4.2601867 6.0514636 0 0 0 0 55.175072
2.9642911 -4.5501699 6.0467257 0 0 0 0 55.180023
2.9690523 -4.8422003 6.0359621 0 0 0 0 55.184967
3.0425053 -3.917701 6.1094456 0 0 0 0 55.189919
3.050349 -4.2068191 6.0756812 0 0 0 0 55.194862
3.084079 -4.5147038 6.0830965 0 0 0 0 55.199806
3.0948923 -4.803781 6.0573449 0 0 0 0 55.204758
3.1123402 -3.8365264 6.1044297 0 0 0 0 55.209702
3.1630793 -4.170311 6.1260195 0 0 0 0 55.214653
3.1958942 -4.4633265 6.1023707 0 0 0 0 55.219597
3.2296925 -4.7732773 6.0937972 0 0 0 0 55.224548
3.2080441 -3.7880642 6.1536517 0 0 0 0 55.229492
3.3116798 -4.4158978 6.1316781 0 0 0 0 55.239388
3.3664744 -4.7417507 6.1342535 0 0 0 0 55.244331
3.2957728 -3.727679 6.1887927 0 0 0 0 55.249283
3.4254589 -4.3644767 6.1599607 0 0 0 0 55.259171
3.4962752 -4.6972947 6.1616292 0 0 0 0 55.264122
3.5332572 -4.3051119 6.1781874 0 0 0 0 55.278961
3.6250682 -4.6498399 6.1889892 0 0 0 0 55.283905
3.639051 -4.2407594 6.194386 0 0 0 0 55.298752
3.7558441 -4.600368 6.2193494 0 0 0 0 55.303696
3.4991672 -3.4870455 6.202734 0 0 0 0 55.308647
3.6329634 -3.8496077 6.2287765 0 0 0 0 55.313591
3.7557943 -4.1863008 6.2296691 0 0 0 0 55.318535
3.8856111 -4.5459013 6.2486854 0 0 0 0 55.323486
3.5759077 -3.4177229 6.2287951 0 0 0 0 55.32843
3.7346799 -3.7911687 6.267983 0 0 0 0 55.333382
3.8675435 -4.1248784 6.258904 0 0 0 0 55.338326
4.0143704 -4.4884367 6.2780056 0 0 0 0 55.343269
3.6446755 -3.3404696 6.2427912 0 0 0 0 55.348221
3.8353927 -3.7297356 6.3061728 0 0 0 0 55.353165
3.9762931 -4.0574799 6.2841029 0 0 0 0 55.358116
4.1481042 -4.4319296 6.3143501 0 0 0 0 55.36306
3.7174051 -3.2671559 6.2688198 0 0 0 0 55.368004
4.0870237 -3.9920502 6.3153176 0 0 0 0 55.377899
4.2738538 -4.3644872 6.3396177 0 0 0 0 55.382851
3.7891359 -3.1928482 6.2938404 0 0 0 0 55.387794
3.7449505 -3.3414867 5.9262915 0 0 0 0 55.392746
3.6278133 -3.387624 5.4820261 0 0 0 0 55.39769
4.4095588 -4.3029571 6.37995 0 0 0 0 55.402634
3.8469198 -3.1066625 6.2977562 0 0 0 0 55.407585
4.0557837 -3.4671118 6.3060946 0 0 0 0 55.412529
4.2815509 -3.8294103 6.3405094 0 0 0 0 55.41748
4.5721598 -4.2651877 6.4614887 0 0 0 0 55.422424
3.9136515 -3.028379 6.3197403 0 0 0 0 55.427368
4.1484861 -3.3957133 6.3402123 0 0 0 0 55.43232
4.4211445 -3.7827148 6.4179182 0 0 0 0 55.437263
4.7028561 -4.1926899 6.4967566 0 0 0 0 55.442215
3.9475255 -2.9263899 6.2904944 0 0 0 0 55.447159
4.2312126 -3.3153892 6.3622532 0 0 0 0 55.45211
4.5308366 -3.7072728 6.4520884 0 0 0 0 55.457054
4.7797122 -4.0716209 6.460608 0 0 0 0 55.461998
3.9754081 -2.8214328 6.2572122 0 0 0 0 55.466949
4.3288713 -3.2459269 6.4083991 0 0 0 0 55.471893
4.287775 -3.3527606 5.9936886 0 0 0 0 55.476845
4.9103789 -3.9941044 6.4998555 0 0 0 0 55.481789
4.0281744 -2.7352421 6.2651072 0 0 0 0 55.486732
4.3986287 -3.1527009 6.4143343 0 0 0 0 55.491684
4.6684718 -3.4890342 6.4138227 0 0 0 0 55.496628
5.0320635 -3.9076517 6.5290298 0 0 0 0 55.501579
4.0859094 -2.6539927 6.2840419 0 0 0 0 55.506523
4.470365 -3.0624402 6.42729 0 0 0 0 55.511467
4.784101 -3.4145083 6.4640212 0 0 0 0 55.516418
5.1397734 -3.8062999 6.5420866 0 0 0 0 55.521362
4.1446276 -2.5727232 6.3069806 0 0 0 0 55.526314
4.5411024 -2.9711862 6.4392376 0 0 0 0 55.531258
4.8977275 -3.3339996 6.5111866 0 0 0 0 55.536209
5.290339 -3.7366054 6.6114473 0 0 0 0 55.541153
4.193387 -2.4855371 6.3158545 0 0 0 0 55.546097
4.5739727 -2.8552318 6.4019294 0 0 0 0 55.551048
5.004364 -3.2485325 6.5523033 0 0 0 0 55.555992
5.4189534 -3.6450737 6.6546288 0 0 0 0 55.560944
4.2411346 -2.3973451 6.3267202 0 0 0 0 55.565887
4.6247597 -2.752111 6.3937469 0 0 0 0 55.570831
5.1000271 -3.1531467 6.5803351 0 0 0 0 55.575783
5.499712 -3.520901 6.6404824 0 0 0 0 55.580727
4.2968411 -2.3150737 6.3516426 0 0 0 0 55.585678
4.6884861 -2.6568735 6.4056487 0 0 0 0 55.590622
5.1608028 -3.0360246 6.5661359 0 0 0 0 55.595566
5.6113505 -3.4154737 6.6685386 0 0 0 0 55.600517
4.3376107 -2.2229321 6.3544626 0 0 0 0 55.605461
4.7561865 -2.5625958 6.4245701 0 0 0 0 55.610413
5.2554412 -2.9376235 6.5981507 0 0 0 0 55.615356
5.7169905 -3.303082 6.6915412 0 0 0 0 55.620308
4.3872094 -2.1370449 6.3747754 0 0 0 0 55.376839
4.8197751 -2.4667079 6.4398646 0 0 0 0 55.38179
5.2861743 -2.8050869 6.5531254 0 0 0 0 55.386734
5.8294687 -3.1940324 6.7249017 0 0 0 0 55.391678
4.4309478 -2.0478549 6.3876219 0 0 0 0 55.396629
4.886456 -2.3714142 6.4637785 0 0 0 0 55.401573
5.3479075 -2.6879168 6.549931 0 0 0 0 55.406525
5.9291091 -3.0756705 6.7448559 0 0 0 0 55.411469
4.4786553 -1.9606169 6.409492 0 0 0 0 55.416412
4.9411769 -2.2702081 6.4736209 0 0 0 0 55.421364
5.4255753 -2.5796149 6.5688372 0 0 0 0 55.426308
6.0416856 -2.9621964 6.7838821 0 0 0 0 55.431259
4.515408 -1.8694645 6.4173017 0 0 0 0 55.436203
5.0088382 -2.1738944 6.501534 0 0 0 0 55.441147
5.4992409 -2.4673307 6.5857105 0 0 0 0 55.446098
6.0675225 -2.8043306 6.7283783 0 0 0 0 55.451042
4.5531459 -1.7772969 6.4281111 0 0 0 0 55.455994
5.0605488 -2.0706906 6.5123553 0 0 0 0 55.460938
5.578867 -2.3569856 6.613615 0 0 0 0 55.465889
6.1222563 -2.6622424 6.7090545 0 0 0 0 55.470833
4.5938606 -1.6870923 6.4459395 0 0 0 0 55.475777
5.1152353 -1.9674543 6.5291877 0 0 0 0 55.480728
5.6435351 -2.2397397 6.626431 0 0 0 0 55.485672
6.225811 -2.5407894 6.7480106 0 0 0 0 55.490623
4.6275988 -1.5939385 6.4557281 0 0 0 0 55.495567
5.1679149 -1.8632184 6.5470076 0 0 0 0 55.500511
5.7161636 -2.1244276 6.6502862 0 0 0 0 55.505463
6.3084188 -2.4074762 6.7658329 0 0 0 0 55.510406
4.6623249 -1.5007691 6.4685197 0 0 0 0 55.515358
5.2255688 -1.7599403 6.5718513 0 0 0 0 55.520302
5.7927613 -2.0080757 6.6811533 0 0 0 0 55.525253
6.3870173 -2.2721682 6.7846313 0 0 0 0 55.530197
4.6940584 -1.4076155 6.4792995 0 0 0 0 55.535141
5.2622976 -1.6488147 6.572578 0 0 0 0 55.540092
5.8573885 -1.8877951 6.7019558 0 0 0 0 55.545036
6.4676008 -2.1358421 6.8064332 0 0 0 0 55.549988
4.7257838 -1.3144532 6.4920783 0 0 0 0 55.554932
5.309968 -1.5415903 6.5903645 0 0 0 0 55.559875
5.912034 -1.7625726 6.7146969 0 0 0 0 55.564827
6.5471649 -1.9985012 6.8322258 0 0 0 0 55.569771
4.7545142 -1.2203068 6.502841 0 0 0 0 55.574722
5.3596144 -1.4343354 6.6141582 0 0 0 0 55.579666
5.9716501 -1.6383039 6.7354622 0 0 0 0 55.58461
6.6217279 -1.8561848 6.8549771 0 0 0 0 55.589561
4.7832294 -1.1251473 6.5165987 0 0 0 0 55.594505
5.3913283 -1.3212134 6.6168551 0 0 0 0 55.599457
6.0262699 -1.5110596 6.7531939 0 0 0 0 55.604401
6.7022533 -1.7148112 6.8877559 0 0 0 0 55.609352
4.8000031 -1.028085 6.5143003 0 0 0 0 55.614296
5.4349794 -1.2099895 6.6366072 0 0 0 0 55.61924
6.0719056 -1.380863 6.7648768 0 0 0 0 55.624191
6.7528601 -1.5636256 6.8933735 0 0 0 0 55.629135
4.8306971 -0.9328993 6.5330648 0 0 0 0 55.634087
5.4736395 -1.0977906 6.6533351 0 0 0 0 55.63903
6.1205187 -1.2516333 6.7825756 0 0 0 0 55.643974
6.821393 -1.4163061 6.9200783 0 0 0 0 55.648926
4.8524208 -0.83676946 6.5437894 0 0 0 0 55.65387
5.502326 -0.98365015 6.662014 0 0 0 0 55.658821
6.1711068 -1.1203771 6.8052726 0 0 0 0 55.663765
6.8749547 -1.2650661 6.9367065 0 0 0 0 55.668709
4.8751354 -0.7406286 6.5565171 0 0 0 0 55.67366
5.533 -0.86949182 6.6737003 0 0 0 0 55.678604
6.2137094 -0.9871617 6.8229289 0 0 0 0 55.683556
6.9374681 -1.1137525 6.9653692 0 0 0 0 55.688499
4.8948617 -0.64450765 6.5662322 0 0 0 0 55.693451
5.568635 -0.75428277 6.6944013 0 0 0 0 55.698395
6.2582941 -0.85392416 6.8445926 0 0 0 0 55.703339
6.9879994 -0.95750219 6.9859624 0 0 0 0 55.70829
4.913579 -0.54638487 6.5769343 0 0 0 0 55.713234
5.5913148 -0.63815677 6.7030458 0 0 0 0 55.718185
6.290904 -0.71775013 6.8581958 0 0 0 0 55.723129
7.032536 -0.80027515 7.0045266 0 0 0 0 55.728073
4.9243279 -0.44831583 6.5796041 0 0 0 0 55.733025
5.6139879 -0.52102637 6.7126861 0 0 0 0 55.737968
6.3165278 -0.57961464 6.8667612 0 0 0 0 55.74292
7.0710793 -0.64107561 7.0200582 0 0 0 0 55.747864
4.9420357 -0.35018685 6.5923014 0 0 0 0 55.752815
5.6306691 -0.40292361 6.7192969 0 0 0 0 55.757759
6.3461194 -0.44143507 6.8833413 0 0 0 0 55.762703
7.1066113 -0.48087481 7.0375714 0 0 0 0 55.767654
4.9497809 -0.25112519 6.5949535 0 0 0 0 55.772598
5.6354003 -0.28390592 6.7128549 0 0 0 0 55.77755
6.3508039 -0.30241981 6.8758173 0 0 0 0 55.782494
7.1371408 -0.3186906 7.0540562 0 0 0 0 55.787437
4.9625006 -0.15302122 6.6046295 0 0 0 0 55.792389
5.6669865 -0.16466774 6.7425199 0 0 0 0 55.797333
6.3714051 -0.16227953 6.8883514 0 0 0 0 55.802284
7.143755 -0.15665561 7.0494442 0 0 0 0 55.807228
4.9702287 -0.053942461 6.6112804 0 0 0 0 55.812172
5.8896551 -0.047969654 7.0029664 0 0 0 0 55.817123
6.6269813 -0.023458062 7.1578393 0 0 0 0 55.822067
7.4391966 0.0083410535 7.3359847 0 0 0 0 55.827019
4.9759631 0.044127125 6.6169267 0 0 0 0 55.831963
5.8953352 0.076090217 7.0055056 0 0 0 0 55.836914
6.6475353 0.12171794 7.1783514 0 0 0 0 55.841858
7.4497418 0.17743868 7.3433571 0 0 0 0 55.846802
4.9796739 0.14398916 6.6213002 0 0 0 0 55.721962
5.8979983 0.19992667 7.0087547 0 0 0 0 55.726913
6.6531267 0.26956633 7.1854973 0 0 0 0 55.731857
7.4582682 0.34829438 7.3534017 0 0 0 0 55.736809
4.996336 0.24415813 6.6439824 0 0 0 0 55.741753
5.8986721 0.32497817 7.0122709 0 0 0 0 55.746696
6.6607065 0.41767544 7.1979456 0 0 0 0 55.751648
7.4687643 0.52143419 7.3707585 0 0 0 0 55.756592
4.9901013 0.34415951 6.640573 0 0 0 0 55.761543
5.8963461 0.45002213 7.0157738 0 0 0 0 55.766487
6.6662803 0.5647881 7.2123895 0 0 0 0 55.771431
7.4623175 0.69247639 7.3750548 0 0 0 0 55.776382
4.990828 0.44521654 6.6461864 0 0 0 0 55.781326
5.8989844 0.57611263 7.0272918 0 0 0 0 55.786278
6.6499405 0.71075654 7.2057486 0 0 0 0 55.791222
7.4478822 0.86348575 7.3763185 0 0 0 0 55.796173
4.995522 0.54631764 6.6598148 0 0 0 0 55.801117
5.8956451 0.70116687 7.0337887 0 0 0 0 55.806061
6.6455221 0.85883147 7.2171459 0 0 0 0 55.811012
7.4334321 1.033512 7.3815837 0 0 0 0 55.815956
4.9972234 0.64740276 6.6714306 0 0 0 0 55.820908
5.895268 0.82826263 7.0482888 0 0 0 0 55.825851
6.6331234 1.006865 7.2235103 0 0 0 0 55.830795
7.4139829 1.2045214 7.3858242 0 0 0 0 55.835747
4.9949327 0.74846941 6.6810293 0 0 0 0 55.840691
5.8948817 0.95536709 7.0647869 0 0 0 0 55.845642
6.61972 1.1549003 7.2308688 0 0 0 0 55.850586
7.393517 1.3755453 7.3940597 0 0 0 0 55.85553
4.9816937 0.84945315 6.6775837 0 0 0 0 55.860481
5.8745837 1.079336 7.0612178 0 0 0 0 55.865425
6.5913682 1.2998511 7.22718 0 0 0 0 55.870377
7.3700442 1.5475657 7.4032764 0 0 0 0 55.87532
4.9773993 0.95151484 6.6871686 0 0 0 0 55.880272
5.8522863 1.2042958 7.0566349 0 0 0 0 55.885216
6.5769358 1.4479135 7.2415323 0 0 0 0 55.89016
7.3256474 1.7144651 7.3964291 0 0 0 0 55.895111
4.9621558 1.0524976 6.6847134 0 0 0 0 55.900055
5.8438921 1.3323842 7.0740943 0 0 0 0 55.905006
6.5376053 1.591815 7.2328005 0 0 0 0 55.90995
7.2951765 1.8834721 7.4066281 0 0 0 0 55.914894
4.9459119 1.1534778 6.6822529 0 0 0 0 55.919846
5.8146071 1.4553174 7.0674896 0 0 0 0 55.924789
6.5092154 1.7368037 7.2381072 0 0 0 0 55.929741
7.2417965 2.0463395 7.397759 0 0 0 0 55.934685
4.9386015 1.2565447 6.6948195 0 0 0 0 55.939636
5.7803359 1.5772251 7.057868 0 0 0 0 55.94458
6.4718475 1.8807482 7.2383804 0 0 0 0 55.949524
7.1903791 2.2112463 7.3968873 0 0 0 0 55.954475
4.9173627 1.3565079 6.6913414 0 0 0 0 55.959419
5.7649431 1.704296 7.0752997 0 0 0 0 55.964371
6.4265041 2.022651 7.2336287 0 0 0 0 55.969315
7.1319909 2.3721135 7.3910031 0 0 0 0 55.974258
4.9010868 1.4585178 6.6958742 0 0 0 0 55.97921
5.7276587 1.8262085 7.0686641 0 0 0 0 55.984154
6.3801551 2.1635594 7.2308764 0 0 0 0 55.989105
7.0705943 2.5329816 7.387105 0 0 0 0 55.994049
4.8788371 1.5594867 6.694386 0 0 0 0 55.998993
5.6754518 1.9430144 7.0459881 0 0 0 0 56.003944
6.3367743 2.3055053 7.2351298 0 0 0 0 56.008888
6.9962459 2.6887779 7.3741751 0 0 0 0 56.01384
4.8545866 1.6604506 6.6928892 0 0 0 0 56.018784
5.6172686 2.0567875 7.0192995 0 0 0 0 56.023735
6.2724919 2.4403121 7.2193274 0 0 0 0 56.028679
6.9238753 2.8436046 7.3672552 0 0 0 0 56.033623
4.830328 1.7614229 6.6933913 0 0 0 0 56.038574
5.5044107 2.1491334 6.9254785 0 0 0 0 56.043518
6.2091956 2.5741384 7.2075324 0 0 0 0 56.04847
6.8435321 2.995389 7.3553138 0 0 0 0 56.053413
4.8030729 1.8623831 6.6928802 0 0 0 0 56.058357
5.4273362 2.2517717 6.878758 0 0 0 0 56.063309
6.155827 2.7120538 7.2107582 0 0 0 0 56.068253
6.7731199 3.1502628 7.3583989 0 0 0 0 56.073204
4.7758026 1.9643561 6.695364 0 0 0 0 56.078148
5.3462753 2.3523901 6.830029 0 0 0 0 56.083092
6.0865378 2.8428643 7.1989489 0 0 0 0 56.088043
6.6877761 3.2970469 7.3494554 0 0 0 0 56.092987
4.7445507 2.0653017 6.6938348 0 0 0 0 56.097939
5.27912 2.4581296 6.801333 0 0 0 0 56.102882
6.0192137 2.9757092 7.1941371 0 0 0 0 56.107834
6.5924745 3.4397707 7.3324876 0 0 0 0 56.112778
4.7172675 2.1672873 6.6993165 0 0 0 0 56.117722
5.2179146 2.5659313 6.7836514 0 0 0 0 56.122673
5.9419413 3.1024899 7.1803093 0 0 0 0 56.127617
6.4981441 3.5825267 7.3225217 0 0 0 0 56.132568
4.6740746 2.2641504 6.6857543 0 0 0 0 56.137512
5.1725965 2.680872 6.7890034 0 0 0 0 56.142456
5.8636651 3.2272761 7.1684842 0 0 0 0 56.147408
6.4018292 3.7202728 7.3115673 0 0 0 0 56.152351
4.6398096 2.3651009 6.6872101 0 0 0 0 56.157303
5.1173267 2.7927442 6.7843261 0 0 0 0 56.162247
5.7843833 3.3510678 7.158658 0 0 0 0 56.167198
6.283627 3.845876 7.2805743 0 0 0 0 56.172142
4.6035438 2.4660459 6.6886568 0 0 0 0 56.177086
5.0630426 2.9036357 6.7836561 0 0 0 0 56.182037
5.7031035 3.4738543 7.1488271 0 0 0 0 56.186981
6.060102 3.9006822 7.1274519 0 0 0 0 56.191933
4.5612588 2.5656443 6.6857567 0 0 0 0 56.658836
4.9987388 3.0101776 6.7736359 0 0 0 0 56.663788
5.6216741 3.5974386 7.1436658 0 0 0 0 56.668732
5.8543391 3.960407 6.9970441 0 0 0 0 56.673683
4.5170202 2.6635404 6.68117 0 0 0 0 56.678627
4.9374599 3.120039 6.7709246 0 0 0 0 56.683571
5.4559584 3.6625533 7.0327134 0 0 0 0 56.688522
5.7530313 4.0851536 6.9910994 0 0 0 0 56.693466
4.4697967 2.7604148 6.673574 0 0 0 0 56.698418
4.8682365 3.2228396 6.7592101 0 0 0 0 56.703362
5.2525272 3.6973519 6.8727341 0 0 0 0 56.708313
5.6378059 4.1988053 6.9721432 0 0 0 0 56.713257
4.4205642 2.8572929 6.6679683 0 0 0 0 56.718201
4.7999926 3.3266602 6.7514939 0 0 0 0 56.723152
5.1523552 3.7990193 6.8488932 0 0 0 0 56.728096
5.5186009 4.309433 6.9501824 0 0 0 0 56.733047
4.3703384 2.9531636 6.6613617 0 0 0 0 56.737991
4.7267737 3.4274497 6.739769 0 0 0 0 56.742935
5.0531726 3.8997021 6.8280592 0 0 0 0 56.747887
5.4112978 4.427175 6.9472389 0 0 0 0 56.752831
4.3230639 3.0530815 6.6637487 0 0 0 0 56.757782
4.6485815 3.5242081 6.72404 0 0 0 0 56.762726
4.9658828 4.0095038 6.8272338 0 0 0 0 56.767677
5.2791686 4.5227275 6.9162869 0 0 0 0 56.772621
4.2598987 3.1428692 6.6461134 0 0 0 0 56.777565
4.5763187 3.627039 6.7213073 0 0 0 0 56.782516
4.8706412 4.1132488 6.8183999 0 0 0 0 56.78746
5.1470499 4.6142793 6.8853512 0 0 0 0 56.792412
4.2096267 3.2417789 6.64849 0 0 0 0 56.797356
4.4990902 3.7248347 6.7135749 0 0 0 0 56.802299
4.763483 4.2059054 6.7965636 0 0 0 0 56.807251
5.0238428 4.7139254 6.8704152 0 0 0 0 56.812195
4.1474328 3.3325949 6.6368518 0 0 0 0 56.817146
4.4099498 3.8125319 6.690836 0 0 0 0 56.82209
4.6602902 4.300602 6.781734 0 0 0 0 56.827034
4.8936858 4.805521 6.8484845 0 0 0 0 56.831985
4.0872064 3.4264426 6.6312065 0 0 0 0 56.836929
4.3307171 3.9083304 6.6851015 0 0 0 0 56.841881
4.5551019 4.3932929 6.7669029 0 0 0 0 56.846825
4.7575822 4.8880692 6.8195672 0 0 0 0 56.851776
4.0249848 3.5182846 6.6255612 0 0 0 0 56.85672
4.2435308 3.9990721 6.6713548 0 0 0 0 56.861664
4.4399881 4.4749084 6.7410774 0 0 0 0 56.866615
4.6293983 4.9767041 6.8056545 0 0 0 0 56.871559
3.9558043 3.6070724 6.6118989 0 0 0 0 56.876511
4.1523767 4.0837846 6.6536169 0 0 0 0 56.881454
4.3288331 4.5595689 6.7232542 0 0 0 0 56.886398
4.497252 5.0593057 6.7867508 0 0 0 0 56.89135
3.8866136 3.6948733 6.6012397 0 0 0 0 56.896294
4.0671425 4.1765747 6.6498666 0 0 0 0 56.901245
4.2147036 4.6392083 6.7024388 0 0 0 0 56.906189
4.3542032 5.1268163 6.7538657 0 0 0 0 56.911133
3.8193827 3.78671 6.5975695 0 0 0 0 56.916084
3.9749737 4.2603021 6.636126 0 0 0 0 56.921028
4.1005712 4.716856 6.6836319 0 0 0 0 56.92598
4.2151227 5.1953669 6.7279921 0 0 0 0 56.930923
3.7422433 3.8674536 6.5789056 0 0 0 0 56.935875
3.873883 4.3349476 6.6093869 0 0 0 0 56.940819
3.9824607 4.7904787 6.6618233 0 0 0 0 56.945763
4.0770273 5.2629375 6.7061248 0 0 0 0 56.950714
3.6680462 3.9542491 6.5702267 0 0 0 0 56.955658
3.7797062 4.4166813 6.5986443 0 0 0 0 56.960609
3.8692911 4.869163 6.6510129 0 0 0 0 56.965553
3.9250779 5.3103728 6.6622872 0 0 0 0 56.970497
3.5898759 4.0370154 6.5575471 0 0 0 0 56.975449
3.6766107 4.4883337 6.5749073 0 0 0 0 56.980392
3.7481992 4.9357767 6.629221 0 0 0 0 56.985344
3.7899582 5.3759809 6.647439 0 0 0 0 56.990288
3.5106969 4.1197882 6.5468626 0 0 0 0 56.995239
3.5784512 4.565052 6.563168 0 0 0 0 57.000183
3.6261194 4.999383 6.6064363 0 0 0 0 57.005127
3.6479099 5.4305253 6.6226087 0 0 0 0 57.010078
3.425576 4.1965003 6.5261784 0 0 0 0 57.015022
3.477298 4.6407571 6.5504189 0 0 0 0 57.019974
3.5000861 5.0549512 6.5776701 0 0 0 0 57.024918
3.500942 5.4720068 6.5868144 0 0 0 0 57.029861
3.3463686 4.2802987 6.5214863 0 0 0 0 57.034813
3.3692274 4.7043896 6.5256925 0 0 0 0 57.039757
3.3730602 5.1075158 6.5489111 0 0 0 0 57.044708
3.352978 5.5104895 6.5520282 0 0 0 0 57.049652
3.2572534 4.3530035 6.5018005 0 0 0 0 57.054596
3.2621436 4.7680383 6.5039697 0 0 0 0 57.059547
3.247997 5.1631169 6.5271463 0 0 0 0 57.064491
3.2070026 5.5469942 6.5212579 0 0 0 0 57.069443
3.162195 4.4186516 6.4731197 0 0 0 0 57.074387
3.1540542 4.8306918 6.4842453 0 0 0 0 57.079338
3.1199803 5.2106819 6.4994035 0 0 0 0 57.084282
3.0681014 4.4863329 6.4514332 0 0 0 0 57.094177
3.0429881 4.8893237 6.4615254 0 0 0 0 57.099121
2.9860446 5.2451811 6.4606919 0 0 0 0 57.104073
2.9779422 4.5610733 6.4407306 0 0 0 0 57.11396
2.9309292 4.944953 6.4388127 0 0 0 0 57.118912
2.8728209 5.3149414 6.4679103 0 0 0 0 57.123856
2.9046173 4.662672 6.4707565 0 0 0 0 56.843842
2.8958495 5.1372123 6.5946212 0 0 0 0 56.848785
2.8305981 5.5262938 6.6486254 0 0 0 0 56.853737
2.8952677 4.878499 6.6557779 0 0 0 0 56.863625
2.7935846 5.2170219 6.6058502 0 0 0 0 56.868576
2.7104104 5.5890212 6.6518521 0 0 0 0 56.87352
2.793159 4.9451799 6.6380658 0 0 0 0 56.883415
2.6903064 5.2968421 6.6200733 0 0 0 0 56.888359
2.5685399 5.6074772 6.607183 0 0 0 0 56.893311
2.6930032 5.0169015 6.6283379 0 0 0 0 56.903206
2.5702679 5.3444533 6.5973668 0 0 0 0 56.90815
2.4345527 5.640038 6.5814829 0 0 0 0 56.913101
2.5800037 5.0674815 6.5946484 0 0 0 0 56.922989
2.4511988 5.3940926 6.5806541 0 0 0 0 56.92794
2.2996035 5.664577 6.5518126 0 0 0 0 56.932884
2.4778471 5.1362057 6.5869231 0 0 0 0 56.94278
2.3252475 5.4276333 6.5459828 0 0 0 0 56.947723
2.1685648 5.6991935 6.5371137 0 0 0 0 56.952675
1.69847 5.059484 5.5349593 0 0 0 0 56.957619
2.3697383 5.1978822 6.5722032 0 0 0 0 56.96257
2.2051914 5.4722691 6.5292864 0 0 0 0 56.967514
2.0306947 5.7096786 6.4974918 0 0 0 0 56.972458
1.5755486 5.0640807 5.5124273 0 0 0 0 56.977409
2.2557282 5.2444806 6.5435233 0 0 0 0 56.982353
2.0801954 5.506856 6.504612 0 0 0 0 56.987305
1.8889291 5.7030907 6.4439282 0 0 0 0 56.992249
1.7149446 5.9958634 6.492888 0 0 0 0 56.9972
2.1446297 5.3021479 6.5288062 0 0 0 0 57.002144
1.9552158 5.5384321 6.4779501 0 0 0 0 57.007088
1.7618439 5.7377648 6.4402428 0 0 0 0 57.012039
1.5720371 5.9964008 6.4682851 0 0 0 0 57.016983
2.0207884 5.3246069 6.4751897 0 0 0 0 57.021935
1.8331602 5.578074 6.4642639 0 0 0 0 57.026878
1.9145308 5.3994069 6.4874144 0 0 0 0 57.041718
1.7042444 5.5966077 6.4306412 0 0 0 0 57.046669
1.7867553 5.4098182 6.4258327 0 0 0 0 57.061508
0.96829772 5.0089159 5.3651352 0 0 0 0 57.076347
1.6745808 5.470552 6.4270926 0 0 0 0 57.081299
1.5506874 5.4920664 6.3864765 0 0 0 0 57.101082
1.3253583 5.6603508 6.3577647 0 0 0 0 57.106033
1.4326035 5.5377297 6.3757753 0 0 0 0 57.120872
1.1896987 5.6367116 6.290297 0 0 0 0 57.125816
1.3125383 5.5793781 6.3630834 0 0 0 0 57.140663
1.0675899 5.6724162 6.2916222 0 0 0 0 57.145607
1.1847329 5.5838346 6.3125238 0 0 0 0 57.160446
0.93969244 5.6779666 6.2620554 0 0 0 0 57.165398
1.064638 5.6255131 6.306829 0 0 0 0 57.180237
0.93776172 5.6360292 6.2692437 0 0 0 0 57.20002
0.811827 5.6525917 6.2416348 0 0 0 0 57.21981
-0.28686368 5.5406389 5.996438 0 0 0 0 57.294014
-0.40562266 5.4932113 5.968142 0 0 0 0 57.313805
-0.52132708 5.4446025 5.9428658 0 0 0 0 57.087601
-0.41559935 5.5060077 5.9680409 0 0 0 0 57.10244
-0.63713402 5.4002266 5.9235716 0 0 0 0 57.107384
-0.27511284 4.918282 5.2782612 0 0 0 0 57.117279
-0.53445709 5.477632 5.9506621 0 0 0 0 57.122223
-0.74783885 5.3398008 5.8903704 0 0 0 0 57.127174
-0.43976155 5.563972 5.9676781 0 0 0 0 57.13707
-0.65019625 5.4301925 5.9173808 0 0 0 0 57.142014
-0.85757935 5.2834029 5.8631544 0 0 0 0 57.146965
-0.56054884 5.531528 5.9363079 0 0 0 0 57.156853
-0.76701945 5.3938079 5.8970451 0 0 0 0 57.161804
-0.96738064 5.2340503 5.8459067 0 0 0 0 57.166748
-0.6061728 4.9204974 5.2888465 0 0 0 0 57.176643
-0.87977231 5.3453932 5.8677797 0 0 0 0 57.181587
-1.0720959 5.1716557 5.8167386 0 0 0 0 57.186539
-0.58679622 5.626472 5.9327674 0 0 0 0 57.191483
-0.80425334 5.480731 5.895493 0 0 0 0 57.196434
-0.99257904 5.3030176 5.847487 0 0 0 0 57.201378
-1.177886 5.1183124 5.7995253 0 0 0 0 57.206322
-0.7157883 5.6281261 5.9282079 0 0 0 0 57.211273
-0.92307824 5.4483304 5.8731294 0 0 0 0 57.216217
-1.1022885 5.2465873 5.8132701 0 0 0 0 57.221169
-1.2806675 5.0619764 5.7823377 0 0 0 0 57.226112
-0.83634841 5.5665226 5.8619666 0 0 0 0 57.231064
-1.0387893 5.3988657 5.8348546 0 0 0 0 57.236008
-1.2141505 5.2092581 5.802958 0 0 0 0 57.240952
-1.3783365 4.9905763 5.748239 0 0 0 0 57.245903
-0.96634924 5.5651913 5.861414 0 0 0 0 57.250847
-1.1586876 5.3735199 5.8254538 0 0 0 0 57.255798
-1.3208781 5.1518564 5.7737575 0 0 0 0 57.260742
-1.4760913 4.9292393 5.7280951 0 0 0 0 57.265686
-1.0921783 5.5377617 5.8369966 0 0 0 0 57.270638
-1.2734349 5.3250923 5.7951775 0 0 0 0 57.275581
-1.4245956 5.0924578 5.7435784 0 0 0 0 57.280533
-1.5728309 4.8638992 5.7069731 0 0 0 0 57.285477
-1.2169923 5.5063295 5.8115997 0 0 0 0 57.290428
-1.3851261 5.2686357 5.7569509 0 0 0 0 57.295372
-1.5304035 5.0431209 5.7283444 0 0 0 0 57.300316
-1.6675979 4.8025823 5.6898413 0 0 0 0 57.305267
-1.3407909 5.4708953 5.7852254 0 0 0 0 57.310211
-1.5019886 5.2332873 5.7456059 0 0 0 0 57.315163
-1.635178 4.9877682 5.7091422 0 0 0 0 57.320107
-1.7552533 4.7252116 5.6568122 0 0 0 0 57.32505
-1.4635813 5.4324627 5.7588677 0 0 0 0 57.330002
-1.6127204 5.1778731 5.7163773 0 0 0 0 57.334946
-1.7338825 4.9223857 5.6800108 0 0 0 0 57.339897
-1.8082638 4.5634885 5.5263114 0 0 0 0 57.344841
-1.5863817 5.393043 5.7355146 0 0 0 0 57.349785
-1.7204422 5.1204619 5.6861701 0 0 0 0 57.354736
-1.829559 4.8529925 5.6469102 0 0 0 0 57.35968
-1.8613981 4.4198465 5.4137301 0 0 0 0 57.364632
-1.7050996 5.3405838 5.7012367 0 0 0 0 57.369576
-1.8322572 5.0741067 5.6708956 0 0 0 0 57.374527
-1.8569781 4.6179199 5.4248505 0 0 0 0 57.379471
-1.9410709 4.3435125 5.3847313 0 0 0 0 57.384415
-1.827932 5.3021941 5.6848774 0 0 0 0 57.389366
-1.8655766 4.8259492 5.4338694 0 0 0 0 57.39431
-1.9487296 4.5565944 5.4047313 0 0 0 0 57.399261
-2.0258944 4.2852736 5.3796282 0 0 0 0 57.404205
-1.8702019 5.0469809 5.4408441 0 0 0 0 57.409149
-1.9652843 4.7625618 5.4047232 0 0 0 0 57.414101
-2.042526 4.4992995 5.3925843 0 0 0 0 57.419044
-2.1056507 4.2180023 5.3645883 0 0 0 0 57.423996
-1.9860191 5.0036082 5.4245372 0 0 0 0 57.42894
-2.0711317 4.7162566 5.3974738 0 0 0 0 57.433891
-2.1271949 4.424942 5.3615537 0 0 0 0 57.438835
-2.1803463 4.1427035 5.3406057 0 0 0 0 57.443779
-2.1028605 4.9612556 5.4132218 0 0 0 0 57.44873
-2.1698558 4.6528883 5.3723321 0 0 0 0 57.453674
-2.2139177 4.3566194 5.3394871 0 0 0 0 57.458626
-2.2530615 4.0684276 5.3206277 0 0 0 0 57.46357
-2.2105658 4.8988404 5.3830352 0 0 0 0 57.468513
-2.2645648 4.585526 5.3462253 0 0 0 0 57.473465
-2.3016999 4.2943397 5.3273888 0 0 0 0 57.478409
-2.3267875 3.9951577 5.3026404 0 0 0 0 57.48336
-2.3162584 4.833425 5.351871 0 0 0 0 57.488304
-2.3633418 4.5262022 5.3310647 0 0 0 0 57.493248
-2.3834071 4.2220249 5.3043618 0 0 0 0 57.498199
-2.3964992 3.9198892 5.28268 0 0 0 0 57.503143
-2.4270186 4.7740502 5.3326573 0 0 0 0 57.508095
-2.4519997 4.4498272 5.2990246 0 0 0 0 57.513039
-2.4610763 4.1436977 5.2763796 0 0 0 0 57.51799
-2.4662488 3.847652 5.2697053 0 0 0 0 57.522934
-2.52262 4.6926103 5.2906089 0 0 0 0 57.527878
-2.5426979 4.3774786 5.2739573 0 0 0 0 57.532829
-2.5438533 4.0784345 5.2653155 0 0 0 0 57.537773
-2.5339725 3.7724013 5.2527537 0 0 0 0 57.542725
-2.6243081 4.6212177 5.2624888 0 0 0 0 57.546173
-2.6384737 4.3131747 5.2618322 0 0 0 0 57.551117
-2.6205573 4.0021405 5.2443285 0 0 0 0 57.556068
-2.5916128 3.6871176 5.2228909 0 0 0 0 57.561012
-2.7320902 4.5608759 5.2492919 0 0 0 0 57.565964
-2.7221279 4.232821 5.231832 0 0 0 0 57.570908
-2.6932328 3.9218392 5.2193766 0 0 0 0 57.575859
-2.6553488 3.6118908 5.2089567 0 0 0 0 57.580803
-2.8307798 4.4855042 5.2242022 0 0 0 0 57.585747
-2.8068202 4.1554956 5.2088137 0 0 0 0 57.590698
-2.7689726 3.849575 5.2043753 0 0 0 0 57.595642
-2.7170773 3.5356648 5.1940355 0 0 0 0 57.600594
-2.9234154 4.4031119 5.1911707 0 0 0 0 57.605537
-2.8945601 4.0831985 5.1937585 0 0 0 0 57.610481
-2.8416855 3.7723048 5.18641 0 0 0 0 57.615433
-2.7727544 3.4534178 5.1711679 0 0 0 0 57.620377
-3.0241511 4.3307743 5.1750584 0 0 0 0 57.625328
-2.975239 4.0028791 5.1697712 0 0 0 0 57.630272
-2.9073489 3.6880214 5.1615071 0 0 0 0 57.635216
-2.8355391 3.3822339 5.1662197 0 0 0 0 57.640167
-3.1178417 4.2514281 5.153008 0 0 0 0 57.645111
-3.0549209 3.9205709 5.1477966 0 0 0 0 57.650063
-2.9770808 3.6117768 5.1475501 0 0 0 0 57.655006
-2.8892312 3.3010054 5.1463566 0 0 0 0 57.659958
-3.2064867 4.1650672 5.1250119 0 0 0 0 57.664902
-3.1346321 3.8412848 5.1308088 0 0 0 0 57.669846
-3.0427775 3.5305197 5.1286335 0 0 0 0 57.674797
-2.9399245 3.2187893 5.1275115 0 0 0 0 57.679741
-3.300195 4.0847425 5.1079664 0 0 0 0 57.684692
-3.2113187 3.7579927 5.1108527 0 0 0 0 57.689636
-3.1064754 3.4482725 5.1107306 0 0 0 0 57.69458
-2.9916358 3.1385839 5.1116529 0 0 0 0 57.699532
-3.3898795 4.0004148 5.0879564 0 0 0 0 57.704475
-3.2799487 3.6666856 5.0829678 0 0 0 0 57.709427
-3.165133 3.361011 5.0868726 0 0 0 0 57.714371
-3.0413511 3.0583885 5.0968032 0 0 0 0 57.719322
-3.4725251 3.9100826 5.063005 0 0 0 0 57.724266
-3.3556595 3.5844183 5.0680113 0 0 0 0 57.72921
-3.2298799 3.2828014 5.0779467 0 0 0 0 57.734161
-3.090066 2.978195 5.0819583 0 0 0 0 57.739105
-3.5531666 3.8167601 5.0390759 0 0 0 0 57.744057
-3.4243243 3.4951425 5.0471177 0 0 0 0 57.749001
-3.2845409 3.1955545 5.0551066 0 0 0 0 57.753944
-3.1377962 2.8990178 5.0701132 0 0 0 0 57.758896
-3.6328094 3.7224441 5.0161557 0 0 0 0 57.76384
-3.4909902 3.4048758 5.0272374 0 0 0 0 57.768791
-3.343256 3.1123421 5.0422306 0 0 0 0 57.773735
-3.1825147 2.8188396 5.0562863 0 0 0 0 57.778679
-3.7074261 3.6251233 4.9892716 0 0 0 0 57.78363
-3.5647228 3.3216405 5.0182943 0 0 0 0 57.788574
-3.396945 3.0261247 5.0253906 0 0 0 0 57.793526
-3.2232113 2.7356579 5.0394907 0 0 0 0 57.79847
-3.7871034 3.5328386 4.9733424 0 0 0 0 57.803421
-3.627387 3.2293887 4.9994416 0 0 0 0 57.808365
-3.4445965 2.9358959 5.0025954 0 0 0 0 57.813309
-3.2679605 2.6575065 5.0316548 0 0 0 0 57.81826
-3.853694 3.429529 4.9445219 0 0 0 0 57.823204
-3.6870408 3.1351404 4.9796109 0 0 0 0 57.828156
-3.5023437 2.8537178 4.9967198 0 0 0 0 57.833099
-3.3096879 2.5763493 5.0208459 0 0 0 0 57.838043
-3.9213111 3.3282397 4.9206872 0 0 0 0 57.842995
-3.7517426 3.0459146 4.9677353 0 0 0 0 57.847939
-3.5480075 2.7635076 4.976934 0 0 0 0 57.85289
-3.3473995 2.494189 5.0070596 0 0 0 0 57.857834
-3.9990168 3.2339962 4.9127765 0 0 0 0 57.862785
-3.8033643 2.9466689 4.9439635 0 0 0 0 57.867729
-3.5926864 2.6743133 4.9601483 0 0 0 0 57.872673
-3.3891563 2.4160545 5.0012379 0 0 0 0 57.877625
-4.205678 3.2401221 5.0598373 0 0 0 0 57.882568
-3.8489554 2.8444159 4.9152327 0 0 0 0 57.88752
-3.6413994 2.5881357 4.9493313 0 0 0 0 57.892464
-3.4238756 2.3339112 4.9894652 0 0 0 0 57.897408
-4.2783518 3.1388779 5.0489807 0 0 0 0 57.902359
-3.9006121 2.7472019 4.8984518 0 0 0 0 57.907303
-3.6861024 2.4999645 4.9375415 0 0 0 0 57.912254
-3.451544 2.247745 4.9687428 0 0 0 0 57.917198
-4.3510351 3.0366473 5.0411282 0 0 0 0 57.922142
-3.9603357 2.6570163 4.8926039 0 0 0 0 57.927094
-3.719733 2.4047673 4.9138327 0 0 0 0 57.932037
-3.4852784 2.1666176 4.959971 0 0 0 0 57.936989
-4.402586 2.9213722 5.0114298 0 0 0 0 57.941933
-4.0935936 2.6130605 4.9792194 0 0 0 0 57.946884
-3.7614393 2.316608 4.9030566 0 0 0 0 57.951828
-3.519017 2.0854948 4.9521995 0 0 0 0 57.956772
-4.4571767 2.8081257 4.9897084 0 0 0 0 57.961723
-4.2046809 2.5500405 5.0390205 0 0 0 0 57.966667
-3.7961082 2.2244401 4.8863311 0 0 0 0 57.971619
-3.5426998 2.0003531 4.9344907 0 0 0 0 57.976562
-4.5087686 2.6938913 4.9690061 0 0 0 0 57.981506
-4.2483125 2.4458425 5.0213084 0 0 0 0 57.986458
-3.8307922 2.1332855 4.8726006 0 0 0 0 57.991402
-3.5744491 1.9202446 4.9287238 0 0 0 0 57.996353
-4.5643945 2.5826735 4.9542723 0 0 0 0 58.001297
-4.2969923 2.3446727 5.0125599 0 0 0 0 58.006241
-3.8634713 2.0421319 4.8578792 0 0 0 0 58.011192
-3.6031978 1.8401443 4.9229708 0 0 0 0 58.016136
-4.6148682 2.4695857 4.9384446 0 0 0 0 58.620087
-4.3394909 2.2406406 4.9987836 0 0 0 0 58.625038
-3.9040322 1.954173 4.8561187 0 0 0 0 58.629982
-3.6247053 1.7562013 4.90833 0 0 0 0 58.634933
-4.6654925 2.3563907 4.9267502 0 0 0 0 58.639877
-4.3811479 2.1374762 4.9880838 0 0 0 0 58.644821
-3.9619043 1.8751208 4.8782334 0 0 0 0 58.649773
-3.6474211 1.6730959 4.8986244 0 0 0 0 58.654716
-4.7090855 2.240191 4.9101019 0 0 0 0 58.659668
-4.4157729 2.0313077 4.9724302 0 0 0 0 58.664612
-4.0419307 1.8061398 4.9282007 0 0 0 0 58.669563
-3.6681349 1.5909913 4.8879247 0 0 0 0 58.674507
-4.7466626 2.121999 4.8914909 0 0 0 0 58.679451
-4.4453831 1.9231433 4.9548097 0 0 0 0 58.684402
-4.1028318 1.7261125 4.9573069 0 0 0 0 58.689346
-3.6858335 1.5068855 4.875248 0 0 0 0 58.694298
-4.7862606 2.0048196 4.8768668 0 0 0 0 58.699242
-4.4830484 1.8190037 4.947134 0 0 0 0 58.704185
-4.1546731 1.6410627 4.9764781 0 0 0 0 58.709137
-3.7105885 1.4268075 4.8725204 0 0 0 0 58.714081
-4.8238668 1.8876554 4.8642521 0 0 0 0 58.719032
-4.5136876 1.7118646 4.9355049 0 0 0 0 58.723976
-4.1874084 1.5489761 4.9767699 0 0 0 0 58.72892
-3.7242844 1.3437079 4.8588581 0 0 0 0 58.733871
-4.8604817 1.7705033 4.8536425 0 0 0 0 58.738815
-4.5403214 1.6047319 4.922895 0 0 0 0 58.743767
-4.2120953 1.4528736 4.9691176 0 0 0 0 58.748711
-3.7369847 1.2606157 4.8462005 0 0 0 0 58.753662
-4.8920889 1.6523602 4.842061 0 0 0 0 58.758606
-4.5669637 1.4976087 4.9122853 0 0 0 0 58.76355
-4.2307596 1.356764 4.9564939 0 0 0 0 58.768501
-3.7597566 1.1805621 4.8474836 0 0 0 0 58.773445
-4.9206882 1.5332208 4.8294988 0 0 0 0 58.778397
-4.5895987 1.3894916 4.9006996 0 0 0 0 58.78334
-4.254467 1.2616831 4.9528427 0 0 0 0 58.788284
-3.7634139 1.095457 4.8268781 0 0 0 0 58.793236
-4.9432721 1.4120884 4.8149743 0 0 0 0 58.79818
-4.6152701 1.2833996 4.8960905 0 0 0 0 58.803131
-4.2691274 1.1645845 4.9402423 0 0 0 0 58.808075
-3.7791598 1.0143989 4.8231983 0 0 0 0 58.813019
-4.9708972 1.2929802 4.8084178 0 0 0 0 58.81797
-4.6278753 1.1732867 4.8795614 0 0 0 0 58.822914
-4.2797875 1.0674971 4.9276614 0 0 0 0 58.827866
-3.8019607 0.93537378 4.8304777 0 0 0 0 58.832809
-4.9915013 1.1728724 4.7978988 0 0 0 0 58.837761
-4.6425056 1.0641919 4.8680186 0 0 0 0 58.842705
-4.3005042 0.97143888 4.9270296 0 0 0 0 58.847649
-3.8076665 0.8533057 4.8188505 0 0 0 0 58.8526
-5.0040836 1.0517679 4.783422 0 0 0 0 58.857544
-4.6501169 0.95509762 4.8525081 0 0 0 0 58.862495
-4.3101802 0.87536854 4.9174495 0 0 0 0 58.867439
-3.8143809 0.77124423 4.8092184 0 0 0 0 58.872383
-5.0237117 0.93268675 4.777904 0 0 0 0 58.877335
-4.6667886 0.84803534 4.848948 0 0 0 0 58.882278
-4.3168387 0.77829212 4.9048886 0 0 0 0 58.88723
-3.8241222 0.68920296 4.8055735 0 0 0 0 58.892174
-5.0363221 0.81061566 4.7704339 0 0 0 0 58.897125
-4.678443 0.73997271 4.8424163 0 0 0 0 58.902069
-4.3325663 0.68325734 4.9062767 0 0 0 0 58.907013
-3.8439405 0.61020541 4.8168683 0 0 0 0 58.911964
-4.6790528 0.630898 4.8269401 0 0 0 0 58.92186
-4.3372426 0.58620572 4.8977265 0 0 0 0 58.926804
-3.8677857 0.53122532 4.8341455 0 0 0 0 58.931747
-0.55389971 0.061002586 0.5745315 0 0 0 0 58.936699
-4.3399205 0.49015972 4.8891802 0 0 0 0 58.946594
-3.8765447 0.44920614 4.8345065 0 0 0 0 58.951538
-0.47949252 0.040867914 0.50398815 0 0 0 0 58.956482
-0.50280559 0.04213424 0.57288128 0 0 0 0 58.961433
-3.8953702 0.3682259 4.8488169 0 0 0 0 58.971329
-0.46436289 0.026839728 0.49014467 0 0 0 0 58.976273
-0.48666525 0.029094612 0.5560376 0 0 0 0 58.981224
-3.9011288 0.28621522 4.8491926 0 0 0 0 58.991112
-0.46128282 0.015820675 0.48523164 0 0 0 0 58.996063
-0.4775551 0.017063912 0.54515696 0 0 0 0 59.001007
-3.9129353 0.20523566 4.8595357 0 0 0 0 59.010902
-0.449177 0.0038031565 0.47536495 0 0 0 0 59.015846
-0.46242648 0.0050309747 0.53030419 0 0 0 0 59.020798
-3.9197159 0.12324627 4.8649077 0 0 0 0 59.030693
-0.45011979 -0.0072031948 0.47543368 0 0 0 0 59.035637
-0.45534015 -0.0049862093 0.52340496 0 0 0 0 59.040581
-3.8993416 0.040174425 4.8374104 0 0 0 0 59.050476
-0.44002113 -0.018221647 0.46655327 0 0 0 0 59.055428
-0.458294 -0.016983582 0.52646929 0 0 0 0 59.060371
-3.8991015 -0.040819202 4.837811 0 0 0 0 59.070267
-0.45020467 -0.027997917 0.51957971 0 0 0 0 59.080162
-3.8817706 -0.12285621 4.8192959 0 0 0 0 59.090057
-0.43626553 -0.040175121 0.46443474 0 0 0 0 58.816216
-0.44247928 -0.0379676 0.51140177 0 0 0 0 58.821159
-3.8756623 -0.20392339 4.8156085 0 0 0 0 58.831055
-0.44242692 -0.04896614 0.51247483 0 0 0 0 58.84095
-3.8834865 -0.28686771 4.8309798 0 0 0 0 58.850845
-0.45523405 -0.065139949 0.48450834 0 0 0 0 58.855789
-0.45844644 -0.061928395 0.53048426 0 0 0 0 58.860741
-3.8903103 -0.36980909 4.8463564 0 0 0 0 58.870628
-0.46020606 -0.077123955 0.49156341 0 0 0 0 58.87558
-0.49253976 -0.077855155 0.5664255 0 0 0 0 58.880524
-3.8689957 -0.44982475 4.8298469 0 0 0 0 58.890419
-0.46818158 -0.09110681 0.5006144 0 0 0 0 58.895363
-0.48445553 -0.08886452 0.56053537 0 0 0 0 58.900314
-3.8446765 -0.52983671 4.8123531 0 0 0 0 58.91021
-0.52535117 -0.11399782 0.55748373 0 0 0 0 58.915154
-0.50248337 -0.10381781 0.58154517 0 0 0 0 58.920105
-3.832418 -0.61081541 4.8088088 0 0 0 0 58.929993
-0.53533494 -0.12997176 0.5695352 0 0 0 0 58.934944
-0.49339899 -0.1148243 0.57565981 0 0 0 0 58.939888
-3.7588606 -0.68096763 4.7334929 0 0 0 0 58.949783
-4.6716118 -1.1555122 4.5355864 0 0 0 0 58.954727
-0.51845223 -0.13375878 0.60465676 0 0 0 0 58.959679
-3.7456131 -0.76093394 4.7319503 0 0 0 0 58.969574
-4.6292572 -1.2614317 4.5273008 0 0 0 0 58.974518
-4.3279924 -1.1242048 4.6040282 0 0 0 0 58.979469
-3.7333839 -0.84088373 4.7344031 0 0 0 0 58.989357
-4.592936 -1.3683296 4.5269938 0 0 0 0 58.994308
-4.3007112 -1.2221133 4.6066365 0 0 0 0 58.999252
-4.0304747 -1.079959 4.6861982 0 0 0 0 59.004204
-3.7211697 -0.92181414 4.7408619 0 0 0 0 59.009148
-4.5586376 -1.475209 4.5316782 0 0 0 0 59.014091
-4.2704248 -1.3200177 4.6082597 0 0 0 0 59.019043
-4.0031991 -1.1678908 4.6837597 0 0 0 0 59.023987
-3.7069445 -1.0017532 4.7443256 0 0 0 0 59.028938
-4.516314 -1.5810944 4.5303955 0 0 0 0 59.033882
-4.234128 -1.4149243 4.6058974 0 0 0 0 59.038826
-3.9779363 -1.2558135 4.6843133 0 0 0 0 59.043777
-3.6867006 -1.0816945 4.7438178 0 0 0 0 59.048721
-4.4740138 -1.6849602 4.5331049 0 0 0 0 59.053673
-4.2028599 -1.5128063 4.611527 0 0 0 0 59.058617
-3.9476643 -1.3437316 4.6828899 0 0 0 0 59.063568
-3.6664591 -1.1606356 4.7433057 0 0 0 0 59.068512
-4.4337292 -1.7898122 4.5398107 0 0 0 0 59.073456
-4.1625729 -1.6056963 4.6101747 0 0 0 0 59.078407
-3.9133866 -1.4286526 4.678472 0 0 0 0 59.083351
-3.6452217 -1.2395689 4.7437987 0 0 0 0 59.088303
-4.3824167 -1.8896762 4.5375433 0 0 0 0 59.093246
-4.1242962 -1.6995775 4.6118188 0 0 0 0 59.09819
-3.8891618 -1.5175345 4.6880279 0 0 0 0 59.103142
-3.6239953 -1.3194877 4.7472973 0 0 0 0 59.108086
-4.3491874 -1.9974799 4.5582333 0 0 0 0 59.113037
-4.0820155 -1.7914566 4.6114731 0 0 0 0 59.117981
-3.8548989 -1.6034359 4.6876163 0 0 0 0 59.122925
-3.5987556 -1.3974142 4.7468057 0 0 0 0 59.127876
-4.3019099 -2.0993111 4.5649595 0 0 0 0 59.13282
-4.0407596 -1.8843093 4.6171284 0 0 0 0 59.137772
-3.8196387 -1.6883342 4.6872053 0 0 0 0 59.142715
-3.5785441 -1.4783161 4.7543063 0 0 0 0 59.147667
-4.2315741 -2.1891735 4.5517354 0 0 0 0 59.152611
-3.9954908 -1.9751697 4.6187935 0 0 0 0 59.157555
-3.7823856 -1.7722219 4.6877995 0 0 0 0 59.162506
-3.5452895 -1.5532439 4.7488384 0 0 0 0 59.16745
-4.1773028 -2.286989 4.557477 0 0 0 0 59.172401
-3.9542511 -2.0670073 4.6274457 0 0 0 0 59.177345
-3.7471542 -1.858086 4.6943951 0 0 0 0 59.182289
-3.5180554 -1.6321546 4.7503629 0 0 0 0 59.187241
-4.1320753 -2.3887718 4.5751967 0 0 0 0 59.192184
-3.9120173 -2.1598322 4.6381087 0 0 0 0 59.197136
-3.7038922 -1.9399707 4.692009 0 0 0 0 59.20208
-3.4848111 -1.7080675 4.7479019 0 0 0 0 59.207031
-4.0748186 -2.4845686 4.5829444 0 0 0 0 59.211975
-3.8607609 -2.2476699 4.6407895 0 0 0 0 59.216919
-3.6666615 -2.0238335 4.6976056 0 0 0 0 59.22187
-3.4555902 -1.7869576 4.7524366 0 0 0 0 59.226814
-4.0105524 -2.5753694 4.5857015 0 0 0 0 59.231766
-3.8125241 -2.3364918 4.6484628 0 0 0 0 59.23671
-3.6274347 -2.1076856 4.7042127 0 0 0 0 59.241653
-3.4203482 -1.8618646 4.7499814 0 0 0 0 59.246605
-3.9503126 -2.6681471 4.5954509 0 0 0 0 59.251549
-3.7622945 -2.4243026 4.6571412 0 0 0 0 59.2565
-3.5801914 -2.1875434 4.7048383 0 0 0 0 59.261444
-3.3921471 -1.9417329 4.7595186 0 0 0 0 59.266388
-3.888073 -2.7609186 4.6052098 0 0 0 0 59.271339
-3.7080612 -2.5101116 4.6638288 0 0 0 0 59.276283
-3.537972 -2.2703817 4.7124557 0 0 0 0 59.281235
-3.3549175 -2.0186141 4.7610836 0 0 0 0 59.286179
-3.8190393 -2.846755 4.6087399 0 0 0 0 59.04126
-3.6480165 -2.591995 4.6643009 0 0 0 0 59.046204
-3.4899323 -2.3493009 4.713861 0 0 0 0 59.051147
-3.3198888 -2.0955625 4.7654228 0 0 0 0 59.056099
-3.7498088 -2.9335179 4.6164975 0 0 0 0 59.061043
-3.5988266 -2.6807661 4.6819763 0 0 0 0 59.065994
-3.4427149 -2.4301305 4.7204881 0 0 0 0 59.070938
-3.2836742 -2.1724327 4.76998 0 0 0 0 59.075882
-3.6825976 -3.0212619 4.629252 0 0 0 0 59.080833
-3.5315785 -2.7575824 4.6796775 0 0 0 0 59.085777
-3.3934958 -2.5099587 4.7261209 0 0 0 0 59.090729
-3.2444577 -2.2482991 4.7735462 0 0 0 0 59.095673
-3.608367 -3.1030242 4.6340108 0 0 0 0 59.100624
-3.4773848 -2.8443482 4.6953678 0 0 0 0 59.105568
-3.3452916 -2.5907707 4.735754 0 0 0 0 59.110512
-3.2052472 -2.3251557 4.7791185 0 0 0 0 59.115463
-3.5411768 -3.1897483 4.6507626 0 0 0 0 59.120407
-3.4171865 -2.926116 4.7070632 0 0 0 0 59.125359
-3.2890658 -2.664603 4.7363915 0 0 0 0 59.130302
-3.164041 -2.4020014 4.7857013 0 0 0 0 59.135246
-3.4840386 -3.2874129 4.6855226 0 0 0 0 59.140198
-3.3489664 -3.0009043 4.7097621 0 0 0 0 59.145142
-3.2368672 -2.7434027 4.7460356 0 0 0 0 59.150093
-3.1208358 -2.476846 4.7912836 0 0 0 0 59.155037
-3.4529986 -3.4119666 4.7582941 0 0 0 0 59.159981
-3.2887862 -3.0826519 4.7254586 0 0 0 0 59.164932
-3.183671 -2.8211992 4.7556806 0 0 0 0 59.169876
-3.0695918 -2.5457258 4.7848754 0 0 0 0 59.174828
-3.3808315 -3.4986503 4.7800722 0 0 0 0 59.179771
-3.2145629 -3.1534369 4.7251682 0 0 0 0 59.184723
-3.1254649 -2.8960006 4.7613349 0 0 0 0 59.189667
-3.0324306 -2.6275191 4.8044658 0 0 0 0 59.194611
-3.2986398 -3.5743635 4.7898445 0 0 0 0 59.199562
-3.1564152 -3.2381458 4.7498727 0 0 0 0 59.204506
-3.0682719 -2.9707901 4.7699857 0 0 0 0 59.209457
-2.9852357 -2.7033367 4.8130746 0 0 0 0 59.214401
-3.2164645 -3.6490617 4.8026128 0 0 0 0 59.219345
-3.123384 -3.3517163 4.8176026 0 0 0 0 59.224297
-3.0090866 -3.0445685 4.7796412 0 0 0 0 59.22924
-2.9330177 -2.774179 4.813683 0 0 0 0 59.234192
-3.1302841 -3.7207625 4.8123865 0 0 0 0 59.239136
-3.0672672 -3.4433763 4.8533335 0 0 0 0 59.244087
-2.9428735 -3.1133707 4.7803063 0 0 0 0 59.249031
-2.8828168 -2.8470025 4.819293 0 0 0 0 59.253975
-3.0461252 -3.7944393 4.8281612 0 0 0 0 59.258926
-2.9800372 -3.5001712 4.843039 0 0 0 0 59.26387
-2.8887281 -3.1940994 4.8029747 0 0 0 0 59.268822
-2.8336415 -2.9237893 4.8329182 0 0 0 0 59.273766
-2.9549532 -3.8581398 4.8349209 0 0 0 0 59.278709
-2.9189286 -3.5888159 4.8787808 0 0 0 0 59.283661
-2.8456399 -3.2887568 4.8466616 0 0 0 0 59.288605
-2.7734139 -2.9896321 4.8285422 0 0 0 0 59.293556
-2.857765 -3.9128666 4.8326654 0 0 0 0 59.2985
-2.840764 -3.6565335 4.8894997 0 0 0 0 59.303444
-2.8045762 -3.3893754 4.8993692 0 0 0 0 59.308395
-2.7212362 -3.0654147 4.8411784 0 0 0 0 59.313339
-2.7626011 -3.7252457 4.9012256 0 0 0 0 59.323235
-2.7233498 -3.4431913 4.8880348 0 0 0 0 59.328186
-2.6640496 -3.1362069 4.8488145 0 0 0 0 59.33313
-2.6824512 -3.790947 4.9139462 0 0 0 0 59.343025
-2.6702561 -3.5348332 4.9287562 0 0 0 0 59.347969
-2.6118965 -3.2129593 4.8674579 0 0 0 0 59.352921
-2.6044366 -4.1317372 4.9109983 0 0 0 0 59.357864
-2.5942757 -3.8476784 4.9156613 0 0 0 0 59.362808
-2.598083 -3.6005814 4.9364405 0 0 0 0 59.36776
-2.5818698 -3.3235395 4.934165 0 0 0 0 59.372704
-2.5083036 -4.1864061 4.9207425 0 0 0 0 59.377655
-2.5081139 -3.9044008 4.9203687 0 0 0 0 59.382599
-2.5239191 -3.6663136 4.946135 0 0 0 0 59.387543
-2.5317531 -3.4102283 4.9668493 0 0 0 0 59.392494
-2.0154569 -3.5538254 4.1369543 0 0 0 0 59.397438
-2.4480896 -4.0039225 4.9811654 0 0 0 0 59.40239
-2.450768 -3.7340291 4.9598355 0 0 0 0 59.407333
-2.4585285 -3.4680514 4.9585004 0 0 0 0 59.412285
-2.1198092 -3.6553571 4.495007 0 0 0 0 59.422173
-2.3726041 -3.7947636 4.966526 0 0 0 0 59.427124
-2.4064245 -3.5567138 4.9952059 0 0 0 0 59.432068
-1.9904407 -3.6164622 4.3964467 0 0 0 0 59.441963
-2.292443 -3.8544924 4.9732213 0 0 0 0 59.446907
-2.3342254 -3.6185 4.9948735 0 0 0 0 59.451859
-2.1269083 -4.4089289 4.9917364 0 0 0 0 59.456802
-2.1776788 -4.1640019 5.0053024 0 0 0 0 59.461754
-2.2052538 -3.9012694 4.9658875 0 0 0 0 59.466698
-2.2660675 -3.6902237 5.0095725 0 0 0 0 59.471649
