# .PCD v0.7 - Point Cloud Data file format
VERSION 0.7
FIELDS x y z normal_x normal_y normal_z intensity curvature
SIZE 4 4 4 4 4 4 4 4
TYPE F F F F F F F F
COUNT 1 1 1 1 1 1 1 1
WIDTH 974
HEIGHT 1
VIEWPOINT 0 0 0 1 0 0 0
POINTS 974
DATA ascii
-2.7556682 -5.0559497 4.6119409 0 0 0 0 9.4496841
-2.7123532 -4.8981004 4.740067 0 0 0 0 9.4546318
-2.6236985 -4.6550446 4.7601142 0 0 0 0 9.4595776
-2.5395854 -4.4258289 4.7981567 0 0 0 0 9.4645252
-2.541893 -4.9425726 4.4618926 0 0 0 0 9.469471
-2.598779 -4.9575586 4.7462296 0 0 0 0 9.4744186
-2.524292 -4.7178435 4.7683578 0 0 0 0 9.4793663
-2.45116 -4.4870982 4.8014727 0 0 0 0 9.4843121
-2.3521729 -4.8551483 4.3419347 0 0 0 0 9.4892597
-2.427592 -4.9053516 4.6473022 0 0 0 0 9.4942074
-2.4227955 -4.7787285 4.7755947 0 0 0 0 9.4991531
-2.3627853 -4.5503731 4.8107862 0 0 0 0 9.5041008
-2.2859702 -5.021719 4.4541378 0 0 0 0 9.5090485
-2.3202162 -4.9705305 4.6644931 0 0 0 0 9.5139942
-2.3159175 -4.8308339 4.7768202 0 0 0 0 9.5189419
-2.2668886 -4.6009502 4.8070841 0 0 0 0 9.5238895
-2.2227755 -5.2132201 4.5893011 0 0 0 0 9.5288353
-2.2461717 -5.1174068 4.7616968 0 0 0 0 9.533783
-2.2078218 -4.877975 4.7750511 0 0 0 0 9.5387306
-2.1720951 -4.6544814 4.8083835 0 0 0 0 9.5436764
-2.1514359 -5.402091 4.724421 0 0 0 0 9.548624
-2.1259181 -5.1621127 4.7628589 0 0 0 0 9.5535717
-2.0997441 -4.9261174 4.7772813 0 0 0 0 9.5585175
-2.0783303 -4.7089634 4.8116879 0 0 0 0 9.5634651
-2.0144665 -5.4315429 4.7215176 0 0 0 0 9.5684128
-2.003309 -5.198904 4.7610273 0 0 0 0 9.5733604
-1.9927359 -4.9762092 4.782515 0 0 0 0 9.5783043
-1.9802246 -4.75562 4.8099852 0 0 0 0 9.583252
-1.8466041 -5.3671489 4.638649 0 0 0 0 9.5881996
-1.8830448 -5.2446094 4.7701898 0 0 0 0 9.5931473
-1.8846252 -5.024344 4.7887478 0 0 0 0 9.5980949
-1.8821491 -4.8032732 4.8102818 0 0 0 0 9.6030426
-1.6814295 -5.2956052 4.5538154 0 0 0 0 9.6079865
-1.7626437 -5.2873058 4.7783608 0 0 0 0 9.6129341
-1.7731335 -5.0636048 4.7889819 0 0 0 0 9.6178818
-1.78625 -4.8558397 4.8185816 0 0 0 0 9.6228294
-1.5210282 -5.2188196 4.4680252 0 0 0 0 9.6277771
-1.6283129 -5.2835069 4.7475576 0 0 0 0 9.6327248
-1.6639113 -5.109776 4.7972155 0 0 0 0 9.6376686
-1.6861439 -4.9035802 4.8228674 0 0 0 0 9.6426163
-1.3677661 -5.14571 4.3892722 0 0 0 0 9.6475639
-1.4750053 -5.207365 4.6538115 0 0 0 0 9.6525116
-1.5513426 -5.1480765 4.8014479 0 0 0 0 9.6574593
-1.5859814 -4.950316 4.8281565 0 0 0 0 9.6624031
-1.2242217 -5.0901957 4.3285389 0 0 0 0 9.6673508
-1.3277514 -5.1329465 4.5661001 0 0 0 0 9.6722984
-1.4374385 -5.1784086 4.7996926 0 0 0 0 9.6772461
-1.4834776 -4.9891334 4.8284521 0 0 0 0 9.6821938
-1.0796746 -5.0106544 4.2508583 0 0 0 0 9.6871414
-1.1900939 -5.0731201 4.4934144 0 0 0 0 9.6920853
-1.3069379 -5.1453109 4.7409868 0 0 0 0 9.6970329
-1.3810511 -5.0299454 4.8307438 0 0 0 0 9.7019806
-0.94745207 -4.9526434 4.1937413 0 0 0 0 9.4548912
-1.0577484 -5.010035 4.4213123 0 0 0 0 9.4598389
-1.1722802 -5.0722337 4.6478982 0 0 0 0 9.4647846
-1.2789463 -5.0676379 4.8325973 0 0 0 0 9.4697323
-0.81787002 -4.8975325 4.1420927 0 0 0 0 9.474678
-0.92802024 -4.9498968 4.3556743 0 0 0 0 9.4796257
-1.0410959 -4.9990997 4.5582819 0 0 0 0 9.4845734
-1.1695722 -5.0857487 4.8178959 0 0 0 0 9.4895191
-0.68997478 -4.83532 4.0884728 0 0 0 0 9.4944668
-0.80235988 -4.8915701 4.2940583 0 0 0 0 9.4994144
-0.9180342 -4.9536695 4.4976506 0 0 0 0 9.5043602
-1.043819 -5.0213594 4.7262936 0 0 0 0 9.5093079
-0.56744844 -4.7818742 4.0428658 0 0 0 0 9.5142555
-0.67976844 -4.8351007 4.2364583 0 0 0 0 9.5192013
-0.79626143 -4.8911238 4.4240699 0 0 0 0 9.5241489
-0.92365098 -4.9717555 4.6526904 0 0 0 0 9.5290966
-0.44786322 -4.7272859 3.9992809 0 0 0 0 9.5340424
-0.56104273 -4.7754364 4.1778913 0 0 0 0 9.53899
-0.6789664 -4.8404007 4.3634896 0 0 0 0 9.5439377
-0.80734825 -4.9189572 4.5781207 0 0 0 0 9.5488834
-0.33142099 -4.6765609 3.9627078 0 0 0 0 9.5538311
-0.44783357 -4.7285504 4.133328 0 0 0 0 9.5587788
-0.56586564 -4.7944918 4.3089242 0 0 0 0 9.5637245
-0.69161952 -4.8560996 4.4975801 0 0 0 0 9.5686722
-0.21880415 -4.6216402 3.9241691 0 0 0 0 9.5736198
-0.33635849 -4.6755643 4.0867915 0 0 0 0 9.5785675
-0.45445862 -4.7414823 4.2513881 0 0 0 0 9.5835114
-0.58021277 -4.8010578 4.4250479 0 0 0 0 9.588459
-0.11050268 -4.5745382 3.8946397 0 0 0 0 9.5934067
-0.22700572 -4.6254807 4.043262 0 0 0 0 9.5983543
-0.34583175 -4.6833243 4.1918821 0 0 0 0 9.603302
-0.4733094 -4.7588472 4.3685141 0 0 0 0 9.6082497
-0.0022851073 -4.5294304 3.8671064 0 0 0 0 9.6131935
-0.12175386 -4.5782142 4.0057526 0 0 0 0 9.6181412
-0.24121723 -4.6500506 4.156342 0 0 0 0 9.6230888
-0.36810642 -4.7095332 4.3080082 0 0 0 0 9.6280365
0.10320514 -4.478179 3.8386059 0 0 0 0 9.6329842
-0.017578354 -4.5328984 3.9712455 0 0 0 0 9.637928
-0.13774019 -4.595655 4.1028605 0 0 0 0 9.6428757
-0.26373869 -4.6561618 4.2445188 0 0 0 0 9.6478233
0.2064064 -4.4338336 3.8161037 0 0 0 0 9.652771
0.083656266 -4.4864411 3.93876 0 0 0 0 9.6577187
-0.036533151 -4.548173 4.0583777 0 0 0 0 9.6626663
-0.16359212 -4.6086125 4.190042 0 0 0 0 9.6676102
0.30830333 -4.3974524 3.8045912 0 0 0 0 9.6725578
0.18384847 -4.4409313 3.9072797 0 0 0 0 9.6775055
0.062404528 -4.5076051 4.022893 0 0 0 0 9.6824532
-0.06468825 -4.567018 4.1415591 0 0 0 0 9.6874008
0.40689597 -4.3438592 3.7781415 0 0 0 0 9.6923485
0.28193814 -4.3983326 3.8818061 0 0 0 0 9.6972923
0.15892251 -4.452879 3.9764578 0 0 0 0 9.70224
0.031481531 -4.519278 4.0911093 0 0 0 0 9.7071877
0.50489008 -4.3052816 3.7676599 0 0 0 0 9.7121353
0.37806702 -4.3546324 3.8553481 0 0 0 0 9.717083
0.25475597 -4.4151688 3.9469869 0 0 0 0 9.7220306
0.12645522 -4.4764943 4.0466552 0 0 0 0 9.7269745
0.60088974 -4.2666059 3.7581918 0 0 0 0 9.7319221
0.47213361 -4.3128424 3.833899 0 0 0 0 9.7368698
0.34779629 -4.3723083 3.9135463 0 0 0 0 9.7418175
0.22031964 -4.436666 4.0072017 0 0 0 0 9.7467651
0.6943084 -4.2177777 3.7417648 0 0 0 0 9.7517128
0.56517076 -4.2720046 3.8154547 0 0 0 0 9.7566566
0.44081232 -4.3304486 3.884104 0 0 0 0 9.7616043
0.31167659 -4.3846803 3.9577935 0 0 0 0 9.766552
0.79012704 -4.184104 3.7412868 0 0 0 0 9.7714996
0.65708613 -4.234118 3.8000109 0 0 0 0 9.7764473
0.53255326 -4.295548 3.8626537 0 0 0 0 9.7813911
0.40251711 -4.3457079 3.9223583 0 0 0 0 9.7863388
0.87964809 -4.1330838 3.7268906 0 0 0 0 9.7912865
0.74825799 -4.190177 3.7815866 0 0 0 0 9.7962341
0.62254566 -4.2545443 3.8372295 0 0 0 0 9.8011818
0.49308196 -4.3137403 3.8949082 0 0 0 0 9.8061295
0.97172314 -4.0932093 3.7234521 0 0 0 0 9.8110733
0.83722937 -4.1511436 3.7681651 0 0 0 0 9.816021
0.7107029 -4.2094393 3.8088272 0 0 0 0 9.8209686
0.58034515 -4.2645659 3.8535204 0 0 0 0 9.8259163
1.0644481 -4.0623913 3.7309887 0 0 0 0 9.830864
0.92709589 -4.1151605 3.760731 0 0 0 0 9.8358116
0.79867649 -4.1693411 3.7884142 0 0 0 0 9.8407555
0.66717303 -4.2264023 3.8241096 0 0 0 0 9.8457031
1.1526263 -4.0203257 3.7295809 0 0 0 0 9.8506508
1.0142143 -4.073029 3.7493296 0 0 0 0 9.8555984
0.88552886 -4.132194 3.7710018 0 0 0 0 9.8605461
0.75393116 -4.190239 3.7986953 0 0 0 0 9.8654938
1.2426983 -3.9813561 3.7341547 0 0 0 0 9.8704376
1.1012164 -4.0338974 3.7419221 0 0 0 0 9.8753853
0.97139198 -4.0949993 3.7555966 0 0 0 0 9.8803329
0.83801419 -4.1459227 3.7663171 0 0 0 0 9.8852806
1.3298104 -3.9412401 3.7377501 0 0 0 0 9.8902283
1.1890281 -3.9998162 3.7414982 0 0 0 0 9.8951721
1.0554655 -4.0527039 3.7372148 0 0 0 0 9.9001198
0.92462659 -4.1137595 3.747895 0 0 0 0 9.9050674
1.419776 -3.9052677 3.7483182 0 0 0 0 9.9100151
1.2731655 -3.9575362 3.7341173 0 0 0 0 9.9149628
1.1431013 -4.0216031 3.7307851 0 0 0 0 9.9199104
1.0084904 -4.075448 3.7255054 0 0 0 0 9.9248543
1.5079848 -3.8690579 3.7599666 0 0 0 0 9.9609756
1.3611922 -3.9243183 3.7377584 0 0 0 0 9.9659195
1.2264004 -3.9801362 3.717474 0 0 0 0 9.9708672
1.0916867 -4.0349693 3.7021914 0 0 0 0 9.9758148
1.5968827 -3.8350298 3.7755387 0 0 0 0 9.9807625
1.4479071 -3.8931813 3.7453363 0 0 0 0 9.9857101
1.307655 -3.9336855 3.7001214 0 0 0 0 9.9906578
1.176277 -4.0037003 3.6887817 0 0 0 0 9.9956017
1.6839566 -3.7969048 3.790132 0 0 0 0 10.000549
1.5310647 -3.8508422 3.7429636 0 0 0 0 10.005497
1.3940696 -3.9085307 3.7036874 0 0 0 0 10.010445
1.2572832 -3.9622352 3.6684191 0 0 0 0 10.015392
1.7581489 -3.7300961 3.7768731 0 0 0 0 10.020336
1.6150726 -3.8125527 3.7465761 0 0 0 0 10.025284
1.4779446 -3.872227 3.7002957 0 0 0 0 10.030231
1.3392187 -3.9228172 3.6520462 0 0 0 0 10.035179
1.5068266 -3.0283759 3.104121 0 0 0 0 10.040127
1.7018955 -3.7794068 3.7581601 0 0 0 0 10.045074
1.5608573 -3.8348696 3.6959128 0 0 0 0 10.050018
1.424713 -3.8945899 3.6466253 0 0 0 0 10.054966
1.384352 -2.6375289 2.7398355 0 0 0 0 10.059914
1.7534643 -3.6754253 3.6991284 0 0 0 0 10.064861
1.6475055 -3.8047047 3.7014906 0 0 0 0 10.069809
1.5075423 -3.8582156 3.6362407 0 0 0 0 10.074757
1.2773234 -2.3105879 2.4343007 0 0 0 0 10.0797
1.483935 -2.9508243 2.9985337 0 0 0 0 10.084648
1.7295566 -3.7642944 3.6981213 0 0 0 0 10.089596
1.5867004 -3.813647 3.6198986 0 0 0 0 10.094543
1.2114173 -2.0828393 2.2272768 0 0 0 0 10.099491
1.3750272 -2.5957186 2.6680758 0 0 0 0 10.104439
1.7086016 -3.5175478 3.4898708 0 0 0 0 10.109383
1.6713043 -3.783366 3.61849 0 0 0 0 10.11433
1.1390711 -1.8648231 2.0242677 0 0 0 0 10.119278
1.2761298 -2.2902248 2.382437 0 0 0 0 10.124226
1.4698657 -2.8746443 2.8748863 0 0 0 0 10.129173
1.7531116 -3.7479377 3.613111 0 0 0 0 10.134117
1.0745149 -1.6772603 1.8501374 0 0 0 0 10.139065
1.2052251 -2.0612457 2.1704443 0 0 0 0 10.144012
1.3623753 -2.5336611 2.5583825 0 0 0 0 10.14896
1.6047885 -3.2516367 3.1572244 0 0 0 0 10.153908
1.0434707 -1.5544357 1.7446479 0 0 0 0 10.158855
1.1327434 -1.8462421 1.9704263 0 0 0 0 10.163799
1.2650573 -2.2382829 2.2827067 0 0 0 0 10.168747
1.4583818 -2.8065825 2.7452025 0 0 0 0 10.173695
0.98739725 -1.4043746 1.6023747 0 0 0 0 10.178642
1.0746483 -1.6720191 1.8082228 0 0 0 0 10.18359
1.2015094 -2.0257013 2.0886278 0 0 0 0 10.188538
1.3552814 -2.4808633 2.4456322 0 0 0 0 10.193481
0.97944534 -1.330761 1.5476264 0 0 0 0 10.198429
1.0378565 -1.5419101 1.6927842 0 0 0 0 10.203377
1.1372619 -1.8301409 1.9085115 0 0 0 0 10.208324
1.2548819 -2.1873701 2.1749673 0 0 0 0 10.213272
1.0162537 -1.3173863 1.5644627 0 0 0 0 10.21822
0.99022573 -1.4062859 1.5664238 0 0 0 0 10.223164
1.0847735 -1.6662161 1.7592478 0 0 0 0 10.228111
1.1968129 -1.9880896 1.9958215 0 0 0 0 10.233059
1.0540723 -1.3040584 1.583293 0 0 0 0 10.238007
0.98130208 -1.3316245 1.5096833 0 0 0 0 10.242954
1.0422059 -1.5298295 1.6368577 0 0 0 0 10.247898
1.1324439 -1.7955456 1.8206965 0 0 0 0 10.252846
1.0890158 -1.2875905 1.6001484 0 0 0 0 10.257793
1.0151598 -1.3160967 1.5195428 0 0 0 0 10.262741
0.99256647 -1.3941201 1.5105083 0 0 0 0 10.267689
1.0826259 -1.6397731 1.6793956 0 0 0 0 10.272636
1.1259171 -1.2722111 1.6179895 0 0 0 0 10.27758
1.0519536 -1.3027112 1.5343797 0 0 0 0 10.282528
0.98454523 -1.3215032 1.4537567 0 0 0 0 10.287476
1.0427767 -1.5105382 1.5649709 0 0 0 0 10.292423
1.1734461 -1.2673501 1.6507415 0 0 0 0 10.297371
1.0868652 -1.2862285 1.5462354 0 0 0 0 10.302319
1.0212361 -1.3101106 1.4665896 0 0 0 0 10.307262
0.99310547 -1.3758428 1.4426175 0 0 0 0 10.31221
1.2104412 -1.2499685 1.6695873 0 0 0 0 10.317158
1.1237077 -1.2718405 1.5620749 0 0 0 0 10.322105
1.0599362 -1.2988098 1.4814103 0 0 0 0 10.327053
0.99168718 -1.3135581 1.3968011 0 0 0 0 10.332001
1.2493733 -1.2346839 1.6934165 0 0 0 0 10.336945
1.1605939 -1.2564504 1.5779165 0 0 0 0 10.341892
1.0900155 -1.2770805 1.4833077 0 0 0 0 10.34684
1.0293574 -1.3022002 1.406628 0 0 0 0 10.351788
1.2893869 -1.2174405 1.7162439 0 0 0 0 10.356735
1.1965126 -1.2400088 1.5917666 0 0 0 0 10.361679
1.1267991 -1.2636836 1.4971454 0 0 0 0 10.366627
1.0651516 -1.2877477 1.4144739 0 0 0 0 10.371574
1.3274399 -1.1991026 1.7380861 0 0 0 0 10.376522
1.2451155 -1.233179 1.6225176 0 0 0 0 10.38147
1.1646255 -1.2493297 1.5109791 0 0 0 0 10.386417
1.1009957 -1.2722956 1.4233221 0 0 0 0 10.391361
1.3684615 -1.1819025 1.7629076 0 0 0 0 10.396309
1.2830603 -1.2168323 1.6413558 0 0 0 0 10.401257
1.2015356 -1.2329274 1.5238233 0 0 0 0 10.406204
1.1407239 -1.2600266 1.4361393 0 0 0 0 10.411152
1.4153569 -1.1689874 1.7976838 0 0 0 0 10.4161
1.3279046 -1.20381 1.6671444 0 0 0 0 10.421043
1.2423358 -1.2197104 1.5416367 0 0 0 0 10.425991
1.1756951 -1.2415245 1.4440001 0 0 0 0 10.430939
1.4514024 -1.1408478 1.8156309 0 0 0 0 11.077015
1.3667942 -1.180926 1.6850544 0 0 0 0 11.081963
1.2831209 -1.2000326 1.5575178 0 0 0 0 11.08691
1.2115617 -1.2197095 1.4509081 0 0 0 0 11.091858
1.4993653 -1.1259096 1.851411 0 0 0 0 11.096806
1.4068081 -1.1626128 1.7058887 0 0 0 0 11.101749
1.3308153 -1.1900765 1.5842881 0 0 0 0 11.106697
1.2542956 -1.2075207 1.4687123 0 0 0 0 11.111645
1.5473702 -1.1099681 1.8871932 0 0 0 0 11.116592
1.4497979 -1.1454345 1.7307031 0 0 0 0 11.12154
1.3708051 -1.1717542 1.6011225 0 0 0 0 11.126488
1.2941815 -1.1911931 1.4825428 0 0 0 0 11.131432
1.5925326 -1.0898894 1.9200016 0 0 0 0 11.136379
1.4947958 -1.1283441 1.7575057 0 0 0 0 11.141327
1.4117608 -1.1544756 1.6199491 0 0 0 0 11.146275
1.3302575 -1.1696825 1.491407 0 0 0 0 11.151222
1.6465701 -1.0742159 1.9627481 0 0 0 0 11.156166
1.5388743 -1.1092061 1.7833183 0 0 0 0 11.161114
1.4557734 -1.1363314 1.6417598 0 0 0 0 11.166061
1.3818588 -1.16189 1.51815 0 0 0 0 11.171009
1.6928267 -1.052179 1.9975549 0 0 0 0 11.175957
1.5839617 -1.0901121 1.8111252 0 0 0 0 11.180904
1.5046849 -1.1214106 1.6695347 0 0 0 0 11.185848
1.4268148 -1.1447834 1.5379529 0 0 0 0 11.190796
1.7459859 -1.0334541 2.039314 0 0 0 0 11.195744
1.6370068 -1.0733789 1.8478802 0 0 0 0 11.200691
1.544848 -1.0990807 1.6873777 0 0 0 0 11.205639
1.4688352 -1.1255361 1.5537779 0 0 0 0 11.210587
1.7963136 -1.0105963 2.0800989 0 0 0 0 11.21553
1.6890883 -1.0555967 1.8836435 0 0 0 0 11.220478
1.590915 -1.0800196 1.7121788 0 0 0 0 11.225426
1.5178081 -1.108604 1.5775571 0 0 0 0 11.230373
1.8525826 -0.99000496 2.1268439 0 0 0 0 11.235321
1.7353922 -1.0315411 1.9124546 0 0 0 0 11.240269
1.6410373 -1.0601351 1.7399582 0 0 0 0 11.245213
1.5619278 -1.0874443 1.5963743 0 0 0 0 11.25016
1.9060074 -0.96527654 2.1706154 0 0 0 0 11.255108
1.7895726 -1.0118454 1.9512103 0 0 0 0 11.260056
1.6892031 -1.0391611 1.7677516 0 0 0 0 11.265003
1.6080555 -1.0663719 1.6171798 0 0 0 0 11.269947
1.968351 -0.94395107 2.2243268 0 0 0 0 11.274895
1.8468091 -0.99128205 1.9929501 0 0 0 0 11.279842
1.7423919 -1.0184097 1.8005153 0 0 0 0 11.28479
1.6591257 -1.0475227 1.6439517 0 0 0 0 11.289738
2.0337622 -0.92176151 2.2830229 0 0 0 0 11.294685
1.8992289 -0.96548992 2.0287297 0 0 0 0 11.299629
1.7995496 -0.99883205 1.8362533 0 0 0 0 11.304577
1.7103119 -1.0256677 1.6687294 0 0 0 0 11.309525
2.095324 -0.89538902 2.3377507 0 0 0 0 11.314472
1.9615412 -0.9441486 2.0774419 0 0 0 0 11.31942
1.8568034 -0.97725576 1.8739954 0 0 0 0 11.324368
1.7645228 -1.0039486 1.6984893 0 0 0 0 11.329311
2.1648741 -0.87037015 2.3994288 0 0 0 0 11.334259
2.0259414 -0.92089236 2.1271462 0 0 0 0 11.339207
1.9141786 -0.95267534 1.9107436 0 0 0 0 11.344154
1.8187748 -0.98122591 1.7282516 0 0 0 0 11.349102
2.2325957 -0.841263 2.461127 0 0 0 0 11.35405
2.0963752 -0.8979038 2.1838148 0 0 0 0 11.358994
1.9735671 -0.9281826 1.95048 0 0 0 0 11.363941
1.8820206 -0.95990211 1.7659582 0 0 0 0 11.368889
2.3092849 -0.81455863 2.5337677 0 0 0 0 11.373837
2.159025 -0.86855382 2.2325432 0 0 0 0 11.378784
2.0350068 -0.90277618 1.9922066 0 0 0 0 11.383728
1.9354786 -0.93212956 1.7947364 0 0 0 0 11.388676
2.385144 -0.78380853 2.6064224 0 0 0 0 11.393623
2.2296257 -0.8415575 2.2892201 0 0 0 0 11.398571
2.0995445 -0.87550157 2.0369191 0 0 0 0 11.403519
2.0068028 -0.91015714 1.8403977 0 0 0 0 11.408466
2.4740219 -0.75463676 2.6919975 0 0 0 0 11.41341
2.2964249 -0.80938178 2.342931 0 0 0 0 11.418358
2.1780572 -0.8508482 2.0945449 0 0 0 0 11.423306
2.0713105 -0.88287038 1.8801106 0 0 0 0 11.428253
2.5600591 -0.72132814 2.775599 0 0 0 0 11.433201
2.3762054 -0.77978569 2.4105601 0 0 0 0 11.438148
2.2477496 -0.82079214 2.1452341 0 0 0 0 11.443092
2.1339345 -0.85249102 1.9178416 0 0 0 0 11.44804
2.6451797 -0.68597114 2.8592103 0 0 0 0 11.452988
2.4581213 -0.74727553 2.4801838 0 0 0 0 11.457935
2.3235054 -0.78999877 2.2008896 0 0 0 0 11.462883
2.2125435 -0.82482153 1.9704733 0 0 0 0 11.467831
2.756443 -0.65178132 2.9716668 0 0 0 0 11.472775
2.5471175 -0.71407586 2.5577679 0 0 0 0 11.477722
2.4113178 -0.75973797 2.2684736 0 0 0 0 11.48267
2.2932451 -0.79523718 2.0250974 0 0 0 0 11.487617
2.8478918 -0.60968649 3.0622563 0 0 0 0 11.492565
2.6512272 -0.68054271 2.6502647 0 0 0 0 11.497513
2.4893463 -0.72303081 2.3281293 0 0 0 0 11.502457
2.3770444 -0.76378256 2.0827079 0 0 0 0 11.507404
2.963484 -0.56867051 3.1817031 0 0 0 0 11.512352
2.7654257 -0.64644998 2.7527041 0 0 0 0 11.5173
2.5794244 -0.68685281 2.3987138 0 0 0 0 11.522247
2.4560354 -0.72710347 2.1363578 0 0 0 0 11.527191
3.0812101 -0.52473694 3.3031442 0 0 0 0 11.532139
2.8539367 -0.60119849 2.8323181 0 0 0 0 11.537086
2.6786292 -0.64907211 2.4782486 0 0 0 0 11.542034
2.5401332 -0.68864346 2.1949821 0 0 0 0 11.546982
3.2068257 -0.4797374 3.4329038 0 0 0 0 11.222641
2.976064 -0.56285733 2.9440949 0 0 0 0 11.227589
2.7864859 -0.6119433 2.5661163 0 0 0 0 11.232536
2.6487174 -0.65543336 2.273844 0 0 0 0 11.23748
3.3620975 -0.43056524 3.5961294 0 0 0 0 11.242428
3.0978966 -0.5161534 3.0565121 0 0 0 0 11.247375
2.9040196 -0.57003695 2.6635482 0 0 0 0 11.252323
2.7481287 -0.61270225 2.3473842 0 0 0 0 11.257271
3.5015867 -0.37366021 3.7434659 0 0 0 0 11.262218
3.2289474 -0.46585324 3.1788833 0 0 0 0 11.267162
3.0227764 -0.5231728 2.762984 0 0 0 0 11.27211
2.8736415 -0.57113338 2.4427681 0 0 0 0 11.277058
3.6643813 -0.31379831 3.9176724 0 0 0 0 11.282005
3.3732371 -0.41213706 3.3151846 0 0 0 0 11.286953
3.1637616 -0.4742963 2.8832934 0 0 0 0 11.291901
3.0004201 -0.52360702 2.5401583 0 0 0 0 11.296844
3.8877683 -0.25066072 4.1585293 0 0 0 0 11.301792
3.5348334 -0.35418746 3.4703937 0 0 0 0 11.30674
3.295012 -0.41796809 2.9966774 0 0 0 0 11.311687
3.1343524 -0.47338754 2.6435122 0 0 0 0 11.316635
4.0531497 -0.17788143 4.3397498 0 0 0 0 11.321583
3.7037232 -0.2905485 3.6335731 0 0 0 0 11.326527
3.4545078 -0.35989171 3.1348991 0 0 0 0 11.331474
3.2806354 -0.41670388 2.7578084 0 0 0 0 11.336422
4.2239003 -0.097323596 4.526957 0 0 0 0 11.34137
3.9051158 -0.22035106 3.8295758 0 0 0 0 11.346317
3.6273263 -0.296397 3.287055 0 0 0 0 11.351261
3.4301119 -0.35615146 2.877095 0 0 0 0 11.356209
4.5017495 -0.0095732594 4.8305492 0 0 0 0 11.361156
4.1188736 -0.1436891 4.0395212 0 0 0 0 11.366104
3.8095765 -0.22430441 3.4491744 0 0 0 0 11.371052
3.6090038 -0.28989339 3.0212212 0 0 0 0 11.375999
4.7568741 0.088226274 5.1132989 0 0 0 0 11.380943
4.3501501 -0.057789348 4.268384 0 0 0 0 11.385891
4.0252295 -0.14768615 3.6421084 0 0 0 0 11.390839
3.7972777 -0.21603353 3.1743095 0 0 0 0 11.395786
5.1043329 0.20090036 5.4995389 0 0 0 0 11.400734
4.6201391 0.03840005 4.5380425 0 0 0 0 11.405682
4.2635107 -0.060056269 3.8589342 0 0 0 0 11.410625
3.9999204 -0.1357971 3.3423278 0 0 0 0 11.415573
5.2402406 0.31411093 5.6580243 0 0 0 0 11.420521
4.9067736 0.14687373 4.8266311 0 0 0 0 11.425468
4.5082479 0.037312407 4.0827436 0 0 0 0 11.430416
4.2664151 -0.04437295 3.5639961 0 0 0 0 11.435364
5.1954408 0.41843265 5.6245513 0 0 0 0 11.440308
5.2555308 0.271604 5.1788912 0 0 0 0 11.445255
4.8411603 0.14877878 4.3900666 0 0 0 0 11.450203
4.5374093 0.057877358 3.7926624 0 0 0 0 11.455151
5.1383653 0.51829261 5.5801401 0 0 0 0 11.460098
5.2614489 0.38466507 5.1951385 0 0 0 0 11.465042
5.1797833 0.27602988 4.7043924 0 0 0 0 11.46999
4.8402205 0.17474745 4.0501747 0 0 0 0 11.474937
5.1076055 0.62096804 5.5655789 0 0 0 0 11.479885
5.1996636 0.49173492 5.1487694 0 0 0 0 11.484833
5.2959108 0.40119717 4.8200188 0 0 0 0 11.48978
5.2475286 0.31202286 4.398119 0 0 0 0 11.494724
5.0757532 0.72168553 5.5510197 0 0 0 0 11.499672
5.1711626 0.60031658 5.1352077 0 0 0 0 11.50462
5.2252669 0.51265746 4.7677102 0 0 0 0 11.509567
5.3335629 0.44054952 4.4799285 0 0 0 0 11.514515
5.0509877 0.82307947 5.5464187 0 0 0 0 11.519463
5.2449508 0.72234279 5.2270746 0 0 0 0 11.524406
5.3113093 0.64016515 4.860517 0 0 0 0 11.529354
5.2490134 0.5556162 4.4207082 0 0 0 0 11.534302
5.0109701 0.92114687 5.5268993 0 0 0 0 11.539249
5.1962771 0.82981104 5.198626 0 0 0 0 11.544197
5.2770929 0.75599933 4.8460026 0 0 0 0 11.549145
5.3191175 0.68784893 4.493618 0 0 0 0 11.554089
4.9678931 1.0183439 5.5053954 0 0 0 0 11.559036
5.1627235 0.93759912 5.1870894 0 0 0 0 11.563984
5.2337189 0.86922759 4.8265347 0 0 0 0 11.568932
5.3033314 0.81086636 4.4980097 0 0 0 0 11.573879
4.9186087 1.1118094 5.4779186 0 0 0 0 11.578823
5.1251173 1.044558 5.1745739 0 0 0 0 11.583771
5.2389927 0.99030095 4.8537984 0 0 0 0 11.588718
5.2662902 0.93081379 4.4865184 0 0 0 0 11.593666
4.861155 1.2026286 5.4434824 0 0 0 0 11.598614
5.3052974 1.0644085 4.5436106 0 0 0 0 11.613453
4.8382869 1.3009036 5.4498591 0 0 0 0 11.618401
4.8725948 1.4166423 5.5219383 0 0 0 0 11.638187
5.2768292 1.6520096 6.0191126 0 0 0 0 11.657978
5.2442656 1.7587215 6.0235624 0 0 0 0 11.677765
4.7305779 1.6888129 5.4699554 0 0 0 0 11.438351
4.6760225 1.7754914 5.4474955 0 0 0 0 11.458138
4.6153517 1.8604348 5.4200659 0 0 0 0 11.477924
4.5699911 1.9496851 5.4125552 0 0 0 0 11.497711
5.2833848 2.1869416 5.6818762 0 0 0 0 11.502659
5.3333831 2.1725938 5.277554 0 0 0 0 11.507607
4.5297885 2.0417006 5.4120193 0 0 0 0 11.517502
4.4874897 2.1318023 5.41049 0 0 0 0 11.537289
4.4472909 2.2238052 5.4129519 0 0 0 0 11.557076
4.4091597 2.3167064 5.4214025 0 0 0 0 11.576866
4.3813448 2.4151464 5.4428029 0 0 0 0 11.596653
4.3784695 2.5304744 5.4990931 0 0 0 0 11.61644
4.3881583 2.6562412 5.5753303 0 0 0 0 11.63623
4.7348528 2.9971008 6.0860515 0 0 0 0 11.656017
4.6985502 3.1079082 6.1145248 0 0 0 0 11.675804
4.1925135 2.8964496 5.5280604 0 0 0 0 11.695595
4.1244912 2.9736254 5.5116448 0 0 0 0 11.715382
4.071032 3.0611527 5.5151658 0 0 0 0 11.735168
4.0249791 3.1563439 5.5326576 0 0 0 0 11.754955
4.7092237 3.8516994 5.254117 0 0 0 0 11.769798
3.9935884 3.2638824 5.5730891 0 0 0 0 11.774746
3.9466825 3.3620946 5.5965905 0 0 0 0 11.794533
3.9050207 3.4650719 5.6280699 0 0 0 0 11.81432
3.8582172 3.5652637 5.6575723 0 0 0 0 11.83411
3.811496 3.667448 5.6880774 0 0 0 0 11.853897
3.808212 3.8167143 5.7914257 0 0 0 0 11.873684
3.7533717 3.9172394 5.8179722 0 0 0 0 11.893475
3.675288 3.9906514 5.8103046 0 0 0 0 11.672726
3.7122784 4.1457491 5.5434093 0 0 0 0 11.67767
3.6175928 4.0933094 5.8408771 0 0 0 0 11.692513
3.6085341 4.2084165 5.5221663 0 0 0 0 11.69746
3.7552762 4.6831427 5.2832937 0 0 0 0 11.707352
3.5695004 4.2075324 5.8904161 0 0 0 0 11.712299
3.5473354 4.3211999 5.5667782 0 0 0 0 11.717247
3.6585929 4.6158786 5.5207396 0 0 0 0 11.722195
3.5890403 4.6954904 5.2143073 0 0 0 0 11.727142
3.517396 4.3219233 5.9389772 0 0 0 0 11.732086
3.5034168 4.4592066 5.6463404 0 0 0 0 11.737034
3.5280597 4.662674 5.4876161 0 0 0 0 11.741982
3.5051382 4.8152189 5.2670627 0 0 0 0 11.746929
3.4729304 4.4489655 6.0055194 0 0 0 0 11.751877
3.4383695 4.5751338 5.6979785 0 0 0 0 11.756824
3.4629245 4.7975855 5.5592928 0 0 0 0 11.761768
3.3816216 4.8816643 5.2659369 0 0 0 0 11.766716
3.4341402 4.5897465 6.0890555 0 0 0 0 11.771664
3.3725538 4.696084 5.7546296 0 0 0 0 11.776611
3.3311644 4.8394122 5.5251632 0 0 0 0 11.781559
3.2904012 4.9946852 5.3167176 0 0 0 0 11.786507
3.3634288 4.6929278 6.1226978 0 0 0 0 11.791451
3.3035986 4.8141608 5.8102913 0 0 0 0 11.796398
3.2609961 4.973515 5.6008649 0 0 0 0 11.801346
3.2069504 5.1233506 5.3864841 0 0 0 0 11.806293
3.2885628 4.793283 6.1523571 0 0 0 0 11.811241
3.2523744 4.9674425 5.9069219 0 0 0 0 11.816189
3.2019279 5.1301179 5.7025466 0 0 0 0 11.821133
3.1620219 5.3243132 5.533174 0 0 0 0 11.82608
3.212749 4.8946676 6.1850228 0 0 0 0 11.831028
3.1893749 5.1052322 5.986587 0 0 0 0 11.835976
3.1411777 5.2937832 5.8102503 0 0 0 0 11.840923
3.0826626 5.475769 5.6289597 0 0 0 0 11.845867
3.1197693 4.9727979 6.1897392 0 0 0 0 11.850815
3.1225705 5.2471709 6.0722814 0 0 0 0 11.855762
3.0633333 5.4351816 5.8960066 0 0 0 0 11.86071
3.0005918 5.6333237 5.7327719 0 0 0 0 11.865658
3.025748 5.049962 6.1954579 0 0 0 0 11.870605
3.0539417 5.3931789 6.1609926 0 0 0 0 11.875549
2.9838727 5.5846319 5.991786 0 0 0 0 11.880497
2.9212346 5.8057413 5.8535972 0 0 0 0 11.885445
2.9243805 5.1204371 6.1922035 0 0 0 0 11.890392
2.962683 5.5061674 6.2137656 0 0 0 0 11.89534
2.9081247 5.7489023 6.1045737 0 0 0 0 11.900288
2.8215065 5.9500308 5.9474812 0 0 0 0 11.905231
2.8217394 5.1849575 6.1859436 0 0 0 0 11.910179
2.8441286 5.5723424 6.2155995 0 0 0 0 11.915127
2.82528 5.9114656 6.2163959 0 0 0 0 11.920074
2.73558 6.1316957 6.0813589 0 0 0 0 11.925022
2.7203963 5.2554045 6.1886868 0 0 0 0 11.92997
2.7221482 5.6296577 6.209434 0 0 0 0 11.934914
2.7016335 5.9958067 6.2472935 0 0 0 0 11.939861
2.6574922 6.3519912 6.2542677 0 0 0 0 11.944809
2.6147707 5.3200259 6.1864414 0 0 0 0 11.949757
2.5969567 5.6820936 6.2032757 0 0 0 0 11.954704
2.5611949 6.0428724 6.2422104 0 0 0 0 11.959648
2.5063925 6.4054761 6.2652578 0 0 0 0 11.964596
2.5057139 5.3757911 6.1751966 0 0 0 0 11.969543
2.4728551 5.7364721 6.1991134 0 0 0 0 11.974491
2.4194434 6.0829806 6.2341199 0 0 0 0 11.979439
2.3448498 6.4284053 6.2502446 0 0 0 0 11.984386
2.402492 5.4482775 6.1869507 0 0 0 0 11.98933
2.346436 5.7839389 6.190949 0 0 0 0 11.994278
2.2732339 6.1132669 6.2190328 0 0 0 0 11.999226
2.1831024 6.4463234 6.2362213 0 0 0 0 12.004173
2.2891734 5.4981999 6.174716 0 0 0 0 12.009121
2.2167532 5.8255296 6.1807899 0 0 0 0 12.014069
2.1314692 6.1523414 6.2169371 0 0 0 0 12.019012
2.0259259 6.4760261 6.2351933 0 0 0 0 12.02396
2.1759629 5.5501013 6.1674829 0 0 0 0 12.028908
2.0857058 5.8591695 6.1656213 0 0 0 0 12.033855
1.9836791 6.1696706 6.1958303 0 0 0 0 12.038803
1.8601327 6.4710941 6.2061439 0 0 0 0 12.043751
2.0594192 5.5951395 6.153254 0 0 0 0 12.048695
1.9570926 5.9016848 6.1614552 0 0 0 0 12.053642
1.8358101 6.1849871 6.1757188 0 0 0 0 12.05859
1.7022461 6.4847994 6.1980848 0 0 0 0 12.063538
1.9441786 5.646101 6.1490283 0 0 0 0 12.068485
1.8320119 5.9550285 6.1712899 0 0 0 0 12.073429
1.7021852 6.2466488 6.2076173 0 0 0 0 12.078377
1.5664581 6.5844965 6.2760701 0 0 0 0 12.083324
1.8689343 5.8212581 6.2818208 0 0 0 0 12.088272
1.7646253 6.2107692 6.3921962 0 0 0 0 12.09322
1.610786 6.4813957 6.4106178 0 0 0 0 12.098167
1.4394013 6.7417693 6.4121189 0 0 0 0 12.103111
1.780444 5.9709868 6.3866358 0 0 0 0 12.108059
1.6287549 6.2475524 6.3890553 0 0 0 0 12.113007
1.4595367 6.4878116 6.3915033 0 0 0 0 12.117954
1.2771428 6.7466092 6.4060626 0 0 0 0 12.122902
1.6558342 6.0143132 6.3784442 0 0 0 0 12.12785
1.4904808 6.2754254 6.3809094 0 0 0 0 12.132793
1.3110111 6.5090837 6.3904009 0 0 0 0 12.137741
1.1130216 6.7325211 6.3869777 0 0 0 0 12.142689
1.5140394 6.062027 6.3717952 0 0 0 0 13.41835
1.3342144 6.3032455 6.3681936 0 0 0 0 13.423294
1.1423568 6.5168934 6.3746099 0 0 0 0 13.428242
0.93174875 6.7142816 6.3630981 0 0 0 0 13.433189
1.3873065 6.1040878 6.3685637 0 0 0 0 13.438137
1.1959015 6.3307357 6.3659987 0 0 0 0 13.443085
0.99088407 6.5168848 6.359436 0 0 0 0 13.448032
0.77427673 6.7124724 6.3629527 0 0 0 0 13.452976
1.259316 6.1401882 6.3613276 0 0 0 0 13.457924
1.0560664 6.3462796 6.3537893 0 0 0 0 13.462872
0.84256393 6.5197334 6.3512492 0 0 0 0 13.467819
0.613859 6.6887751 6.3457832 0 0 0 0 13.472767
1.1288089 6.1643815 6.3450828 0 0 0 0 13.477715
0.91620213 6.3608108 6.3435769 0 0 0 0 13.482658
0.69295084 6.5156217 6.339056 0 0 0 0 13.487606
0.45614746 6.6579604 6.3245859 0 0 0 0 13.492554
1.0012386 6.2094312 6.3518572 0 0 0 0 13.497501
0.7751326 6.3703761 6.3313613 0 0 0 0 13.502449
0.54512632 6.5064297 6.323843 0 0 0 0 13.507397
0.30093959 6.6380229 6.3173923 0 0 0 0 13.512341
0.8686232 6.2306805 6.337616 0 0 0 0 13.517288
0.6347245 6.3719063 6.3141265 0 0 0 0 13.522236
0.39746234 6.5002093 6.3166323 0 0 0 0 13.527184
0.14682592 6.5970411 6.2931561 0 0 0 0 13.532131
0.73601711 6.251915 6.3253736 0 0 0 0 13.537075
0.49390733 6.3864269 6.3129158 0 0 0 0 13.542023
0.25128397 6.4819245 6.3003926 0 0 0 0 13.54697
-0.0059103775 6.5639815 6.2809243 0 0 0 0 13.551918
0.60269654 6.2791567 6.3231444 0 0 0 0 13.556866
0.35349244 6.3869252 6.3016768 0 0 0 0 13.561813
0.10499659 6.460629 6.2851462 0 0 0 0 13.566757
-0.15684426 6.5258384 6.267673 0 0 0 0 13.571705
0.46776849 6.2924576 6.308898 0 0 0 0 13.576653
0.21255976 6.3754392 6.2804193 0 0 0 0 13.5816
-0.040234961 6.4402771 6.2728953 0 0 0 0 13.586548
-0.30520156 6.4775863 6.2473898 0 0 0 0 13.591496
0.33276767 6.3037477 6.2956476 0 0 0 0 13.596439
0.073303826 6.3788605 6.2771769 0 0 0 0 13.601387
-0.1847519 6.4128852 6.2576275 0 0 0 0 13.606335
-0.45150152 6.4302397 6.2300954 0 0 0 0 13.611282
0.19791956 6.3180122 6.2894006 0 0 0 0 13.61623
-0.067853421 6.3613544 6.2569075 0 0 0 0 13.621178
-0.32747713 6.380414 6.2393398 0 0 0 0 13.626122
-0.59613454 6.3748193 6.207778 0 0 0 0 13.631069
0.061637219 6.3223281 6.2741427 0 0 0 0 13.636017
-0.20668694 6.3507376 6.2466364 0 0 0 0 13.640965
-0.46870121 6.335875 6.2140226 0 0 0 0 13.645912
-0.73934704 6.3283195 6.1984668 0 0 0 0 13.650856
-0.075535245 6.3286595 6.2648911 0 0 0 0 13.655804
-0.3458105 6.3331223 6.2323542 0 0 0 0 13.660751
-0.60916489 6.30828 6.2077293 0 0 0 0 13.665699
-0.87755305 6.2586288 6.1690888 0 0 0 0 13.670647
-0.2129551 6.32899 6.2526302 0 0 0 0 13.675594
-0.48539868 6.3045177 6.2100539 0 0 0 0 13.680538
-0.74814314 6.2686229 6.1914062 0 0 0 0 13.685486
-1.0160353 6.2049212 6.1587386 0 0 0 0 13.690434
-0.3504025 6.3283067 6.2423663 0 0 0 0 13.695381
-0.62266326 6.2828026 6.1977525 0 0 0 0 13.700329
-0.88610262 6.2289114 6.1780767 0 0 0 0 13.705276
-1.1516799 6.1470938 6.1463652 0 0 0 0 13.71022
-0.48679253 6.3055825 6.2140584 0 0 0 0 13.715168
-0.76155835 6.2691293 6.1964722 0 0 0 0 13.720116
-1.0222961 6.1831179 6.1637268 0 0 0 0 13.725063
-1.2847923 6.0781646 6.1249585 0 0 0 0 13.730011
-0.62568575 6.3169169 6.2208204 0 0 0 0 13.734959
-0.8992244 6.2374067 6.1801543 0 0 0 0 13.739902
-1.1557884 6.1302142 6.1433496 0 0 0 0 13.74485
-1.4165672 6.0161605 6.1155558 0 0 0 0 13.749798
-0.76465106 6.303256 6.2065396 0 0 0 0 13.754745
-1.0341852 6.1985722 6.1588078 0 0 0 0 13.759693
-1.2881248 6.0802479 6.1299701 0 0 0 0 13.764641
-1.5413034 5.9318929 6.0840774 0 0 0 0 13.769585
-0.90276897 6.2855482 6.1922455 0 0 0 0 13.774532
-1.1706398 6.1707697 6.1524878 0 0 0 0 13.77948
-1.4205338 6.0282722 6.1165872 0 0 0 0 13.784428
-1.6674428 5.8606534 6.0696273 0 0 0 0 13.789375
-1.0418249 6.2688608 6.1819582 0 0 0 0 13.794319
-1.3055952 6.1309028 6.1381383 0 0 0 0 13.799267
-1.547455 5.9640827 6.093153 0 0 0 0 13.804214
-1.7916546 5.7873302 6.0551634 0 0 0 0 13.809162
-1.1782142 6.2440619 6.1666408 0 0 0 0 13.81411
-1.4368932 6.0828896 6.116755 0 0 0 0 13.819057
-1.6776884 5.9149914 6.0897613 0 0 0 0 13.824001
-1.9101638 5.7067823 6.0346565 0 0 0 0 13.828949
-1.3166326 6.218327 6.1523323 0 0 0 0 13.833897
-1.5689043 6.0408826 6.1053843 0 0 0 0 13.838844
-1.8017439 5.8466663 6.0683041 0 0 0 0 13.843792
-2.0276515 5.6261821 6.0171432 0 0 0 0 13.84874
-1.4532843 6.1865115 6.1370034 0 0 0 0 13.853683
-1.7002441 5.9908419 6.0889959 0 0 0 0 13.858631
-1.9228722 5.7762184 6.0468273 0 0 0 0 13.863579
-2.145812 5.5525889 6.009645 0 0 0 0 13.868526
-1.5890971 6.1506534 6.1196618 0 0 0 0 13.873474
-1.8287016 5.9376802 6.0715861 0 0 0 0 13.878422
-2.0448098 5.7097864 6.0313601 0 0 0 0 13.883366
-2.2474601 5.4443846 5.967 0 0 0 0 13.888313
-1.7175426 6.1073856 6.0984426 0 0 0 0 13.445351
-1.951605 5.8863778 6.0583286 0 0 0 0 13.450294
-2.1585953 5.6412983 6.0150266 0 0 0 0 13.455242
-2.2695577 5.1706629 5.7388086 0 0 0 0 13.46019
-1.8551272 6.076683 6.0921283 0 0 0 0 13.465137
-2.0790713 5.833262 6.0469208 0 0 0 0 13.470085
-2.2712669 5.5585976 5.9894872 0 0 0 0 13.475033
-2.3749714 5.0916529 5.7292371 0 0 0 0 13.479977
-1.9892715 6.0328412 6.0757723 0 0 0 0 13.484924
-2.2021348 5.7659698 6.0254641 0 0 0 0 13.489872
-2.3013349 5.286849 5.7581697 0 0 0 0 13.49482
-2.4765537 5.0084877 5.7166376 0 0 0 0 13.499767
-2.1198359 5.9788513 6.0533781 0 0 0 0 13.504711
-2.3259656 5.7036929 6.0100193 0 0 0 0 13.509659
-2.4087617 5.2089252 5.7386098 0 0 0 0 13.514606
-2.5724375 4.918098 5.6979942 0 0 0 0 13.519554
-2.2549727 5.9340158 6.044024 0 0 0 0 13.524502
-2.3580887 5.4310274 5.7727122 0 0 0 0 13.529449
-2.5178497 5.1380458 5.7300715 0 0 0 0 13.534393
-2.6690819 4.8327227 5.6863637 0 0 0 0 13.539341
-2.3837183 5.8749294 6.0226097 0 0 0 0 13.544289
-2.4713285 5.3583255 5.7511916 0 0 0 0 13.549236
-2.6249726 5.066081 5.7215199 0 0 0 0 13.554184
-2.7619376 4.7421961 5.6707034 0 0 0 0 13.559132
-2.422734 5.6045241 5.7873445 0 0 0 0 13.564075
-2.5907912 5.3028378 5.7497344 0 0 0 0 13.569023
-2.7247074 4.9798307 5.6999035 0 0 0 0 13.573971
-2.8452892 4.6403055 5.6419725 0 0 0 0 13.578918
-2.5483093 5.5482903 5.7729177 0 0 0 0 13.583866
-2.7039046 5.2321048 5.7352161 0 0 0 0 13.588814
-2.8223872 4.8944921 5.6802769 0 0 0 0 13.593758
-2.9406004 4.5608397 5.6453443 0 0 0 0 13.598705
-2.6747203 5.495069 5.7665 0 0 0 0 13.603653
-2.8076749 5.1460109 5.7066202 0 0 0 0 13.608601
-2.9227724 4.815239 5.6706758 0 0 0 0 13.613548
-3.0198848 4.4597759 5.6195922 0 0 0 0 13.618492
-2.7947423 5.4276004 5.7470226 0 0 0 0 13.62344
-2.9196622 5.0772076 5.6990981 0 0 0 0 13.628387
-3.0165906 4.7257314 5.6520209 0 0 0 0 13.633335
-3.1047289 4.3679037 5.6088858 0 0 0 0 13.638283
-2.9137821 5.3590798 5.7305384 0 0 0 0 13.64323
-3.023304 4.993084 5.6775045 0 0 0 0 13.648174
-3.0999038 4.6248226 5.6202898 0 0 0 0 13.653122
-3.1875508 4.2759438 5.6011686 0 0 0 0 13.65807
-3.0338049 5.2905846 5.7160583 0 0 0 0 13.663017
-3.126797 4.9119411 5.6609149 0 0 0 0 13.667965
-3.1953716 4.5423517 5.613656 0 0 0 0 13.672913
-3.2550728 4.1684098 5.5713425 0 0 0 0 13.677856
-3.1472878 5.2108302 5.6945233 0 0 0 0 13.682804
-3.2312169 4.8318195 5.6493316 0 0 0 0 13.687752
-3.2803779 4.4474831 5.5929441 0 0 0 0 13.692699
-3.3262935 4.0670009 5.552547 0 0 0 0 13.697647
-3.2653558 5.140234 5.6840281 0 0 0 0 13.702595
-3.3318419 4.7465444 5.6347189 0 0 0 0 13.707539
-3.3690894 4.3587399 5.5822625 0 0 0 0 13.712486
-3.4021308 3.9737523 5.5457902 0 0 0 0 13.717434
-3.3769708 5.0563846 5.664475 0 0 0 0 13.722382
-3.4201419 4.6458044 5.6020131 0 0 0 0 13.727329
-3.4557846 4.2699099 5.5735703 0 0 0 0 13.732273
-3.4702835 3.8732114 5.5299792 0 0 0 0 13.737221
-3.4856195 4.9714122 5.6449041 0 0 0 0 13.742168
-3.5206385 4.5625005 5.5944028 0 0 0 0 13.747116
-3.5320158 4.168684 5.5508003 0 0 0 0 13.752064
-3.5316133 3.7684078 5.5091252 0 0 0 0 13.757011
-3.5971067 4.8895321 5.6323533 0 0 0 0 13.761955
-3.6135216 4.4699025 5.5787354 0 0 0 0 13.766903
-3.609091 4.070477 5.5340409 0 0 0 0 13.771851
-3.6014595 3.6739099 5.504334 0 0 0 0 13.776798
-3.7019746 4.7983932 5.6127515 0 0 0 0 13.781746
-3.7034433 4.3761849 5.5620508 0 0 0 0 13.786694
-3.6889222 3.9773624 5.5253038 0 0 0 0 13.791637
-3.6616704 3.5710485 5.4884777 0 0 0 0 13.796585
-3.8067803 4.7082405 5.5961504 0 0 0 0 13.801533
-3.7943354 4.2824917 5.5493708 0 0 0 0 13.80648
-3.7630117 3.8780265 5.5105262 0 0 0 0 13.811428
-3.7169256 3.4669952 5.4705925 0 0 0 0 13.816376
-3.9116397 4.616076 5.5825462 0 0 0 0 13.82132
-3.8804357 4.1836109 5.5326562 0 0 0 0 13.826267
-3.8283718 3.7723589 5.4876914 0 0 0 0 13.831215
-3.7663183 3.3597193 5.4476714 0 0 0 0 13.836163
-4.0126247 4.5207577 5.5659151 0 0 0 0 13.84111
-3.9597073 4.0804658 5.511898 0 0 0 0 13.846054
-3.89557 3.6697485 5.4718714 0 0 0 0 13.851002
-3.8166368 3.2534683 5.4297571 0 0 0 0 13.855949
-4.0982656 4.4098577 5.5341763 0 0 0 0 13.860897
-4.033236 3.9711001 5.4850993 0 0 0 0 13.865845
-3.9569111 3.5639167 5.4500151 0 0 0 0 13.870792
-3.8898993 3.1700513 5.4480042 0 0 0 0 13.875736
-4.1858373 4.3000197 5.5064497 0 0 0 0 13.880684
-4.1133327 3.8709652 5.4723506 0 0 0 0 13.885632
-4.140357 3.5645537 5.5999885 0 0 0 0 13.890579
-4.077971 3.1758244 5.6290126 0 0 0 0 13.895527
-4.2799716 4.199409 5.4937735 0 0 0 0 13.900475
-4.3529291 3.9146848 5.6716928 0 0 0 0 13.905418
-4.2431941 3.4902205 5.6384053 0 0 0 0 13.910366
-4.1214814 3.0642984 5.6080532 0 0 0 0 13.915314
-4.5349331 4.2554903 5.6894689 0 0 0 0 13.549099
-4.4273882 3.8080032 5.6571164 0 0 0 0 13.554047
-4.2961221 3.3796268 5.6166692 0 0 0 0 13.558994
-4.1653948 2.9602523 5.595242 0 0 0 0 13.563938
-4.6323476 4.149045 5.6797996 0 0 0 0 13.568886
-4.4961805 3.692466 5.6352787 0 0 0 0 13.573833
-4.3632474 3.2780106 5.6148496 0 0 0 0 13.578781
-4.2058697 2.8506265 5.5792661 0 0 0 0 13.583729
-4.7200699 4.0352225 5.663065 0 0 0 0 13.588676
-4.5707116 3.5821345 5.6234818 0 0 0 0 13.59362
-4.4158926 3.1648474 5.5959315 0 0 0 0 13.598568
-4.2404056 2.7397752 5.5582566 0 0 0 0 13.603516
-4.7932892 3.9098446 5.6332331 0 0 0 0 13.608463
-4.6374216 3.4674997 5.6066351 0 0 0 0 13.613411
-4.4665308 3.0516031 5.5770025 0 0 0 0 13.618359
-4.2778158 2.6310234 5.5442667 0 0 0 0 13.623302
-4.8790107 3.7949257 5.6204867 0 0 0 0 13.62825
-4.7079606 3.355998 5.597815 0 0 0 0 13.633198
-4.513196 2.9371991 5.5590506 0 0 0 0 13.638145
-4.3141356 2.5242267 5.5312748 0 0 0 0 13.643093
-4.9453807 3.6652722 5.5886106 0 0 0 0 13.648041
-4.7678275 3.2370911 5.5779252 0 0 0 0 13.652985
-4.5704546 2.8311834 5.5561714 0 0 0 0 13.657932
-4.3513751 2.4184546 5.5242901 0 0 0 0 13.66288
-5.0204268 3.5419316 5.5707922 0 0 0 0 13.667828
-4.8266644 3.118134 5.5620294 0 0 0 0 13.672775
-4.6111555 2.7155452 5.5361862 0 0 0 0 13.677719
-4.3768444 2.3082449 5.5032344 0 0 0 0 13.682667
-5.0934153 3.4195039 5.5549655 0 0 0 0 13.687614
-4.8815389 2.9980211 5.5451112 0 0 0 0 13.692562
-4.6449952 2.5966451 5.5111589 0 0 0 0 13.69751
-4.408082 2.2022402 5.4942179 0 0 0 0 13.702457
-5.1625118 3.2939188 5.5391116 0 0 0 0 13.707401
-4.9315057 2.8757198 5.5241628 0 0 0 0 13.712349
-4.6875124 2.48406 5.5001898 0 0 0 0 13.717297
-4.4334149 2.0940113 5.4811668 0 0 0 0 13.722244
-5.2276897 3.1661799 5.5212345 0 0 0 0 13.727192
-4.9765434 2.7512243 5.5031848 0 0 0 0 13.73214
-4.7240791 2.3702469 5.486187 0 0 0 0 13.737083
-4.4547625 1.9856335 5.4640937 0 0 0 0 13.742031
-5.2859936 3.0351746 5.5003142 0 0 0 0 13.746979
-5.0292702 2.633007 5.4942598 0 0 0 0 13.751926
-4.7557397 2.2542477 5.4681549 0 0 0 0 13.756874
-4.4789472 1.8803549 5.454042 0 0 0 0 13.761822
-5.3491249 2.9073405 5.4874268 0 0 0 0 13.766766
-5.0624933 2.5040612 5.4652119 0 0 0 0 13.771713
-4.7941675 2.1424906 5.4621668 0 0 0 0 13.776661
-4.4962268 1.7728146 5.43995 0 0 0 0 13.781609
-5.3946795 2.7698426 5.4604282 0 0 0 0 13.786556
-5.1161246 2.3868618 5.463294 0 0 0 0 13.7915
-4.8218017 2.0263295 5.4461141 0 0 0 0 13.796448
-4.5173535 1.6684153 5.4308848 0 0 0 0 13.801395
-5.4606581 2.6440959 5.4575601 0 0 0 0 13.806343
-5.1492133 2.2598963 5.4412503 0 0 0 0 13.811291
-4.8464336 1.9100534 5.4290452 0 0 0 0 13.816238
-4.536468 1.5639362 5.4228096 0 0 0 0 13.821182
-5.496285 2.5042131 5.4285064 0 0 0 0 13.82613
-5.1831827 2.1349549 5.4252148 0 0 0 0 13.831078
-4.8395896 1.7836128 5.3807917 0 0 0 0 13.836025
-4.5476885 1.457162 5.4086885 0 0 0 0 13.840973
-5.5495138 2.3719754 5.4195595 0 0 0 0 13.845921
-4.7101536 1.8123077 4.8811355 0 0 0 0 13.850864
-4.4428506 1.5238419 4.9022284 0 0 0 0 13.855812
-4.5489559 1.3500209 5.3855138 0 0 0 0 13.86076
-5.0585208 2.0206099 4.8833365 0 0 0 0 13.865707
-4.7356753 1.6980644 4.8660769 0 0 0 0 13.870655
-4.4354029 1.4113921 4.861999 0 0 0 0 13.875603
-4.56495 1.2474159 5.3814263 0 0 0 0 13.880547
-5.0737596 1.8899751 4.850194 0 0 0 0 13.885494
-5.2789822 1.7598689 5.3870807 0 0 0 0 13.890442
-4.4701967 1.3124881 4.8710189 0 0 0 0 13.89539
-4.5631647 1.1411588 5.3582392 0 0 0 0 13.900337
-5.6588559 1.9593549 5.364428 0 0 0 0 13.905281
-5.3009586 1.6334614 5.3709812 0 0 0 0 13.910229
-4.4694614 1.2052766 4.8448358 0 0 0 0 13.915176
-5.6912742 1.8213166 5.3503637 0 0 0 0 13.925072
-5.3248639 1.5081207 5.3588948 0 0 0 0 13.930019
-4.4844584 1.1026398 4.8367448 0 0 0 0 13.934963
-5.7147956 1.6809458 5.3302484 0 0 0 0 13.944859
-5.3359361 1.3793036 5.3367357 0 0 0 0 13.949806
-5.7382088 1.5425649 5.3141365 0 0 0 0 13.964645
-5.3508716 1.2526208 5.3236008 0 0 0 0 13.969593
-0.51740712 0.084559292 0.51692295 0 0 0 0 13.974541
-5.7606444 1.4031433 5.2990189 0 0 0 0 13.984436
-0.46938956 0.064802147 0.46465477 0 0 0 0 13.994328
-5.7781048 1.26253 5.284874 0 0 0 0 14.004223
-0.48621532 0.072474152 0.44377133 0 0 0 0 14.009171
-0.47572505 0.05502823 0.46969271 0 0 0 0 14.014118
-5.8263779 1.132745 5.3020196 0 0 0 0 13.750225
-0.48384947 0.060381521 0.43848079 0 0 0 0 13.755173
-0.46044585 0.042453174 0.45133045 0 0 0 0 13.760117
-0.47733966 0.04813388 0.43144542 0 0 0 0 13.77496
-0.45883355 0.032389659 0.44832525 0 0 0 0 13.779907
-0.48233977 0.052373797 0.40049395 0 0 0 0 13.789799
-0.45592031 0.035338383 0.40932921 0 0 0 0 13.794746
-0.45162553 0.012115254 0.43929347 0 0 0 0 13.819481
-0.47525233 0.029101187 0.39045751 0 0 0 0 13.829376
-0.45272535 0.01421079 0.40431762 0 0 0 0 13.834324
-0.45227861 -0.0058714054 0.44030803 0 0 0 0 13.859058
-0.4701001 0.0068983589 0.38443372 0 0 0 0 13.868954
-0.45043939 -0.0048830719 0.40131462 0 0 0 0 13.873898
-0.45299962 -0.025858359 0.44231996 0 0 0 0 13.898632
-0.47484028 -0.013942622 0.38946548 0 0 0 0 13.908527
-0.45712849 -0.024650475 0.40835884 0 0 0 0 13.913475
-0.45470616 -0.045810748 0.44633749 0 0 0 0 13.93821
-0.48061448 -0.035745639 0.39450139 0 0 0 0 13.948105
-0.47283059 -0.046092607 0.42544863 0 0 0 0 13.953053
-0.46236801 -0.06554763 0.45738739 0 0 0 0 13.977787
-0.49241945 -0.059332456 0.40656674 0 0 0 0 13.987679
-0.47759083 -0.067936793 0.4324795 0 0 0 0 13.992626
-0.52115148 -0.09543965 0.52369308 0 0 0 0 14.017361
-0.53629762 -0.088757977 0.44979334 0 0 0 0 14.027256
-0.54346555 -0.1005702 0.50181806 0 0 0 0 14.032204
-0.53757715 -0.10986066 0.54477751 0 0 0 0 14.037151
-0.56677842 -0.10566446 0.47994834 0 0 0 0 14.047043
-0.56392008 -0.11584265 0.5239225 0 0 0 0 14.051991
-4.7425184 -0.97343826 5.1487427 0 0 0 0 14.056938
-4.3256278 -0.99026144 5.1885095 0 0 0 0 14.061886
-5.5637388 -1.0595158 5.0739527 0 0 0 0 14.066833
-5.1216984 -1.0722777 5.1095929 0 0 0 0 14.071777
-4.7123804 -1.0767896 5.1434212 0 0 0 0 14.076725
-4.3030314 -1.0823138 5.190248 0 0 0 0 14.081673
-5.5175591 -1.1875075 5.0595031 0 0 0 0 14.08662
-5.0849829 -1.1868957 5.1022172 0 0 0 0 14.091568
-4.6711454 -1.1765393 5.128047 0 0 0 0 14.096516
-4.2773337 -1.1714747 5.1889753 0 0 0 0 14.10146
-5.4763608 -1.3163198 5.0530796 0 0 0 0 14.106407
-5.0472493 -1.3015515 5.096837 0 0 0 0 14.111355
-4.6358929 -1.2770724 5.1207047 0 0 0 0 14.116302
-4.2355742 -1.2572118 5.1716242 0 0 0 0 14.12125
-5.4401069 -1.4449539 5.0546842 0 0 0 0 14.126198
-5.0034518 -1.4144264 5.088429 0 0 0 0 14.131142
-4.6046624 -1.379464 5.1213818 0 0 0 0 14.136089
-4.2048388 -1.3455532 5.1683283 0 0 0 0 14.141037
-5.3766828 -1.5665673 5.0331578 0 0 0 0 14.145985
-4.9585705 -1.525337 5.0800195 0 0 0 0 14.150932
-4.567337 -1.479074 5.118032 0 0 0 0 14.155876
-4.1740537 -1.4328945 5.1660347 0 0 0 0 14.160824
-5.3242426 -1.6897843 5.0256877 0 0 0 0 14.165771
-4.9106398 -1.6353587 5.0725965 0 0 0 0 14.170719
-4.5249214 -1.5758626 5.1096611 0 0 0 0 14.175667
-4.1351862 -1.5175256 5.1577034 0 0 0 0 14.180614
-5.2778583 -1.8157833 5.0262475 0 0 0 0 14.185558
-4.864646 -1.7443073 5.0681868 0 0 0 0 14.190506
-4.4774742 -1.6718324 5.0992661 0 0 0 0 14.195454
-4.0973382 -1.6031187 5.1513772 0 0 0 0 14.200401
-5.2111888 -1.9325083 5.0107155 0 0 0 0 14.205349
-4.8075757 -1.8506548 5.0567241 0 0 0 0 14.210297
-4.4370375 -1.7695514 5.098906 0 0 0 0 14.21524
-4.0584102 -1.6867477 5.1450496 0 0 0 0 14.220188
-5.1520348 -2.0498283 5.0051775 0 0 0 0 14.089348
-4.7579689 -1.9567028 5.053246 0 0 0 0 14.094296
-4.3950171 -1.8653948 5.097477 0 0 0 0 14.099243
-4.0229011 -1.7704272 5.1456661 0 0 0 0 14.104191
-5.0923805 -2.1683176 5.0026779 0 0 0 0 14.109138
-4.7058601 -2.0628834 5.050808 0 0 0 0 14.114082
-4.3434205 -1.9575214 5.0880656 0 0 0 0 14.11903
-3.9708724 -1.8495317 5.1262746 0 0 0 0 14.123978
-5.0245709 -2.2820945 4.9931445 0 0 0 0 14.128925
-4.644588 -2.1643932 5.0433302 0 0 0 0 14.133873
-4.2836723 -2.0449367 5.0716195 0 0 0 0 14.138821
-3.9308515 -1.9312069 5.1239438 0 0 0 0 14.143764
-4.9547334 -2.3959477 4.9876018 0 0 0 0 14.148712
-4.5924358 -2.2705734 5.0458946 0 0 0 0 14.15366
-4.2299719 -2.1351361 5.0652022 0 0 0 0 14.158607
-3.8873091 -2.0122781 5.1191158 0 0 0 0 14.163555
-4.8924141 -2.5107086 4.9894967 0 0 0 0 14.168503
-4.5275741 -2.3694201 5.0368419 0 0 0 0 14.173447
-4.1808653 -2.2284138 5.0642815 0 0 0 0 14.178394
-3.8463056 -2.0949926 5.1197724 0 0 0 0 14.183342
-4.8163633 -2.6187806 4.9809246 0 0 0 0 14.18829
-4.4621339 -2.4670749 5.0303445 0 0 0 0 14.193237
-4.1321836 -2.3204358 5.0668826 0 0 0 0 14.198181
-3.7991862 -2.1739197 5.1134048 0 0 0 0 14.203129
-4.7300472 -2.7192152 4.9653139 0 0 0 0 14.208076
-4.391561 -2.5609078 5.0198288 0 0 0 0 14.213024
-4.0722923 -2.405854 5.0594373 0 0 0 0 14.217972
-3.7530715 -2.2538135 5.112042 0 0 0 0 14.222919
-4.4930263 -2.7279811 4.7890763 0 0 0 0 14.227863
-4.1764183 -2.5658371 4.8437114 0 0 0 0 14.232811
-3.8648641 -2.4004474 4.8663793 0 0 0 0 14.237759
-3.6214521 -2.2786872 4.9923277 0 0 0 0 14.242706
-4.4176168 -2.8280096 4.7875261 0 0 0 0 14.247654
-4.1066623 -2.6556263 4.8372092 0 0 0 0 14.252602
-3.8098524 -2.4836755 4.8649654 0 0 0 0 14.257545
-3.5182056 -2.3185596 4.9117374 0 0 0 0 14.262493
-4.3421836 -2.9280369 4.7889776 0 0 0 0 14.267441
-4.0500951 -2.7529492 4.8487644 0 0 0 0 14.272388
-3.7568765 -2.5688338 4.8695602 0 0 0 0 14.277336
-3.4677944 -2.3905873 4.9073682 0 0 0 0 14.282284
-4.2646751 -3.0261328 4.789423 0 0 0 0 14.287228
-3.9761086 -2.83688 4.8412528 0 0 0 0 14.292175
-3.6967163 -2.6482394 4.8661284 0 0 0 0 14.297123
-3.4286232 -2.4712219 4.919044 0 0 0 0 14.302071
-4.1788964 -3.1165166 4.7838397 0 0 0 0 14.307018
-3.9041948 -2.9237382 4.8397479 0 0 0 0 14.311962
-3.637598 -2.7296102 4.8677001 0 0 0 0 14.31691
-3.3751655 -2.5423548 4.9146628 0 0 0 0 14.321857
-4.0910759 -3.2059689 4.7782488 0 0 0 0 14.326805
-3.8331885 -3.0085588 4.8402529 0 0 0 0 14.331753
-3.5764058 -2.8090506 4.8682652 0 0 0 0 14.3367
-3.322696 -2.6134481 4.9112878 0 0 0 0 14.341644
-4.0062466 -3.2963135 4.7796741 0 0 0 0 14.346592
-3.7571151 -3.0915573 4.8387356 0 0 0 0 14.35154
-3.5110445 -2.8836315 4.8648181 0 0 0 0 14.356487
-3.2691693 -2.6835802 4.9109101 0 0 0 0 14.361435
-3.9223621 -3.3856187 4.7831063 0 0 0 0 14.366383
-3.6809609 -3.1725516 4.8372226 0 0 0 0 14.371326
-3.4457309 -2.9602129 4.8653693 0 0 0 0 14.376274
-3.2146478 -2.7537417 4.9085279 0 0 0 0 14.381222
-3.8251333 -3.4643872 4.7744889 0 0 0 0 14.386169
-3.5955141 -3.2448668 4.8276772 0 0 0 0 14.391117
-3.3803427 -3.0347888 4.8649244 0 0 0 0 14.396065
-3.1590798 -2.8229389 4.9071431 0 0 0 0 14.401009
-3.7391102 -3.55076 4.7809186 0 0 0 0 14.405956
-3.5141387 -3.320035 4.8241501 0 0 0 0 14.410904
-3.3098559 -3.1065421 4.8614588 0 0 0 0 14.415852
-3.1024644 -2.891171 4.9067554 0 0 0 0 14.420799
-3.6459305 -3.6323783 4.7813201 0 0 0 0 14.425743
-3.4337733 -3.3961658 4.8246269 0 0 0 0 14.430691
-3.2413368 -3.1782241 4.8630047 0 0 0 0 14.435638
-3.0417564 -2.956542 4.9023519 0 0 0 0 14.440586
-3.5494981 -3.7071025 4.7797184 0 0 0 0 14.445534
-3.3544445 -3.474262 4.8311076 0 0 0 0 14.450481
-3.1697235 -3.2470071 4.8605409 0 0 0 0 14.455425
-2.9820318 -3.0218747 4.8999553 0 0 0 0 14.460373
-3.4561377 -3.7847157 4.7841287 0 0 0 0 14.465321
-3.2687955 -3.5425639 4.8275733 0 0 0 0 14.470268
-3.0960643 -3.3148608 4.8590684 0 0 0 0 14.475216
-2.9233816 -3.0901735 4.9035597 0 0 0 0 14.480164
-3.3565426 -3.85554 4.7835197 0 0 0 0 14.485107
-3.1790063 -3.6070063 4.8220253 0 0 0 0 14.490055
-3.0265036 -3.3865714 4.8656125 0 0 0 0 14.495003
-2.8616014 -3.1545749 4.9031558 0 0 0 0 14.49995
-3.2579577 -3.9273255 4.7869153 0 0 0 0 14.504898
-3.0974722 -3.6801617 4.8295064 0 0 0 0 14.509846
-2.9475727 -3.446594 4.858129 0 0 0 0 14.51479
-2.7987847 -3.2180073 4.9017491 0 0 0 0 14.519737
-3.1572263 -3.995178 4.7893085 0 0 0 0 14.524685
-3.0055585 -3.741668 4.824955 0 0 0 0 14.529633
