# .PCD v0.7 - Point Cloud Data file format
VERSION 0.7
FIELDS x y z normal_x normal_y normal_z intensity curvature
SIZE 4 4 4 4 4 4 4 4
TYPE F F F F F F F F
COUNT 1 1 1 1 1 1 1 1
WIDTH 941
HEIGHT 1
VIEWPOINT 0 0 0 1 0 0 0
POINTS 941
DATA ascii
-3.3267856 -2.6024835 0.033362772 0 0 0 0 11.941491
-2.8679612 -2.5277829 -0.18743309 0 0 0 0 11.946438
-2.8843212 -2.482511 -0.11066101 0 0 0 0 11.951385
-2.902669 -2.4372988 -0.043891139 0 0 0 0 11.956332
-3.3270528 -2.7244725 0.03195386 0 0 0 0 11.961279
-2.8662179 -2.6517525 -0.18682832 0 0 0 0 11.966227
-2.8905706 -2.6075332 -0.11106101 0 0 0 0 11.971173
-2.9049532 -2.5563021 -0.045314729 0 0 0 0 11.97612
-3.318331 -2.8444173 0.028545445 0 0 0 0 11.981068
-2.8753853 -2.790792 -0.1871666 0 0 0 0 11.986014
-2.8927982 -2.7365317 -0.11143821 0 0 0 0 11.990961
-2.9032404 -2.6752768 -0.045734338 0 0 0 0 11.995909
-3.3234987 -2.9834404 0.026209248 0 0 0 0 12.000855
-2.8765616 -2.9287791 -0.18650101 0 0 0 0 12.005802
-2.890033 -2.8645 -0.11181499 0 0 0 0 12.010749
-2.9064622 -2.8052859 -0.047108795 0 0 0 0 12.015697
-3.3177102 -3.1153982 0.023852296 0 0 0 0 12.020643
-2.8717399 -3.0667305 -0.18582913 0 0 0 0 12.02559
-2.8961802 -3.0075216 -0.11213268 0 0 0 0 12.030538
-2.9036918 -2.9342592 -0.048481621 0 0 0 0 12.035484
-3.3118858 -3.2533605 0.020522824 0 0 0 0 12.040431
-2.875807 -3.2237351 -0.18507941 0 0 0 0 12.045379
-2.8933413 -3.1484897 -0.1124499 0 0 0 0 12.050325
-2.9048572 -3.0742557 -0.049808268 0 0 0 0 12.055272
-3.3119805 -3.4053581 0.017251194 0 0 0 0 12.060219
-2.8699117 -3.3746803 -0.18434691 0 0 0 0 12.065166
-2.8894508 -3.2984517 -0.11272445 0 0 0 0 12.070113
-2.9049881 -3.2202511 -0.052106366 0 0 0 0 12.07506
-3.3120532 -3.5613556 0.013997416 0 0 0 0 12.080008
-2.8679163 -3.5426536 -0.18454021 0 0 0 0 12.084954
-2.8944671 -3.4644666 -0.11293558 0 0 0 0 12.089901
-2.9011097 -3.3682179 -0.053391155 0 0 0 0 12.094849
-3.3001339 -3.7162819 0.010752487 0 0 0 0 12.099795
-2.8748105 -3.7296796 -0.18465616 0 0 0 0 12.104742
-2.8924665 -3.6334443 -0.11412518 0 0 0 0 12.10969
-2.9051197 -3.5352364 -0.05559729 0 0 0 0 12.114636
-3.3010964 -3.8912895 0.0065848297 0 0 0 0 12.119583
-2.8657687 -3.9066014 -0.18280087 0 0 0 0 12.12453
-2.8894401 -3.8074117 -0.11429117 0 0 0 0 12.129478
-2.9090784 -3.7112544 -0.057762258 0 0 0 0 12.134424
-3.2920866 -4.062233 0.0034094574 0 0 0 0 12.139371
-2.8665729 -4.109592 -0.18283679 0 0 0 0 12.144319
-2.888315 -3.9983902 -0.1143809 0 0 0 0 12.149265
-2.90801 -3.8922427 -0.059898801 0 0 0 0 12.154212
-3.289952 -4.2542272 -0.00167695 0 0 0 0 12.15916
-2.8603563 -4.3165402 -0.18284665 0 0 0 0 12.164106
-2.8801796 -4.1913323 -0.11545385 0 0 0 0 12.169053
-2.9039083 -4.0792131 -0.062004671 0 0 0 0 12.174
-3.2827919 -4.4511867 -0.0057349964 0 0 0 0 12.178947
-3.2394156 -5.152863 -0.2013963 0 0 0 0 12.183894
-3.2525206 -4.9815769 -0.12621127 0 0 0 0 12.188841
-2.895756 -4.2751598 -0.0640646 0 0 0 0 12.193789
-3.27755 -4.6621628 -0.010731095 0 0 0 0 12.198735
-3.0783575 -5.1658535 -0.19312416 0 0 0 0 12.203682
-3.231164 -5.213439 -0.12709124 0 0 0 0 12.20863
-3.2561386 -5.0603127 -0.070835933 0 0 0 0 12.213576
-3.272217 -4.8891382 -0.015653584 0 0 0 0 12.218523
-2.9203053 -5.1778641 -0.18485926 0 0 0 0 12.223471
-3.038455 -5.1662636 -0.12305973 0 0 0 0 12.228417
-3.1723893 -5.1888118 -0.073120974 0 0 0 0 12.233364
-3.268775 -5.1351247 -0.020491054 0 0 0 0 12.238311
-2.7682521 -5.1899166 -0.17760064 0 0 0 0 12.243258
-2.8814263 -5.173305 -0.11981852 0 0 0 0 12.248205
-3.0163548 -5.1958828 -0.07488139 0 0 0 0 12.253152
-3.1364985 -5.1823578 -0.027094269 0 0 0 0 12.2581
-2.6399522 -5.2441106 -0.1701744 0 0 0 0 12.263046
-2.7293963 -5.1803827 -0.11758236 0 0 0 0 12.267993
-2.8395503 -5.1638279 -0.075796761 0 0 0 0 12.272941
-2.9775105 -5.1804361 -0.033892058 0 0 0 0 12.277887
-2.5294261 -5.3364248 -0.16559246 0 0 0 0 12.282834
-2.6040967 -5.2336192 -0.11516392 0 0 0 0 12.287782
-2.7103031 -5.2070646 -0.078420259 0 0 0 0 12.292728
-2.8254871 -5.184557 -0.040669352 0 0 0 0 12.297675
-2.5054491 -5.3460231 -0.11450326 0 0 0 0 12.30757
-2.5889578 -5.267344 -0.07997375 0 0 0 0 12.312516
-2.7031531 -5.2418537 -0.047235824 0 0 0 0 12.317463
-2.5946503 -5.3282328 -0.053684104 0 0 0 0 12.337252
-1.4077139 -5.9885178 -0.11188628 0 0 0 0 12.506097
-1.4904885 -5.860939 -0.10353109 0 0 0 0 12.535779
-1.481436 -5.8709359 -0.11745978 0 0 0 0 12.560514
0.4140816 -5.8235488 -0.031596869 0 0 0 0 12.763341
0.41908193 -5.8187323 -0.078591727 0 0 0 0 12.788076
0.3035827 -5.896666 -0.13835429 0 0 0 0 12.793023
0.17684136 -5.9316816 -0.20232256 0 0 0 0 12.79797
0.4330568 -5.8069277 -0.13960899 0 0 0 0 12.812811
0.31498143 -5.9569297 -0.21104965 0 0 0 0 12.817759
0.44113141 -5.8102145 -0.21356422 0 0 0 0 12.837546
1.3887895 -5.3299732 0.0059294235 0 0 0 0 13.457733
1.4779819 -5.1864672 0.0094183339 0 0 0 0 13.477521
1.3937794 -5.3162827 -0.069098905 0 0 0 0 13.482469
1.5774294 -5.0889063 0.013121899 0 0 0 0 13.497309
1.4839808 -5.1737804 -0.067603566 0 0 0 0 13.502256
1.4169493 -5.3325486 -0.15697549 0 0 0 0 13.507203
1.6871092 -5.0332904 0.017022122 0 0 0 0 13.517097
1.5844655 -5.0822277 -0.06687174 0 0 0 0 13.522044
1.5030483 -5.1710744 -0.15656714 0 0 0 0 13.526991
1.4320835 -5.3399115 -0.25690022 0 0 0 0 13.531939
1.8181459 -5.0425549 0.022231625 0 0 0 0 13.536885
1.6961603 -5.0286145 -0.065959945 0 0 0 0 13.541832
1.6055692 -5.0855198 -0.15780602 0 0 0 0 13.54678
1.5212134 -5.1834297 -0.25846568 0 0 0 0 13.551726
1.9501451 -5.0448189 0.026412018 0 0 0 0 13.556673
1.8251477 -5.0279121 -0.0657961 0 0 0 0 13.561621
1.7152032 -5.0199361 -0.16094846 0 0 0 0 13.566567
1.6216397 -5.0798998 -0.26278505 0 0 0 0 13.571514
2.0911989 -5.0570354 0.030646672 0 0 0 0 13.576462
1.9591516 -5.0301843 -0.065613054 0 0 0 0 13.581409
1.8461953 -5.0192409 -0.16478194 0 0 0 0 13.586355
1.7251987 -5.0003543 -0.26699471 0 0 0 0 13.591302
2.2140217 -5.027349 0.035678089 0 0 0 0 13.59625
2.0961609 -5.0334411 -0.06542176 0 0 0 0 13.601196
1.9812149 -5.0235257 -0.16858856 0 0 0 0 13.606143
1.8734059 -5.0375924 -0.27664262 0 0 0 0 13.611091
2.3520153 -5.0285854 0.03986248 0 0 0 0 13.616037
2.2331591 -5.0346999 -0.065238632 0 0 0 0 13.620984
2.1212506 -5.0307841 -0.17237598 0 0 0 0 13.625931
2.0033426 -5.0259228 -0.28452435 0 0 0 0 13.630878
2.4909649 -5.0218182 0.044013564 0 0 0 0 13.635825
2.3670754 -5.0209765 -0.065123826 0 0 0 0 13.640772
2.2521498 -5.0130939 -0.17628209 0 0 0 0 13.64572
2.1464169 -5.0391874 -0.29328179 0 0 0 0 13.650666
2.6349628 -5.0240207 0.049210168 0 0 0 0 13.655613
2.5050244 -5.0132332 -0.064977691 0 0 0 0 13.660561
2.3961759 -5.0183387 -0.18107261 0 0 0 0 13.665507
2.279299 -5.0175047 -0.30120265 0 0 0 0 13.670454
2.7779167 -5.0182309 0.05437135 0 0 0 0 13.675402
2.6550457 -5.0184302 -0.065760851 0 0 0 0 13.680348
2.5371308 -5.0106015 -0.18592262 0 0 0 0 13.685295
2.4212809 -5.0137782 -0.31003422 0 0 0 0 13.690243
2.9268773 -5.0134139 0.058544207 0 0 0 0 13.695189
2.7999949 -5.0106516 -0.065605655 0 0 0 0 13.700136
2.6851025 -5.0058279 -0.19075112 0 0 0 0 13.705083
2.5692854 -5.0140257 -0.31984106 0 0 0 0 13.710031
3.0969892 -5.0364799 0.063863143 0 0 0 0 13.714977
2.9509668 -5.0068464 -0.066425659 0 0 0 0 13.719924
2.8360956 -5.0050392 -0.19555815 0 0 0 0 13.724872
2.713203 -4.9982963 -0.32972139 0 0 0 0 13.729818
3.2015162 -4.9519129 0.066639856 0 0 0 0 13.734765
3.1261072 -5.0339117 -0.067083217 0 0 0 0 13.739712
2.9880562 -4.9982471 -0.20038952 0 0 0 0 13.744659
2.8651848 -4.9945207 -0.33853981 0 0 0 0 13.749606
3.4058383 -5.013792 0.073167861 0 0 0 0 13.754553
3.2265885 -4.9403763 -0.066349402 0 0 0 0 13.759501
3.1601534 -5.0163517 -0.20608908 0 0 0 0 13.764447
3.0252013 -4.9967117 -0.3493225 0 0 0 0 13.769394
3.5043013 -4.9172606 0.075887486 0 0 0 0 13.774342
3.4329195 -5.0022807 -0.067818679 0 0 0 0 13.779288
3.2515471 -4.905879 -0.20843838 0 0 0 0 13.784235
3.5664344 -5.5820203 -0.399138 0 0 0 0 13.789183
3.7740059 -5.0497851 0.083798043 0 0 0 0 13.794129
3.5323601 -4.9007573 -0.068118855 0 0 0 0 13.799076
3.4820442 -4.9966879 -0.21775424 0 0 0 0 13.804024
3.753432 -5.5810752 -0.41090333 0 0 0 0 13.80897
4.3748665 -5.58148 0.10281903 0 0 0 0 13.813917
3.8252146 -5.0591974 -0.069069222 0 0 0 0 13.818864
3.5693789 -4.8752351 -0.21915385 0 0 0 0 13.823812
3.9514482 -5.5830808 -0.42464244 0 0 0 0 13.828758
3.093106 -3.7775769 0.061559021 0 0 0 0 13.833705
4.4250178 -5.5760064 -0.074114777 0 0 0 0 13.838653
4.2922268 -5.5785079 -0.25325075 0 0 0 0 13.843599
4.1494317 -5.5790896 -0.43840671 0 0 0 0 13.848546
3.1032484 -3.6195374 0.060916763 0 0 0 0 13.853493
4.6349969 -5.5738983 -0.074855722 0 0 0 0 13.85844
4.4961805 -5.5704575 -0.26002458 0 0 0 0 13.863387
4.3574171 -5.5750504 -0.45315883 0 0 0 0 13.868334
3.7321346 -4.1560869 0.079992861 0 0 0 0 13.873281
3.1182137 -3.5880094 -0.062164448 0 0 0 0 13.878228
4.7040973 -5.5553918 -0.26782325 0 0 0 0 13.883175
4.5653734 -5.5660095 -0.46693164 0 0 0 0 13.888123
5.2296634 -5.5568638 0.12580542 0 0 0 0 13.893069
3.754102 -4.1206298 -0.067097954 0 0 0 0 13.898016
3.1713319 -3.5833008 -0.19108547 0 0 0 0 13.902964
4.7883596 -5.5618987 -0.48266485 0 0 0 0 13.90791
5.4597807 -5.5462151 0.13164778 0 0 0 0 13.645112
5.3140883 -5.5609474 -0.080446027 0 0 0 0 13.650059
3.621119 -3.9007425 -0.2115918 0 0 0 0 13.655006
3.2878723 -3.6481237 -0.34006265 0 0 0 0 13.659953
5.2262034 -5.0765467 0.12336474 0 0 0 0 13.6649
5.5550408 -5.5536675 -0.082177214 0 0 0 0 13.669847
3.4582229 -3.5566053 -0.20324518 0 0 0 0 13.674794
3.3603716 -3.5557604 -0.34435233 0 0 0 0 13.679741
4.2189116 -3.9231851 0.091229856 0 0 0 0 13.684689
3.9975379 -3.8230979 -0.069449507 0 0 0 0 13.689635
3.4402418 -3.3777068 -0.20101306 0 0 0 0 13.694582
5.1755567 -4.5948868 0.11927034 0 0 0 0 13.704476
6.071939 -5.5379252 -0.085601866 0 0 0 0 13.709423
3.5429218 -3.318177 -0.20412344 0 0 0 0 13.714371
4.4732227 -3.7988179 0.097041547 0 0 0 0 13.724264
6.3478756 -5.5274682 -0.088303871 0 0 0 0 13.729211
4.2975416 -3.937043 -0.41853553 0 0 0 0 13.739105
3.7039399 -3.0101137 0.072771326 0 0 0 0 13.744052
6.6418338 -5.520916 -0.090967156 0 0 0 0 13.749
4.5889525 -4.0075836 -0.44186532 0 0 0 0 13.758893
4.8489833 -3.7567878 0.10535315 0 0 0 0 13.763841
3.7650137 -2.9944201 -0.068185352 0 0 0 0 13.768787
4.5859022 -3.8156052 -0.43866965 0 0 0 0 13.778681
3.9554987 -2.9287641 0.077773809 0 0 0 0 13.783628
3.8727109 -2.9378588 -0.069273435 0 0 0 0 13.788575
3.7954431 -3.0115845 -0.36702654 0 0 0 0 13.79847
4.0772347 -2.8801117 0.080737077 0 0 0 0 13.803416
4.6030331 -3.4725351 -0.43507048 0 0 0 0 13.818257
4.8783965 -3.2807102 0.10242602 0 0 0 0 13.823204
4.5840316 -3.2886388 -0.43085411 0 0 0 0 13.838045
4.2423739 -2.7202518 0.082305439 0 0 0 0 13.842993
5.1978345 -3.467663 -0.27434707 0 0 0 0 13.852886
4.5680928 -3.1157298 -0.42758551 0 0 0 0 13.857833
4.5436449 -2.7706151 0.089906059 0 0 0 0 13.862781
5.3604722 -3.3988411 -0.28142184 0 0 0 0 13.872674
4.5180612 -2.9259923 -0.4214277 0 0 0 0 13.877622
4.766602 -2.762418 0.094164275 0 0 0 0 13.882568
4.9090519 -2.9562051 -0.26081815 0 0 0 0 13.892462
4.4751034 -2.7492201 -0.41620457 0 0 0 0 13.897409
4.6003671 -2.5323617 0.088016242 0 0 0 0 13.902356
5.3134847 -3.031132 -0.27899089 0 0 0 0 13.912251
4.4863615 -2.6111727 -0.41475067 0 0 0 0 13.917197
4.6813345 -2.4896877 -0.081028223 0 0 0 0 13.927092
4.7679968 -2.5759757 -0.25354755 0 0 0 0 13.932038
4.4635286 -2.4563046 -0.41240773 0 0 0 0 13.936985
5.2676291 -2.6864159 -0.27645469 0 0 0 0 13.951826
4.4667954 -2.3193002 -0.41095653 0 0 0 0 13.956774
5.2517676 -2.5255239 -0.27612737 0 0 0 0 13.971615
4.4550524 -2.1803722 -0.40853009 0 0 0 0 13.976562
5.1787872 -2.3429255 -0.27295876 0 0 0 0 13.991402
4.4142551 -2.0315917 -0.40417889 0 0 0 0 13.996349
5.1509552 -2.1870928 -0.2716215 0 0 0 0 14.01119
4.4175873 -1.905591 -0.40367746 0 0 0 0 14.016137
5.1241574 -2.0372543 -0.27025628 0 0 0 0 14.030978
4.3768415 -1.7658094 -0.39928579 0 0 0 0 14.035925
5.1103954 -1.8933542 -0.27084947 0 0 0 0 14.050766
4.3591652 -1.6379169 -0.39781532 0 0 0 0 14.055714
6.0190663 -2.0508063 -0.10407776 0 0 0 0 14.065607
5.0756226 -1.7475576 -0.26947439 0 0 0 0 14.070555
4.3334889 -1.5100627 -0.39535323 0 0 0 0 14.075501
5.004797 -1.591949 -0.2671828 0 0 0 0 14.090343
4.3238635 -1.3911268 -0.39383328 0 0 0 0 14.095289
5.9263244 -1.7213697 -0.10651273 0 0 0 0 14.105184
5.0061259 -1.4639676 -0.26768729 0 0 0 0 14.11013
3.3225887 -0.98311663 -0.31071582 0 0 0 0 14.115077
4.9832773 -1.3317701 -0.26780289 0 0 0 0 13.873006
3.330966 -0.89888144 -0.31256294 0 0 0 0 13.877954
5.8065033 -1.4026635 -0.10951599 0 0 0 0 13.887847
3.7799752 -0.91804034 -0.21293186 0 0 0 0 13.892795
3.4627044 -0.84522957 -0.32260221 0 0 0 0 13.897741
4.4581537 -0.97188956 -0.094885372 0 0 0 0 13.907635
3.8796058 -0.84554344 -0.21808819 0 0 0 0 13.912582
3.7396016 -0.81785285 -0.3453598 0 0 0 0 13.917529
4.4866295 -0.87176365 -0.096241429 0 0 0 0 13.927423
4.2184844 -0.81581086 -0.23478292 0 0 0 0 13.93237
4.2607031 -0.82325494 -0.38869268 0 0 0 0 13.937317
5.2906275 -0.90272611 0.072855711 0 0 0 0 13.942265
4.8383942 -0.8229239 -0.10300173 0 0 0 0 13.947211
4.8535643 -0.8195532 -0.26598912 0 0 0 0 13.952158
4.2431302 -0.71436179 -0.38713908 0 0 0 0 13.957106
5.6362662 -0.83287859 0.077000208 0 0 0 0 13.962052
5.6684833 -0.83155113 -0.11695847 0 0 0 0 13.966999
4.8789744 -0.7064501 -0.26840234 0 0 0 0 13.971947
6.5491972 -0.81794447 0.092041366 0 0 0 0 13.98184
5.6047478 -0.69192356 -0.11758732 0 0 0 0 13.986788
4.8673573 -0.58853751 -0.2688784 0 0 0 0 13.991735
5.5380311 -0.55531567 -0.11920597 0 0 0 0 14.006576
4.8177295 -0.46882007 -0.26740563 0 0 0 0 14.011522
5.5303593 -0.42639485 -0.12172213 0 0 0 0 14.026363
4.8241386 -0.35481903 -0.26984239 0 0 0 0 14.03131
5.4506779 -0.29585508 -0.12332841 0 0 0 0 14.046151
4.764524 -0.2371542 -0.26837113 0 0 0 0 14.051098
5.4410253 -0.16994423 -0.12583241 0 0 0 0 14.065939
4.7669506 -0.12616993 -0.2697981 0 0 0 0 14.070887
5.3823791 -0.045290671 -0.12738755 0 0 0 0 14.085728
4.7373729 -0.01435229 -0.27026534 0 0 0 0 14.090674
5.3447547 0.075475752 -0.12890074 0 0 0 0 14.105515
4.6898065 0.095374033 -0.2697441 0 0 0 0 14.110462
5.2981286 0.19719036 -0.13142793 0 0 0 0 14.125303
4.6772466 0.20428313 -0.27017766 0 0 0 0 14.13025
5.2755136 0.31703335 -0.13391818 0 0 0 0 14.145091
4.6596842 0.31416148 -0.27162054 0 0 0 0 14.150038
5.243906 0.4358288 -0.13641384 0 0 0 0 14.164879
4.6311383 0.42098591 -0.27206263 0 0 0 0 14.169827
5.2063107 0.55259281 -0.13890721 0 0 0 0 14.184668
5.1847157 0.66944218 -0.14138135 0 0 0 0 14.204455
5.1451287 0.78519642 -0.14387144 0 0 0 0 14.224243
6.0527883 1.0057304 0.03130684 0 0 0 0 14.239084
5.276402 0.92883873 -0.15027672 0 0 0 0 14.244031
5.1170235 0.96668738 0.016412843 0 0 0 0 14.258872
5.0569839 1.011659 -0.14883897 0 0 0 0 14.263819
4.5873661 0.96860647 -0.28120363 0 0 0 0 14.268766
3.0499065 0.67839324 -0.30078837 0 0 0 0 14.273713
4.6639276 0.99023157 0.0078237727 0 0 0 0 14.27866
4.1993556 0.9401744 -0.13250625 0 0 0 0 14.283607
3.936553 0.92928243 -0.24976243 0 0 0 0 14.288554
3.0415311 0.75433052 -0.30207536 0 0 0 0 14.293501
4.4436522 1.0480185 0.0013654375 0 0 0 0 14.298449
3.9561543 0.98188221 -0.12992477 0 0 0 0 14.303395
3.638449 0.94975412 -0.23515692 0 0 0 0 14.308342
3.0481355 0.83434689 -0.30336124 0 0 0 0 14.31329
5.7253861 1.4847826 0.0080940044 0 0 0 0 14.318236
3.838834 1.0472437 -0.13029388 0 0 0 0 14.323183
3.4772213 0.99591637 -0.22849782 0 0 0 0 14.328131
3.056726 0.91736937 -0.30565697 0 0 0 0 14.333077
4.9328299 1.4667392 -0.16047737 0 0 0 0 14.430934
3.4140007 1.0644948 -0.22760168 0 0 0 0 14.435882
3.0614388 0.99930614 -0.30774164 0 0 0 0 14.440828
4.896277 1.5785093 -0.16394119 0 0 0 0 14.450722
3.0430679 1.0751957 -0.30803734 0 0 0 0 14.460616
5.5587277 1.8456093 -0.0092240702 0 0 0 0 14.465563
4.8477416 1.6872174 -0.16740599 0 0 0 0 14.47051
3.0436587 1.1591761 -0.31034374 0 0 0 0 14.480404
5.5340924 1.9744294 -0.014742157 0 0 0 0 14.485352
4.8052063 1.7959616 -0.16986312 0 0 0 0 14.490298
4.246047 1.6605594 -0.28295994 0 0 0 0 14.495245
3.0502295 1.2471879 -0.31265926 0 0 0 0 14.500193
5.4685168 2.0920322 -0.021262033 0 0 0 0 14.505139
4.7766366 1.9117749 -0.17333248 0 0 0 0 14.510086
3.1248193 1.3089545 -0.22079173 0 0 0 0 14.515034
3.0518064 1.3341734 -0.31497592 0 0 0 0 14.51998
5.4219155 2.2147388 -0.026779732 0 0 0 0 14.524927
4.7300997 2.0214951 -0.17679742 0 0 0 0 14.529875
3.0914731 1.3807659 -0.2210865 0 0 0 0 14.534822
3.0553691 1.4241693 -0.31730223 0 0 0 0 14.539768
5.3683381 2.3334057 -0.033288311 0 0 0 0 14.544715
4.7095184 2.1403465 -0.18126853 0 0 0 0 14.549663
3.0770776 1.4626678 -0.22340022 0 0 0 0 14.554609
3.054934 1.5141401 -0.3206327 0 0 0 0 14.559556
5.3436885 2.4662232 -0.039820421 0 0 0 0 14.564503
4.6500158 2.2440002 -0.18472265 0 0 0 0 14.56945
3.0764282 1.6182208 -0.32499498 0 0 0 0 14.579344
5.2641697 2.5737607 -0.045312751 0 0 0 0 14.584291
4.6024885 2.3527169 -0.18818291 0 0 0 0 14.589238
3.662354 2.0390067 -0.38299417 0 0 0 0 14.599133
5.5676498 2.8762772 -0.053152986 0 0 0 0 14.604079
4.5709209 2.4695165 -0.19165692 0 0 0 0 14.609026
4.0330462 2.2762938 -0.2934944 0 0 0 0 14.613974
3.6318746 2.1378312 -0.38339436 0 0 0 0 14.61892
5.298615 2.8908281 -0.059486106 0 0 0 0 14.623867
4.5273814 2.5812509 -0.19612379 0 0 0 0 14.628815
4.0084982 2.3891382 -0.2959443 0 0 0 0 14.633761
3.6103561 2.2446985 -0.38481671 0 0 0 0 14.638708
5.1004291 2.9347491 -0.065856084 0 0 0 0 14.643656
4.8217998 2.8986838 -0.2130356 0 0 0 0 14.648602
3.977967 2.4989522 -0.29838821 0 0 0 0 14.653549
3.5798595 2.3475192 -0.38623253 0 0 0 0 14.658496
4.9042912 2.9696829 -0.072186448 0 0 0 0 14.663444
4.6007547 2.9135246 -0.21131331 0 0 0 0 14.66839
3.9693573 2.6248713 -0.30287185 0 0 0 0 14.673337
3.5563383 2.4553766 -0.38766024 0 0 0 0 14.678284
4.580595 2.917969 -0.076312549 0 0 0 0 14.683231
4.4445562 2.958699 -0.21063857 0 0 0 0 14.688178
3.9956064 2.7789619 -0.30942935 0 0 0 0 14.693125
3.5248342 2.5601931 -0.38908449 0 0 0 0 14.698072
4.3755898 2.9268665 -0.081546806 0 0 0 0 14.703019
4.191721 2.9323895 -0.2067851 0 0 0 0 14.707966
3.905252 2.8544807 -0.30880183 0 0 0 0 14.712914
3.5889499 2.7414651 -0.39970914 0 0 0 0 14.71786
4.1955433 2.9438951 -0.086784884 0 0 0 0 14.722807
4.0913868 3.004843 -0.20915616 0 0 0 0 14.727755
3.8577423 2.9612083 -0.31125131 0 0 0 0 14.732701
3.5584025 2.8552866 -0.4011682 0 0 0 0 14.737648
4.1261058 3.0374913 -0.093205772 0 0 0 0 14.742596
3.7828772 2.9142647 -0.20210554 0 0 0 0 14.747542
3.7026567 2.983417 -0.30548134 0 0 0 0 14.752489
3.4810417 2.9318845 -0.3985295 0 0 0 0 14.757437
3.7707975 2.9096351 -0.095058583 0 0 0 0 14.762383
3.5999351 2.9093142 -0.20025758 0 0 0 0 14.76733
3.4520047 2.9191656 -0.29247046 0 0 0 0 14.772278
3.3708172 2.9813271 -0.39281839 0 0 0 0 14.777225
3.6346939 2.9378965 -0.10029102 0 0 0 0 14.782171
3.4528923 2.9245417 -0.20044973 0 0 0 0 14.787118
3.2850616 2.9133217 -0.28559995 0 0 0 0 14.792065
3.1501176 2.9252546 -0.37480578 0 0 0 0 14.797012
3.3018935 2.930759 -0.19860984 0 0 0 0 14.806906
3.1370795 2.9155686 -0.2807402 0 0 0 0 14.811853
2.9842281 2.907444 -0.36188519 0 0 0 0 14.8168
3.1738303 2.9500871 -0.19879639 0 0 0 0 14.826694
3.013001 2.9369352 -0.27693066 0 0 0 0 14.831641
2.8482347 2.9107764 -0.35201594 0 0 0 0 14.836588
2.8859727 2.9482925 -0.27208364 0 0 0 0 14.851429
2.7252026 2.9221675 -0.34416452 0 0 0 0 14.856377
2.773901 2.968719 -0.26925591 0 0 0 0 14.871218
2.6151259 2.9426227 -0.33733487 0 0 0 0 14.876164
3.8282528 4.082149 -0.25850895 0 0 0 0 14.886059
2.5090544 2.9620993 -0.33049646 0 0 0 0 14.895952
3.8028629 4.2463717 -0.26530844 0 0 0 0 15.514893
3.7462509 4.382051 -0.27187178 0 0 0 0 15.53468
3.4092469 4.2000942 -0.34557241 0 0 0 0 15.539627
3.6717272 4.4996476 -0.27738538 0 0 0 0 15.554468
3.3725216 4.3588786 -0.35120293 0 0 0 0 15.559416
3.0515642 4.1650357 -0.41683608 0 0 0 0 15.564363
3.6180513 4.6493387 -0.285 0 0 0 0 15.574256
3.3019769 4.480505 -0.35472807 0 0 0 0 15.579204
3.0177963 4.3328371 -0.42249933 0 0 0 0 15.58415
3.5623639 4.8020167 -0.29362854 0 0 0 0 15.594044
3.2383568 4.6181626 -0.35930791 0 0 0 0 15.598991
2.9601581 4.4735336 -0.42508444 0 0 0 0 15.603938
3.4708843 4.9115324 -0.29913062 0 0 0 0 15.613832
3.190609 4.7828903 -0.36597472 0 0 0 0 15.618779
2.9144011 4.6392856 -0.42875364 0 0 0 0 15.623726
3.4052052 5.0631638 -0.30776703 0 0 0 0 15.63362
3.1160023 4.9184961 -0.37055966 0 0 0 0 15.638567
2.8527048 4.7929597 -0.43239483 0 0 0 0 15.643515
3.3454421 5.23282 -0.31746712 0 0 0 0 15.653408
2.7899957 4.9496303 -0.43604869 0 0 0 0 15.663302
3.2558858 5.359345 -0.32403338 0 0 0 0 15.673197
2.725235 5.1172915 -0.43974856 0 0 0 0 15.68309
2.9098661 5.3933921 -0.38755992 0 0 0 0 15.697931
2.6733434 5.3130078 -0.44554263 0 0 0 0 15.702878
2.8460052 5.5840378 -0.39634815 0 0 0 0 15.717719
2.6035256 5.4936423 -0.4502995 0 0 0 0 15.722666
2.7721777 5.7676435 -0.40312067 0 0 0 0 15.737507
3.1597552 6.4805794 -0.38839874 0 0 0 0 15.752348
2.9595447 6.5433674 -0.44890594 0 0 0 0 15.757296
2.9639263 6.4566226 -0.38750294 0 0 0 0 15.772137
2.7835095 6.5615196 -0.44515178 0 0 0 0 15.777083
3.0248559 6.465126 -0.33240387 0 0 0 0 15.786978
2.808737 6.5088439 -0.39185706 0 0 0 0 15.791924
2.8983645 6.5824542 -0.34497872 0 0 0 0 15.806766
2.680202 6.6341796 -0.40046692 0 0 0 0 15.811712
2.2362638 6.650692 -0.48710719 0 0 0 0 15.821606
2.7580042 6.6727171 -0.35746431 0 0 0 0 15.826553
2.5388489 6.7214632 -0.40694225 0 0 0 0 15.8315
2.3276939 6.7672892 -0.44639766 0 0 0 0 15.836447
2.0337574 6.555768 -0.47194085 0 0 0 0 15.841394
2.6166391 6.7639809 -0.36895531 0 0 0 0 15.846341
2.3688002 6.7446227 -0.41020146 0 0 0 0 15.851288
2.0975592 6.5952282 -0.43196201 0 0 0 0 15.856236
1.673954 5.887228 -0.41970751 0 0 0 0 15.861182
2.4298222 6.7400432 -0.37605 0 0 0 0 15.866129
2.1505072 6.6075873 -0.40388986 0 0 0 0 15.871077
1.7829249 6.1048307 -0.3993777 0 0 0 0 15.876023
1.4857026 5.7373857 -0.40230855 0 0 0 0 15.88097
2.2272868 6.6560488 -0.37892833 0 0 0 0 15.885918
1.8821067 6.2813497 -0.38789657 0 0 0 0 15.890864
1.5660733 5.8718472 -0.38268727 0 0 0 0 15.895811
1.9633561 8.3710861 -0.56106097 0 0 0 0 15.900759
1.9903651 6.441915 -0.37533832 0 0 0 0 15.905705
1.6445035 5.9972548 -0.37403181 0 0 0 0 15.910652
2.0479951 8.4496012 -0.5322032 0 0 0 0 15.9156
1.7261111 8.2220182 -0.54172522 0 0 0 0 15.920546
1.7300348 6.101696 -0.36528239 0 0 0 0 15.925493
1.7970005 8.2494478 -0.51768404 0 0 0 0 15.935387
1.4978001 8.0869875 -0.52443498 0 0 0 0 15.940334
1.5476713 5.9798169 -0.3649886 0 0 0 0 15.945281
1.5755043 8.1554193 -0.50854748 0 0 0 0 15.955175
1.2717502 7.8959823 -0.50392163 0 0 0 0 15.960122
1.9674851 8.3772879 -0.50885051 0 0 0 0 15.965069
1.6522644 8.2167816 -0.5086329 0 0 0 0 15.970016
1.3415991 7.9353566 -0.49293041 0 0 0 0 15.974963
1.059521 7.7430334 -0.48654217 0 0 0 0 15.97991
1.7348922 8.2412815 -0.51187056 0 0 0 0 15.61257
1.4150405 8.0057583 -0.50133502 0 0 0 0 15.617517
1.1291151 7.7834306 -0.48380768 0 0 0 0 15.622464
1.5066881 8.0921535 -0.51350838 0 0 0 0 15.632359
1.1979309 7.8347197 -0.4948715 0 0 0 0 15.637305
0.93065542 7.6834931 -0.47560656 0 0 0 0 15.642252
0.91755426 10.208935 -0.61075884 0 0 0 0 15.6472
1.2826678 7.9040618 -0.51198596 0 0 0 0 15.652146
0.99165654 7.6977282 -0.49053231 0 0 0 0 15.657093
0.99303168 10.124289 -0.61326128 0 0 0 0 15.662041
0.66912276 10.103789 -0.59459722 0 0 0 0 15.666987
1.06964 7.7170258 -0.51045525 0 0 0 0 15.671934
0.79350388 7.5347867 -0.48407987 0 0 0 0 15.676882
0.75594467 10.15814 -0.612643 0 0 0 0 15.681828
0.42496857 9.9406757 -0.57619905 0 0 0 0 15.686775
0.87148046 7.5570607 -0.51001531 0 0 0 0 15.691722
0.83910263 10.14741 -0.64543241 0 0 0 0 15.69667
0.51575583 10.004017 -0.60127604 0 0 0 0 15.701616
0.19352067 9.8386145 -0.56103063 0 0 0 0 15.706563
0.67933333 7.3941269 -0.50955737 0 0 0 0 15.71151
0.59943199 10.096239 -0.64747798 0 0 0 0 15.716457
0.27547112 9.8698902 -0.59199142 0 0 0 0 15.721404
0.69370532 10.065509 -0.69417244 0 0 0 0 15.731298
0.35829914 9.9320889 -0.64307463 0 0 0 0 15.736245
0.04598555 9.7778053 -0.58586246 0 0 0 0 15.741192
0.45695549 10.033316 -0.70629197 0 0 0 0 15.751086
0.12221739 9.7569647 -0.6386227 0 0 0 0 15.756033
-0.74468184 14.958251 -0.7965641 0 0 0 0 15.765927
0.21857361 9.9231415 -0.71210319 0 0 0 0 15.770874
-0.10315683 9.6428833 -0.63740242 0 0 0 0 15.775822
-0.61965561 14.992542 -0.8764661 0 0 0 0 15.780768
-1.0905185 14.942647 -0.78288561 0 0 0 0 15.785715
-0.012160114 9.6760378 -0.70935881 0 0 0 0 15.790663
-0.32659373 9.54181 -0.63723332 0 0 0 0 15.795609
-0.97250926 14.983857 -0.87482518 0 0 0 0 15.800556
-1.4434105 14.939005 -0.77126622 0 0 0 0 15.805504
-0.2342622 9.5059643 -0.71091282 0 0 0 0 15.810451
-0.54175341 9.3817949 -0.63281935 0 0 0 0 15.815397
-1.3202765 14.9572 -0.87310725 0 0 0 0 15.820344
-1.7962605 14.926371 -0.75861245 0 0 0 0 15.825291
-0.44723108 9.3069487 -0.70934111 0 0 0 0 15.830238
-1.2071913 14.993239 -1.002033 0 0 0 0 15.835185
-1.6741195 14.946515 -0.87246305 0 0 0 0 15.840132
-2.1481526 14.922742 -0.74699497 0 0 0 0 15.845079
-0.66279852 9.2348833 -0.71828109 0 0 0 0 15.850026
-1.5548503 14.946553 -1.0092372 0 0 0 0 15.854973
-2.0208597 14.913876 -0.86972326 0 0 0 0 15.859921
-2.5060675 14.924084 -0.7364071 0 0 0 0 15.864867
-1.910691 14.938816 -1.0206095 0 0 0 0 15.874762
-2.3768013 14.924181 -0.87116885 0 0 0 0 15.879708
-2.8260977 14.738644 -0.71702582 0 0 0 0 15.884655
-2.2635224 14.929097 -1.0319715 0 0 0 0 15.894549
-2.7366815 14.921475 -0.87156957 0 0 0 0 15.899496
-3.0848777 14.288543 -0.68551105 0 0 0 0 15.904444
-2.1335368 15.002003 -1.2160211 0 0 0 0 15.90939
-2.6243918 14.927345 -1.0433779 0 0 0 0 15.914337
-3.0935044 14.906789 -0.87192017 0 0 0 0 15.919285
-2.6839285 11.145021 -0.53439581 0 0 0 0 15.924231
-2.4933875 15.000205 -1.2404261 0 0 0 0 15.929178
-2.9822168 14.916608 -1.055746 0 0 0 0 15.934126
-2.5876174 11.129993 -0.66115212 0 0 0 0 15.939072
-2.9731312 11.20368 -0.52995795 0 0 0 0 15.944019
-2.8489704 14.941443 -1.2616007 0 0 0 0 15.948966
-2.5146332 11.189765 -0.81023723 0 0 0 0 15.953913
-2.8788643 11.200606 -0.66576475 0 0 0 0 15.95886
-3.2723663 11.269293 -0.52556247 0 0 0 0 15.963807
-3.21382 14.939627 -1.287016 0 0 0 0 15.968754
-2.7935183 11.186415 -0.82053977 0 0 0 0 15.973701
-3.1750615 11.261196 -0.67134535 0 0 0 0 15.978648
-3.5796387 11.342873 -0.52121049 0 0 0 0 15.983595
-2.6902263 11.188245 -0.99135321 0 0 0 0 15.988543
-3.0887024 11.246975 -0.83511913 0 0 0 0 15.993489
-3.4853323 11.337719 -0.67800951 0 0 0 0 15.998436
-3.5085607 10.280418 -0.46983922 0 0 0 0 16.003384
-2.9874215 11.254749 -1.0179591 0 0 0 0 16.008331
-3.3969398 11.319468 -0.85176468 0 0 0 0 16.013277
-3.4557221 10.372075 -0.625081 0 0 0 0 16.018225
-3.5070157 9.5415831 -0.43285105 0 0 0 0 16.02317
-3.2905824 11.31423 -1.0445464 0 0 0 0 16.028118
-3.4088302 10.458624 -0.80031037 0 0 0 0 16.033066
-3.4631867 9.6342049 -0.58611059 0 0 0 0 16.038012
-3.6081576 9.1602049 -0.41142291 0 0 0 0 16.042959
-3.3368349 10.529218 -0.99444139 0 0 0 0 16.047907
-3.4323914 9.7396898 -0.75843865 0 0 0 0 16.052853
-3.5348883 9.1589794 -0.56127173 0 0 0 0 16.0578
-3.8520358 9.148098 -0.40565419 0 0 0 0 16.062748
-3.3755245 9.8362198 -0.95069462 0 0 0 0 16.067694
-3.4776769 9.174614 -0.72720939 0 0 0 0 16.072641
-3.7807741 9.1508312 -0.5635218 0 0 0 0 16.077587
-4.0999646 9.1469698 -0.40093565 0 0 0 0 16.082535
-3.4062912 9.1979694 -0.91181147 0 0 0 0 15.876528
-3.7162833 9.1501856 -0.73703015 0 0 0 0 15.881475
-4.0325036 9.1513519 -0.56745261 0 0 0 0 15.886422
-4.3516359 9.1335135 -0.39580384 0 0 0 0 15.891369
-3.6481168 9.1817675 -0.92901832 0 0 0 0 15.896317
-3.9742422 9.1599321 -0.74836332 0 0 0 0 15.901263
-4.2823734 9.1401711 -0.5706923 0 0 0 0 15.90621
-4.6145921 9.1382999 -0.39212582 0 0 0 0 15.911158
-3.901005 9.1795053 -0.94929707 0 0 0 0 15.916104
-4.2261 9.1487112 -0.75960594 0 0 0 0 15.921051
-4.5473084 9.1429176 -0.57500923 0 0 0 0 15.925999
-4.8734684 9.1261129 -0.38737589 0 0 0 0 15.930945
-4.158855 9.1692209 -0.96955192 0 0 0 0 15.935892
-4.4920368 9.154418 -0.77293634 0 0 0 0 15.94084
-4.8101926 9.1346807 -0.57828081 0 0 0 0 15.945786
-5.1403413 9.1128941 -0.38163418 0 0 0 0 15.950733
-4.4277925 9.1778793 -0.99189848 0 0 0 0 15.955681
-4.7558699 9.1381435 -0.78517783 0 0 0 0 15.960627
-5.0810699 9.1254053 -0.58256066 0 0 0 0 15.965574
-5.4182734 9.1126184 -0.37796032 0 0 0 0 15.970522
-4.6956348 9.1665468 -1.0141654 0 0 0 0 15.975468
-5.0297627 9.1348181 -0.79848582 0 0 0 0 15.980415
-5.3619943 9.1260805 -0.5878951 0 0 0 0 15.985362
-5.7072058 9.1122932 -0.37430277 0 0 0 0 15.990309
-4.9654593 9.1512117 -1.0354205 0 0 0 0 15.995256
-5.3146644 9.133441 -0.81281805 0 0 0 0 16.000202
-5.6499085 9.1247263 -0.59323245 0 0 0 0 16.00515
-5.9598465 9.0501518 -0.36835164 0 0 0 0 16.010098
-5.2563782 9.156764 -1.060789 0 0 0 0 16.015045
-5.5965152 9.1210861 -0.82610393 0 0 0 0 16.019991
-5.9105597 9.0675135 -0.5963124 0 0 0 0 16.024939
-5.9446239 8.5923367 -0.34746581 0 0 0 0 16.029884
-5.5492678 9.156311 -1.0861375 0 0 0 0 16.034832
-5.8601456 9.0618296 -0.83718044 0 0 0 0 16.03978
-5.89328 8.5967159 -0.57337344 0 0 0 0 16.044727
-5.9406037 8.1764612 -0.32876429 0 0 0 0 16.049673
-5.788703 9.0571537 -1.1010233 0 0 0 0 16.054621
-5.8519001 8.597002 -0.8112787 0 0 0 0 16.059566
-5.8902354 8.1748438 -0.55265057 0 0 0 0 16.064514
-5.9347134 7.7875862 -0.31216955 0 0 0 0 16.069462
-5.7814221 8.5833378 -1.0710884 0 0 0 0 16.074408
-5.8428087 8.1641693 -0.78750509 0 0 0 0 16.079355
-5.8762736 7.7700157 -0.53398257 0 0 0 0 16.084303
-5.9279113 7.4167113 -0.29664722 0 0 0 0 16.089249
-5.780354 8.1544771 -1.0453427 0 0 0 0 16.094196
-5.8338385 7.75633 -0.76583314 0 0 0 0 16.099144
-5.8775139 7.4071112 -0.51650369 0 0 0 0 16.10409
-5.922236 7.0718274 -0.28223133 0 0 0 0 16.109037
-5.7643118 7.729691 -1.018595 0 0 0 0 16.113983
-5.8350587 7.3884339 -0.74633551 0 0 0 0 16.118931
-5.8567252 7.0373101 -0.49896935 0 0 0 0 16.123878
-6.0956182 6.9520702 -0.2759546 0 0 0 0 16.128826
-5.7795944 7.3747287 -0.99916881 0 0 0 0 16.133772
-5.8152504 7.0136371 -0.72678375 0 0 0 0 16.13872
-6.0672803 6.9563475 -0.500898 0 0 0 0 16.143665
-6.1513734 6.6978855 -0.26498589 0 0 0 0 16.148613
-5.7758803 7.0188642 -0.9777149 0 0 0 0 16.153561
-6.0368428 6.942596 -0.73576748 0 0 0 0 16.158508
-6.0958853 6.6702914 -0.48976654 0 0 0 0 16.163454
-6.1358514 6.3840408 -0.25268465 0 0 0 0 16.168402
-5.9954104 6.9368076 -0.993653 0 0 0 0 16.173347
-6.0403094 6.6256747 -0.72048026 0 0 0 0 16.178295
-6.0893769 6.3584123 -0.47548646 0 0 0 0 16.183243
-6.1334581 6.0971308 -0.24150969 0 0 0 0 16.188189
-5.9908123 6.6049399 -0.97429645 0 0 0 0 16.193136
-6.0126853 6.2879114 -0.70206964 0 0 0 0 16.198084
-6.0889816 6.0704975 -0.46331108 0 0 0 0 16.20303
-5.2261 4.9595642 -0.20172502 0 0 0 0 16.207977
-5.9601707 6.2622032 -0.95286292 0 0 0 0 16.212925
-6.0122833 5.9980006 -0.6888873 0 0 0 0 16.217871
-5.1856666 4.9310422 -0.38952586 0 0 0 0 16.222818
-5.2240162 4.736639 -0.19280607 0 0 0 0 16.227764
-5.9868612 5.9921613 -0.94079733 0 0 0 0 16.232712
-5.1461787 4.8924961 -0.5822888 0 0 0 0 16.237659
-5.1885934 4.7100935 -0.3806223 0 0 0 0 16.242607
-5.2249808 4.5236959 -0.18493204 0 0 0 0 16.247553
-5.1017175 4.8649039 -0.79308784 0 0 0 0 16.252501
-5.152112 4.6725383 -0.57239401 0 0 0 0 16.257446
-5.1734819 4.4802337 -0.37065989 0 0 0 0 16.262394
-5.2119436 4.3098178 -0.17703599 0 0 0 0 16.267342
-5.1015983 4.6329827 -0.78113824 0 0 0 0 16.272289
-5.1400127 4.4446683 -0.56144428 0 0 0 0 16.277235
-5.1734872 4.2752953 -0.36281782 0 0 0 0 16.282183
-5.2149911 4.1138606 -0.17023422 0 0 0 0 16.287128
-5.0894971 4.4041209 -0.7681852 0 0 0 0 16.292076
-5.1309652 4.2277803 -0.55154324 0 0 0 0 16.297024
-5.1705184 4.0753708 -0.35499257 0 0 0 0 16.301971
-5.208055 3.9209502 -0.16343153 0 0 0 0 16.306917
-5.0814586 4.1882362 -0.75629008 0 0 0 0 16.311865
-5.1279941 4.0268598 -0.54271466 0 0 0 0 16.316811
-5.1946697 3.9013112 -0.34930819 0 0 0 0 16.321758
-5.4168711 3.8900142 -0.16256903 0 0 0 0 16.326706
-5.0784678 3.9823241 -0.74544251 0 0 0 0 16.331652
-5.2213788 3.9044554 -0.54333091 0 0 0 0 16.336599
-5.4455976 3.8971457 -0.35761055 0 0 0 0 16.341545
-5.6808114 3.8858202 -0.16289048 0 0 0 0 16.346493
-5.258172 3.9234238 -0.76146853 0 0 0 0 16.331821
-5.4853501 3.9031551 -0.56170166 0 0 0 0 16.336767
-5.7185864 3.8968389 -0.36699814 0 0 0 0 16.341715
-5.8855772 3.8348706 -0.16198352 0 0 0 0 16.346661
-5.5290799 3.9210894 -0.78980714 0 0 0 0 16.351608
-5.7743034 3.907773 -0.58109367 0 0 0 0 16.356556
-5.830987 3.7773497 -0.36765546 0 0 0 0 16.361502
-5.742763 3.8680561 -0.80986774 0 0 0 0 16.371395
-2.8738663 -1.9697486 -0.1812498 0 0 0 0 17.855534
-2.8259807 -2.1052577 -0.37867087 0 0 0 0 17.865427
-2.842241 -2.0819426 -0.27477479 0 0 0 0 17.870375
-2.8734348 -2.0697374 -0.18386233 0 0 0 0 17.87532
-2.8936777 -2.0464792 -0.090972468 0 0 0 0 17.880268
-2.8175471 -2.2062092 -0.38026765 0 0 0 0 17.885216
-2.849767 -2.1919684 -0.27836424 0 0 0 0 17.890163
-2.8729959 -2.1717262 -0.18646827 0 0 0 0 17.895109
-2.8902583 -2.1434591 -0.094591871 0 0 0 0 17.900057
-2.8270388 -2.3242466 -0.38483188 0 0 0 0 17.905003
-2.8512938 -2.3019688 -0.28194496 0 0 0 0 17.90995
-2.8645709 -2.2706816 -0.18907313 0 0 0 0 17.914898
-2.8908124 -2.2474525 -0.097192891 0 0 0 0 17.919844
-2.8205645 -2.4352098 -0.38739693 0 0 0 0 17.924791
-2.8428466 -2.4069204 -0.28352869 0 0 0 0 17.929737
-2.8750641 -2.3887236 -0.19363992 0 0 0 0 17.934685
-2.8933456 -2.3564575 -0.10077968 0 0 0 0 17.939632
-2.8200521 -2.5552015 -0.39093968 0 0 0 0 17.94458
-2.8473244 -2.5289369 -0.2880722 0 0 0 0 17.949526
-2.8676043 -2.4966831 -0.19621517 0 0 0 0 17.954473
-2.8868964 -2.4614251 -0.1043674 0 0 0 0 17.959419
-2.8215065 -2.6832051 -0.39545748 0 0 0 0 17.964367
-2.8428223 -2.6469121 -0.29161668 0 0 0 0 17.969315
-2.8680923 -2.6166828 -0.20076044 0 0 0 0 17.974262
-2.8903928 -2.5794377 -0.1089247 0 0 0 0 17.979208
-2.8229413 -2.8162086 -0.39995807 0 0 0 0 17.984156
-2.8522449 -2.782949 -0.29611927 0 0 0 0 17.989101
-2.8725541 -2.7436957 -0.20428763 0 0 0 0 17.994049
-2.8968592 -2.7054589 -0.11245874 0 0 0 0 17.998997
-2.8223598 -2.953207 -0.40544194 0 0 0 0 18.003944
-2.8496816 -2.915936 -0.30061445 0 0 0 0 18.00889
-2.8720076 -2.8726912 -0.20880049 0 0 0 0 18.013838
-2.8963294 -2.8304546 -0.11698608 0 0 0 0 18.018784
-2.8247342 -3.101218 -0.41089186 0 0 0 0 18.023731
-2.8471036 -3.052923 -0.30509612 0 0 0 0 18.028679
-2.8684464 -3.0056741 -0.21329501 0 0 0 0 18.033625
-2.8917913 -2.9574375 -0.12250066 0 0 0 0 18.038572
-2.8230939 -3.2532122 -0.41632193 0 0 0 0 18.04352
-2.8464842 -3.1999216 -0.31054586 0 0 0 0 18.048466
-2.8708351 -3.1506853 -0.21875678 0 0 0 0 18.053413
-2.8902235 -3.0924289 -0.12699208 0 0 0 0 18.058361
-2.8114777 -3.4001615 -0.42075506 0 0 0 0 18.063307
-2.8468289 -3.3559241 -0.3159658 0 0 0 0 18.068254
-2.8652341 -3.2936637 -0.22421396 0 0 0 0 18.0732
-2.8916042 -3.2394395 -0.13344602 0 0 0 0 18.078148
-2.8207178 -3.581208 -0.42810047 0 0 0 0 18.083096
-2.8461454 -3.5189261 -0.32236001 0 0 0 0 18.088043
-2.862581 -3.4496539 -0.22963011 0 0 0 0 18.092989
-2.8869922 -3.3854222 -0.13889496 0 0 0 0 18.097937
-2.8139849 -3.7561882 -0.43544301 0 0 0 0 18.102882
-2.8364735 -3.6798873 -0.32774809 0 0 0 0 18.10783
-2.8668647 -3.6206801 -0.23700468 0 0 0 0 18.112778
-2.886327 -3.5444245 -0.14530459 0 0 0 0 18.117725
-2.8052349 -3.9361567 -0.44176558 0 0 0 0 18.122671
-2.8376935 -3.8669007 -0.33506152 0 0 0 0 18.127619
-2.8621559 -3.7906656 -0.24336955 0 0 0 0 18.132565
-2.8776598 -3.7043939 -0.15169883 0 0 0 0 18.137512
-2.8053813 -4.1411691 -0.45001408 0 0 0 0 18.14246
-2.8299236 -4.051877 -0.34236896 0 0 0 0 18.147406
-2.8583863 -3.9756587 -0.25068337 0 0 0 0 18.152353
-2.8749352 -3.8783913 -0.15905361 0 0 0 0 18.157301
-3.1779733 -4.9459314 -0.51772481 0 0 0 0 18.162247
-2.8260822 -4.2548695 -0.34961954 0 0 0 0 18.167194
-2.8496106 -4.1626306 -0.25798318 0 0 0 0 18.172142
-2.8751373 -4.0704045 -0.16734992 0 0 0 0 18.177088
-3.167938 -5.1969032 -0.52679813 0 0 0 0 18.182035
-3.2045999 -5.0846066 -0.40425554 0 0 0 0 18.186981
-3.2302749 -4.9623265 -0.29873061 0 0 0 0 18.191929
-2.8653522 -4.2593799 -0.1766421 0 0 0 0 18.196877
-2.9612532 -5.129961 -0.50668722 0 0 0 0 18.201824
-3.0773685 -5.1450486 -0.3998192 0 0 0 0 18.20677
-3.2103224 -5.1932616 -0.30886069 0 0 0 0 18.211718
-3.2420082 -5.0670171 -0.20635942 0 0 0 0 18.216663
-2.8052561 -5.1362581 -0.4943966 0 0 0 0 18.221611
-2.9203634 -5.1513591 -0.3925271 0 0 0 0 18.226559
-3.019541 -5.1444373 -0.30271035 0 0 0 0 18.231506
-3.1455758 -5.1726255 -0.21281247 0 0 0 0 18.236452
-2.6660202 -5.1678891 -0.48421043 0 0 0 0 17.991362
-2.7682004 -5.1629548 -0.38638878 0 0 0 0 17.996309
-2.871335 -5.1640716 -0.30154708 0 0 0 0 18.001257
-2.998349 -5.1942868 -0.21663901 0 0 0 0 18.006203
-2.5338581 -5.2122912 -0.47582376 0 0 0 0 18.01115
-2.6380322 -5.2073793 -0.38200548 0 0 0 0 18.016098
-2.7203283 -5.1684198 -0.30027479 0 0 0 0 18.021044
-2.8145802 -5.1405063 -0.21752362 0 0 0 0 18.025991
-2.4393637 -5.3348727 -0.47321609 0 0 0 0 18.030937
-2.5375955 -5.3149471 -0.38244256 0 0 0 0 18.035885
-2.6030655 -5.2339172 -0.30083627 0 0 0 0 18.040833
-2.6992929 -5.2100301 -0.22307391 0 0 0 0 18.04578
-2.4927218 -5.3184524 -0.30334038 0 0 0 0 18.060619
-2.5671568 -5.2434816 -0.22772662 0 0 0 0 18.065567
-2.4687028 -5.353085 -0.23516002 0 0 0 0 18.085356
-1.4064881 -5.8600912 -0.36352804 0 0 0 0 18.213978
-1.3883065 -5.9238696 -0.32625341 0 0 0 0 18.238712
-1.3771193 -5.9857092 -0.29799765 0 0 0 0 18.263447
0.09861619 -5.9298096 -0.33565277 0 0 0 0 18.40691
0.11660751 -5.9357047 -0.32758096 0 0 0 0 18.431644
0.36604565 -5.8036523 -0.31461978 0 0 0 0 18.446487
0.14364627 -5.9456306 -0.33848 0 0 0 0 18.456381
0.27975261 -5.9261131 -0.33952585 0 0 0 0 18.222965
0.16480957 -5.933651 -0.35868302 0 0 0 0 18.227911
0.40921789 -5.8005638 -0.33474398 0 0 0 0 18.242752
0.30177408 -5.9261098 -0.3644684 0 0 0 0 18.2477
0.43023634 -5.7975836 -0.36469787 0 0 0 0 18.267487
1.4445773 -5.2090135 -0.23601021 0 0 0 0 18.371374
1.5491991 -5.1215639 -0.22712411 0 0 0 0 18.391163
1.4544889 -5.1751146 -0.27408615 0 0 0 0 18.396109
1.3932868 -5.7627549 -0.41837001 0 0 0 0 18.406004
1.65514 -5.0519996 -0.22148196 0 0 0 0 18.41095
1.5593789 -5.0965643 -0.27144089 0 0 0 0 18.415897
1.4807293 -5.1660867 -0.32929385 0 0 0 0 18.420845
1.5169857 -5.6912627 -0.42144886 0 0 0 0 18.425791
1.7750239 -5.0274949 -0.21540163 0 0 0 0 18.430738
1.6671059 -5.0331159 -0.26750869 0 0 0 0 18.435684
1.5864108 -5.0906558 -0.32840538 0 0 0 0 18.440632
1.5078114 -5.1702042 -0.39422444 0 0 0 0 18.44558
1.9140869 -5.0459237 -0.21215101 0 0 0 0 18.450527
1.7960625 -5.0245948 -0.26736248 0 0 0 0 18.455473
1.6941146 -5.0202217 -0.32849663 0 0 0 0 18.460421
1.6144779 -5.0897837 -0.39735135 0 0 0 0 18.465366
2.053128 -5.0593505 -0.20791742 0 0 0 0 18.470314
1.9280531 -5.0240669 -0.26818511 0 0 0 0 18.475262
1.8210479 -5.0047235 -0.33237648 0 0 0 0 18.480209
1.7191482 -5.0103693 -0.39947647 0 0 0 0 18.485155
2.1749768 -5.0258455 -0.2028646 0 0 0 0 18.490103
2.0731573 -5.0514879 -0.26889631 0 0 0 0 18.495049
1.961134 -5.0261807 -0.33811414 0 0 0 0 18.499996
1.8460783 -4.9928861 -0.40736288 0 0 0 0 18.504944
2.3109493 -5.0222878 -0.1986922 0 0 0 0 18.50989
2.1970165 -5.0189924 -0.26883733 0 0 0 0 18.514837
2.1052034 -5.043623 -0.34386063 0 0 0 0 18.519785
1.9851542 -5.010365 -0.41811526 0 0 0 0 18.524731
2.4509294 -5.0207157 -0.19450797 0 0 0 0 18.529678
2.3329978 -5.016449 -0.26866132 0 0 0 0 18.534626
2.229075 -5.0131392 -0.34679449 0 0 0 0 18.539572
2.1332514 -5.0328126 -0.42983973 0 0 0 0 18.544519
2.5898895 -5.0141497 -0.19034171 0 0 0 0 18.549465
2.4739761 -5.0128913 -0.26948249 0 0 0 0 18.554413
2.3720837 -5.0155888 -0.35259283 0 0 0 0 18.559361
2.2692192 -5.0243006 -0.43868399 0 0 0 0 18.564308
2.7378781 -5.0145483 -0.1861406 0 0 0 0 18.569254
2.6189706 -5.0133181 -0.27028498 0 0 0 0 18.574202
2.5120428 -5.0060492 -0.35743535 0 0 0 0 18.579147
2.4061522 -5.0067892 -0.44855732 0 0 0 0 18.584095
2.8838298 -5.0059571 -0.18197221 0 0 0 0 18.589043
2.7669461 -5.0087385 -0.27210063 0 0 0 0 18.59399
2.6600313 -5.0034823 -0.36324418 0 0 0 0 18.598936
2.551151 -5.0052505 -0.45936644 0 0 0 0 18.603884
3.0358033 -5.002347 -0.17877938 0 0 0 0 18.608829
2.9149165 -5.0031571 -0.27291942 0 0 0 0 18.613777
2.8080173 -4.9999199 -0.37005618 0 0 0 0 18.618725
2.6971123 -4.9947057 -0.46920457 0 0 0 0 18.623671
3.2028532 -5.0176773 -0.17550382 0 0 0 0 18.628618
3.0890219 -5.0304785 -0.27559486 0 0 0 0 18.633566
2.9620152 -4.9993358 -0.37685055 0 0 0 0 18.638512
2.8531415 -5.0001326 -0.48197624 0 0 0 0 18.643459
3.3245859 -4.9551821 -0.16954635 0 0 0 0 18.648407
3.2369239 -5.0079012 -0.27647072 0 0 0 0 18.653353
3.4863927 -5.5774097 -0.42423922 0 0 0 0 18.6583
3.0101376 -4.9975538 -0.49377352 0 0 0 0 18.663246
3.5177374 -4.9954147 -0.16715442 0 0 0 0 18.668194
3.7932553 -5.5797968 -0.30784234 0 0 0 0 18.673141
3.6724148 -5.5827122 -0.43397611 0 0 0 0 18.678089
3.5475624 -5.5816531 -0.56312835 0 0 0 0 18.683035
3.6153579 -4.8939338 -0.16145952 0 0 0 0 18.59107
3.9913523 -5.5899396 -0.31163886 0 0 0 0 18.596018
3.8624773 -5.5829091 -0.44281578 0 0 0 0 18.600964
3.7356355 -5.5828838 -0.57796657 0 0 0 0 18.605911
4.3241429 -5.5801525 -0.17625195 0 0 0 0 18.610859
4.1893415 -5.58917 -0.31438178 0 0 0 0 18.615805
4.0594873 -5.5851665 -0.45254973 0 0 0 0 18.620752
3.9316461 -5.5831676 -0.59470844 0 0 0 0 18.625698
4.5291085 -5.5753384 -0.17299961 0 0 0 0 18.630646
4.386302 -5.5814071 -0.31714928 0 0 0 0 18.635593
4.2624769 -5.5824018 -0.46229306 0 0 0 0 18.640541
4.1276312 -5.5774508 -0.61047041 0 0 0 0 18.645487
3.1264036 -3.6827991 -0.12108421 0 0 0 0 18.650434
4.5942683 -5.574605 -0.32089981 0 0 0 0 18.65538
4.4574051 -5.5646682 -0.47109646 0 0 0 0 18.660328
4.294415 -5.5228391 -0.62243265 0 0 0 0 18.665276
3.6099381 -4.061902 -0.12818982 0 0 0 0 18.670223
3.1745305 -3.6839724 -0.22399063 0 0 0 0 18.675169
4.6774297 -5.5698466 -0.48279157 0 0 0 0 18.680117
4.0903149 -5.0145421 -0.58437634 0 0 0 0 18.685062
3.9074953 -4.2007327 -0.12933448 0 0 0 0 18.69001
3.3998733 -3.7671103 -0.23141013 0 0 0 0 18.694958
4.8652611 -5.5281425 -0.49068359 0 0 0 0 18.699905
4.0310664 -4.7107368 -0.56745088 0 0 0 0 18.704851
3.88464 -3.9908161 -0.12204529 0 0 0 0 18.709799
3.3750811 -3.5721982 -0.22407131 0 0 0 0 18.714745
3.2661068 -3.546006 -0.33328682 0 0 0 0 18.719692
3.4816458 -3.8836699 -0.48688203 0 0 0 0 18.72464
3.8568194 -3.7889192 -0.11473362 0 0 0 0 18.729586
3.3804491 -3.4161723 -0.21856344 0 0 0 0 18.734533
3.5968566 -3.7257829 -0.35725248 0 0 0 0 18.739481
4.0072079 -4.255794 -0.54696465 0 0 0 0 18.744427
3.9655516 -3.7234902 -0.11079504 0 0 0 0 18.749374
3.4661646 -3.3448458 -0.21867168 0 0 0 0 18.754322
3.4927471 -3.4531608 -0.3422696 0 0 0 0 18.759268
4.0877471 -4.1405005 -0.55022943 0 0 0 0 18.764215
6.1738224 -5.529861 -0.14900644 0 0 0 0 18.769161
4.2504902 -3.9148693 -0.25577316 0 0 0 0 18.774109
3.499131 -3.3001347 -0.33774853 0 0 0 0 18.779057
3.800827 -3.673511 -0.50712174 0 0 0 0 18.784004
5.33495 -4.5701399 -0.12522952 0 0 0 0 18.78895
5.5202956 -4.8500528 -0.31606001 0 0 0 0 18.793898
4.4570556 -4.0086131 -0.41617572 0 0 0 0 18.798843
3.5632315 -3.2843492 -0.47168997 0 0 0 0 18.803791
6.7638021 -5.5315619 -0.14323714 0 0 0 0 18.808739
5.4150562 -4.5444555 -0.30418915 0 0 0 0 18.813686
4.0825171 -3.5885065 -0.53100944 0 0 0 0 18.82358
4.9190354 -3.846772 -0.10611118 0 0 0 0 18.828526
3.7608566 -3.0157275 -0.21530344 0 0 0 0 18.833473
4.6432309 -3.8009303 -0.42059159 0 0 0 0 18.838421
4.0728011 -3.4105368 -0.52358961 0 0 0 0 18.843367
3.8208885 -2.98295 -0.34630468 0 0 0 0 18.858208
4.0520868 -3.2326105 -0.51618177 0 0 0 0 18.863155
4.6709099 -3.470835 -0.41260639 0 0 0 0 18.877996
4.0695229 -3.0905499 -0.51360619 0 0 0 0 18.882942
5.1847134 -3.5177562 -0.094803482 0 0 0 0 18.88789
4.9636269 -3.4451907 -0.26131094 0 0 0 0 18.892838
4.6481867 -3.2899239 -0.40620959 0 0 0 0 18.897785
4.0548778 -2.9286063 -0.5081352 0 0 0 0 18.902731
5.2637663 -3.4770639 -0.27080864 0 0 0 0 18.912624
4.6595745 -3.1358879 -0.40268013 0 0 0 0 18.917572
4.0402694 -2.7756593 -0.50163293 0 0 0 0 18.92252
5.3463006 -3.3587654 -0.27107275 0 0 0 0 18.932413
4.6519399 -2.9759235 -0.39819255 0 0 0 0 18.937361
4.0497375 -2.6406305 -0.49904042 0 0 0 0 18.942307
4.9125886 -2.9324121 -0.24699356 0 0 0 0 18.952202
4.6252828 -2.8100309 -0.39274684 0 0 0 0 18.957148
4.0472026 -2.5046456 -0.4954648 0 0 0 0 18.962095
4.6206927 -2.6600578 -0.38921994 0 0 0 0 18.976936
4.0236316 -2.3597367 -0.48994359 0 0 0 0 18.981884
4.6769152 -2.5103264 -0.23062296 0 0 0 0 18.991777
4.6030989 -2.5091324 -0.38471109 0 0 0 0 18.996723
4.0251365 -2.2327392 -0.48733115 0 0 0 0 19.001671
5.3607759 -2.718766 -0.25805977 0 0 0 0 19.011566
4.5905313 -2.3641906 -0.38117516 0 0 0 0 19.016512
4.0106163 -2.0997982 -0.48275715 0 0 0 0 19.02146
5.3421421 -2.5568528 -0.2545872 0 0 0 0 19.031353
4.6080475 -2.239141 -0.38053527 0 0 0 0 19.036301
4.0041404 -1.9768319 -0.48013926 0 0 0 0 19.041248
5.3195248 -2.3989549 -0.2511051 0 0 0 0 19.051142
4.5915031 -2.0992148 -0.37698555 0 0 0 0 19.056087
3.9856508 -1.8509061 -0.47554505 0 0 0 0 19.061035
5.3010774 -2.2456713 -0.24684659 0 0 0 0 19.532558
4.5781751 -1.965798 -0.37264177 0 0 0 0 19.537506
3.9613919 -1.7264333 -0.47017375 0 0 0 0 19.542454
5.303555 -2.1056821 -0.2452596 0 0 0 0 19.552347
4.5486636 -1.8289183 -0.36908421 0 0 0 0 19.557295
3.9739985 -1.6194009 -0.46946731 0 0 0 0 19.562241
5.2759986 -1.9567997 -0.24173765 0 0 0 0 19.572136
4.5081453 -1.6900764 -0.36454573 0 0 0 0 19.577082
3.932533 -1.4945556 -0.46388471 0 0 0 0 19.582029
5.238441 -1.8069576 -0.23923019 0 0 0 0 19.591923
4.5047073 -1.5711048 -0.36289626 0 0 0 0 19.59687
3.9451582 -1.3915263 -0.46416375 0 0 0 0 19.601818
5.209919 -1.6660813 -0.2366817 0 0 0 0 19.611712
4.4832454 -1.4461941 -0.35928744 0 0 0 0 19.616657
2.8953493 -0.94608814 -0.34686714 0 0 0 0 19.621605
5.1573753 -1.5192913 -0.23318115 0 0 0 0 19.6315
3.2585301 -0.97687203 -0.38627762 0 0 0 0 19.641394
5.1689224 -1.3952709 -0.23252657 0 0 0 0 19.651287
3.2712421 -0.89583915 -0.38648382 0 0 0 0 19.661182
3.9532845 -0.97166145 -0.18336615 0 0 0 0 19.671076
3.4769881 -0.85875577 -0.28331545 0 0 0 0 19.676022
3.9799683 -0.88258463 -0.18457933 0 0 0 0 19.690863
3.7379203 -0.829862 -0.30204278 0 0 0 0 19.69581
3.8762341 -0.86282915 -0.45175582 0 0 0 0 19.700756
4.2598495 -0.84259939 -0.19531746 0 0 0 0 19.710651
4.3671141 -0.86168927 -0.34711355 0 0 0 0 19.715599
3.8678842 -0.76487488 -0.45104036 0 0 0 0 19.720545
4.9067173 -0.85175449 -0.049445499 0 0 0 0 19.725492
4.9489684 -0.86015326 -0.22235733 0 0 0 0 19.730438
4.3807445 -0.75766301 -0.34838903 0 0 0 0 19.735386
5.6897578 -0.85589463 -0.053408626 0 0 0 0 19.745281
5.0486159 -0.75981873 -0.22551201 0 0 0 0 19.750227
5.0221791 -0.63793874 -0.2248928 0 0 0 0 19.770016
4.9847498 -0.51809597 -0.22328013 0 0 0 0 19.789803
4.9583344 -0.40121531 -0.22264335 0 0 0 0 19.809591
4.963932 -0.2872197 -0.22295621 0 0 0 0 19.82938
4.9525318 -0.17328663 -0.22328947 0 0 0 0 19.849167
4.9151278 -0.058445688 -0.22265759 0 0 0 0 19.868956
4.8767395 0.052392069 -0.22201358 0 0 0 0 19.888744
4.8603539 0.16330759 -0.22234116 0 0 0 0 19.908531
4.8419728 0.27321601 -0.22266731 0 0 0 0 19.928318
4.8145938 0.38309184 -0.22300392 0 0 0 0 19.948109
4.7842226 0.49095711 -0.22333725 0 0 0 0 19.967896
4.7588544 0.59883773 -0.2246635 0 0 0 0 19.987682
5.518693 0.77947992 -0.063834734 0 0 0 0 19.73082
4.7631493 0.71115696 -0.22655965 0 0 0 0 19.735767
5.5382419 0.90851712 -0.06617447 0 0 0 0 19.750608
4.7107892 0.81493926 -0.22691076 0 0 0 0 19.755554
5.3329391 0.99672896 -0.066667542 0 0 0 0 19.770397
4.8613048 0.95544678 -0.23512147 0 0 0 0 19.775343
3.0245755 0.65722293 -0.3714745 0 0 0 0 19.785236
4.5001416 0.94564193 -0.062511832 0 0 0 0 19.790184
4.1654291 0.9179424 -0.20783646 0 0 0 0 19.795132
3.0472796 0.70563805 -0.26356664 0 0 0 0 19.800079
3.0203176 0.7341876 -0.37368089 0 0 0 0 19.805025
