# .PCD v0.7 - Point Cloud Data file format
VERSION 0.7
FIELDS x y z normal_x normal_y normal_z intensity curvature
SIZE 4 4 4 4 4 4 4 4
TYPE F F F F F F F F
COUNT 1 1 1 1 1 1 1 1
WIDTH 942
HEIGHT 1
VIEWPOINT 0 0 0 1 0 0 0
POINTS 942
DATA ascii
-3.4521554 -12.060912 -0.13782637 0 0 0 0 84.297119
-2.3502011 -12.110079 -0.098773278 0 0 0 0 84.302063
-2.6172383 -12.078548 -0.10266328 0 0 0 0 84.307014
-2.8900845 -12.110937 -0.1258803 0 0 0 0 84.311958
-3.1520839 -12.053293 -0.15162733 0 0 0 0 84.316902
-2.064141 -12.153612 -0.085869893 0 0 0 0 84.321854
-2.3282022 -12.092039 -0.097605839 0 0 0 0 84.326797
-2.586092 -12.081358 -0.12956032 0 0 0 0 84.331749
-2.872889 -12.112711 -0.16582754 0 0 0 0 84.336693
-1.7840368 -12.221156 -0.073103242 0 0 0 0 84.341637
-2.046103 -12.135532 -0.094717383 0 0 0 0 84.346588
-2.3009946 -12.106809 -0.13457477 0 0 0 0 84.351532
-2.5688705 -12.076085 -0.17947346 0 0 0 0 84.356483
-1.5019416 -12.281693 -0.061294947 0 0 0 0 84.361427
-1.7699103 -12.230036 -0.092094064 0 0 0 0 84.366371
-2.0198681 -12.148265 -0.13968015 0 0 0 0 84.371323
-2.2877235 -12.111504 -0.19255041 0 0 0 0 84.376266
-1.2149346 -12.298227 -0.047257405 0 0 0 0 84.381218
-1.4838572 -12.250525 -0.088079445 0 0 0 0 84.386162
-1.7406749 -12.22372 -0.1459543 0 0 0 0 84.391113
-2.0035577 -12.152907 -0.20764346 0 0 0 0 84.396057
-0.94057125 -12.504776 -0.036173359 0 0 0 0 84.401001
-1.1987689 -12.288013 -0.085148826 0 0 0 0 84.405952
-1.2792407 -10.832939 -0.12753278 0 0 0 0 84.410896
-1.7283293 -12.228326 -0.22293271 0 0 0 0 84.415848
-0.54820204 -10.735205 -0.012238556 0 0 0 0 84.168877
-0.92873549 -12.497585 -0.083072655 0 0 0 0 84.173828
-1.1718298 -12.283675 -0.15700373 0 0 0 0 84.178772
-1.2712915 -10.821622 -0.20245749 0 0 0 0 84.183723
-0.53703958 -10.70295 -0.060040724 0 0 0 0 84.193611
-0.90239918 -12.487144 -0.1649247 0 0 0 0 84.198563
-1.1604264 -12.282199 -0.25195649 0 0 0 0 84.203506
-0.26729369 -10.015492 -0.049728733 0 0 0 0 84.213402
-0.51479727 -10.652539 -0.13671404 0 0 0 0 84.218353
-0.81291544 -11.459587 -0.24370395 0 0 0 0 84.223297
-0.035461247 -9.9160833 -0.045352321 0 0 0 0 84.233192
-0.24698931 -9.9950743 -0.12854983 0 0 0 0 84.238136
-0.49860922 -10.534054 -0.23108771 0 0 0 0 84.243088
-0.01517382 -9.8736362 -0.13006827 0 0 0 0 84.257927
-0.2375517 -10.002577 -0.22854602 0 0 0 0 84.262871
-0.0057293065 -9.8721094 -0.23602095 0 0 0 0 84.282661
0.9411723 -10.17908 -0.29377764 0 0 0 0 84.361816
1.5345279 -13.387423 -0.42073685 0 0 0 0 84.381599
1.780371 -11.034039 -0.18856739 0 0 0 0 84.396439
1.8323344 -13.238813 -0.43186846 0 0 0 0 84.40139
2.4638565 -13.35352 -0.2489486 0 0 0 0 84.416229
1.7859412 -10.957198 -0.36117691 0 0 0 0 84.421173
3.4680207 -13.725548 0.14420283 0 0 0 0 84.426125
2.7859349 -13.363889 -0.25574043 0 0 0 0 84.43602
2.4827006 -13.32443 -0.46873876 0 0 0 0 84.440964
3.8150826 -13.771971 0.15833801 0 0 0 0 84.445915
3.4223542 -13.471696 -0.049766056 0 0 0 0 84.450859
3.1261129 -13.424214 -0.26469898 0 0 0 0 84.455803
2.8128905 -13.367722 -0.48865554 0 0 0 0 84.460754
4.12185 -13.651454 0.17011273 0 0 0 0 84.465698
3.7684779 -13.526063 -0.047671754 0 0 0 0 84.47065
3.462254 -13.466552 -0.27258667 0 0 0 0 84.475594
3.1480751 -13.410007 -0.5075472 0 0 0 0 84.480537
4.4497638 -13.614906 0.18357085 0 0 0 0 84.485489
4.1145687 -13.562428 -0.045490902 0 0 0 0 84.490433
3.8124175 -13.516852 -0.28245687 0 0 0 0 84.495384
3.490267 -13.454276 -0.52742016 0 0 0 0 84.500328
4.6429639 -13.179585 0.19340682 0 0 0 0 84.50528
4.4766965 -13.616761 -0.044332303 0 0 0 0 84.510223
3.8133323 -12.400929 -0.26112348 0 0 0 0 84.515167
3.6803074 -12.920936 -0.522129 0 0 0 0 84.520119
4.9317107 -13.046095 0.20417732 0 0 0 0 84.525063
4.8478274 -13.673076 -0.043147147 0 0 0 0 84.530014
4.1887293 -12.574174 -0.2734789 0 0 0 0 84.534958
3.8795555 -12.494563 -0.52031034 0 0 0 0 84.539902
5.1420865 -12.704735 0.21263556 0 0 0 0 84.544853
5.2199388 -13.720393 -0.040914297 0 0 0 0 84.549797
4.9008904 -13.657685 -0.3118659 0 0 0 0 84.554749
5.3173981 -12.328439 0.22112545 0 0 0 0 84.564636
5.4493508 -13.389978 -0.036433671 0 0 0 0 84.569588
5.2951369 -13.750899 -0.32276541 0 0 0 0 84.574532
3.1288583 -8.578619 -0.36451906 0 0 0 0 84.579483
5.0681028 -11.042845 0.21530209 0 0 0 0 84.584427
5.7119489 -13.158498 -0.033294279 0 0 0 0 84.589378
3.3509004 -8.5601444 -0.37655112 0 0 0 0 84.599266
5.2265406 -10.733574 0.22241031 0 0 0 0 84.604218
5.1512384 -11.144569 -0.017851617 0 0 0 0 84.609161
3.625191 -8.6635437 -0.39496097 0 0 0 0 84.619057
5.5445828 -10.766037 0.23451035 0 0 0 0 84.624001
5.243423 -10.691406 -0.013313588 0 0 0 0 84.628952
4.0895381 -8.7086067 -0.20134625 0 0 0 0 84.633896
3.0314059 -6.7690296 -0.30620825 0 0 0 0 84.638847
6.7503285 -12.430076 0.27422357 0 0 0 0 84.523048
4.6118927 -8.8626537 -0.00010286974 0 0 0 0 84.527992
4.3585215 -8.7551174 -0.20958024 0 0 0 0 84.532944
3.2283385 -6.7756495 -0.31854358 0 0 0 0 84.537888
7.0982389 -12.390485 0.28678194 0 0 0 0 84.542831
4.8638854 -8.8451862 0.00097827939 0 0 0 0 84.547783
3.4555306 -6.835155 -0.33292535 0 0 0 0 84.557678
5.1610141 -8.8996296 0.00089310046 0 0 0 0 84.567574
3.8971453 -6.9701343 -0.1658292 0 0 0 0 84.572517
3.7088068 -6.9315934 -0.35138127 0 0 0 0 84.577461
4.3517137 -7.1081519 0.014303972 0 0 0 0 84.587357
4.1292605 -7.0026641 -0.17306164 0 0 0 0 84.592308
3.018537 -5.3132458 -0.26532847 0 0 0 0 84.597252
6.0262971 -9.022233 0.25472081 0 0 0 0 84.602196
4.5837541 -7.1147161 0.014196136 0 0 0 0 84.607147
4.3974681 -7.0811181 -0.18237194 0 0 0 0 84.612091
3.1936269 -5.3258657 -0.27568683 0 0 0 0 84.617043
6.3663931 -9.0846558 0.26676813 0 0 0 0 84.621986
4.7816849 -7.0643468 0.015227776 0 0 0 0 84.62693
3.658565 -5.5796728 -0.13606536 0 0 0 0 84.631882
3.3907814 -5.3674307 -0.28909689 0 0 0 0 84.636826
4.4281487 -6.2230058 0.020885751 0 0 0 0 84.646721
3.8827181 -5.6332169 -0.14342654 0 0 0 0 84.651672
3.6390734 -5.4748821 -0.30662167 0 0 0 0 84.656616
5.5711379 -7.2209539 0.24060318 0 0 0 0 84.66156
5.3940639 -7.2401996 0.014817393 0 0 0 0 84.666512
4.6473465 -6.4306369 -0.1792317 0 0 0 0 84.671455
4.0247512 -5.7620134 -0.33846843 0 0 0 0 84.676407
5.8682022 -7.262445 0.25058582 0 0 0 0 84.681351
5.6520886 -7.2387142 0.014852475 0 0 0 0 84.686295
6.1592312 -7.2849474 0.26063651 0 0 0 0 84.701141
5.9391565 -7.2581706 0.013901825 0 0 0 0 84.706085
6.5564442 -7.4132676 0.2735973 0 0 0 0 84.720924
3.0134304 -3.05142 -0.20630273 0 0 0 0 84.814919
5.2838683 -4.7603331 0.23042545 0 0 0 0 84.81987
3.1113865 -3.0052092 -0.2106749 0 0 0 0 84.834709
4.7537246 -4.0882111 0.21259111 0 0 0 0 84.839653
4.0815196 -3.5955968 0.035317451 0 0 0 0 84.844604
3.5172515 -3.165 -0.096829064 0 0 0 0 84.849548
3.2323952 -2.9789364 -0.21905187 0 0 0 0 84.854492
6.4267755 -5.3013783 0.26636213 0 0 0 0 84.859444
4.3556809 -3.6690803 0.035063863 0 0 0 0 84.864388
3.7424021 -3.2155354 -0.1051652 0 0 0 0 84.869339
3.4155152 -3.0045302 -0.23143348 0 0 0 0 84.874283
4.4563694 -3.6640692 -0.13449191 0 0 0 0 84.889122
3.94328 -3.3153443 -0.27383083 0 0 0 0 84.894073
4.4009848 -3.4501786 -0.13065906 0 0 0 0 84.908913
3.8207746 -3.0576255 -0.26005116 0 0 0 0 84.913857
4.3836713 -3.2732129 -0.12785339 0 0 0 0 84.928703
3.814502 -2.9046445 -0.25631747 0 0 0 0 84.933647
4.3823967 -3.1152129 -0.1260753 0 0 0 0 84.948486
3.7922194 -2.7486978 -0.25163198 0 0 0 0 84.953438
5.026216 -3.3447764 0.03237569 0 0 0 0 84.963333
4.3400779 -2.9352937 -0.12335275 0 0 0 0 84.968277
3.8040001 -2.6206737 -0.24994636 0 0 0 0 84.973221
5.0159211 -3.1737881 0.033182081 0 0 0 0 84.983116
4.3528457 -2.8002677 -0.12162883 0 0 0 0 84.988068
3.760704 -2.4617751 -0.24332842 0 0 0 0 84.993011
5.0000501 -3.0076418 0.033388134 0 0 0 0 85.368996
4.313962 -2.6341817 -0.11851972 0 0 0 0 85.37394
3.7669051 -2.3396044 -0.2412581 0 0 0 0 85.378891
4.9777641 -2.8426757 0.034124352 0 0 0 0 85.388779
4.3257427 -2.5051527 -0.11782292 0 0 0 0 85.39373
3.7636871 -2.2156129 -0.23864546 0 0 0 0 85.398674
4.9314628 -2.6677494 0.033814091 0 0 0 0 85.408569
4.2954822 -2.3562064 -0.11619586 0 0 0 0 85.413513
3.7744977 -2.1025853 -0.23802994 0 0 0 0 85.418465
4.9292188 -2.5237415 0.033529185 0 0 0 0 85.42836
4.275238 -2.2162416 -0.11457217 0 0 0 0 85.433304
3.7642834 -1.9806068 -0.23545399 0 0 0 0 85.438255
4.9039626 -2.3727763 0.033187136 0 0 0 0 85.448143
4.2650123 -2.0862582 -0.11295673 0 0 0 0 85.453094
3.7520704 -1.8616368 -0.2319002 0 0 0 0 85.458038
4.909739 -2.239753 0.03288174 0 0 0 0 85.467934
4.254796 -1.9612745 -0.11136511 0 0 0 0 85.472878
3.7508802 -1.7506366 -0.23034093 0 0 0 0 85.477829
4.8604684 -2.0838373 0.033469252 0 0 0 0 85.487724
4.2575979 -1.844262 -0.11076006 0 0 0 0 85.492668
3.7376821 -1.6376635 -0.22781943 0 0 0 0 85.497612
5.6950498 -2.2652173 0.22893015 0 0 0 0 85.502563
4.8472447 -1.9508497 0.033089038 0 0 0 0 85.507507
2.9476368 -1.202437 -0.16481978 0 0 0 0 85.517403
5.6567855 -2.1062665 0.22657762 0 0 0 0 85.522354
3.283345 -1.2372594 -0.070632882 0 0 0 0 85.532242
2.9284832 -1.1134754 -0.16243863 0 0 0 0 85.537193
3.721041 -1.2979648 0.038835004 0 0 0 0 85.547089
3.3712816 -1.1840693 -0.073999085 0 0 0 0 85.552032
3.0114374 -1.065285 -0.16784929 0 0 0 0 85.556976
4.3086448 -1.3845614 0.18377531 0 0 0 0 85.561928
3.9200215 -1.2705728 0.036786161 0 0 0 0 85.566872
3.7414324 -1.2202953 -0.088676415 0 0 0 0 85.571823
3.7530055 -1.235615 -0.22370125 0 0 0 0 85.576767
4.5245762 -1.3461719 0.18884867 0 0 0 0 85.581718
4.2750773 -1.2818851 0.034171291 0 0 0 0 85.586662
4.2416468 -1.2802544 -0.10795027 0 0 0 0 85.591606
3.7138045 -1.1257 -0.21929635 0 0 0 0 85.596558
5.2537045 -1.4418895 0.20831485 0 0 0 0 85.601501
4.7761884 -1.3189152 0.030014182 0 0 0 0 85.606453
4.1794257 -1.1553725 -0.10556349 0 0 0 0 85.611397
3.7086413 -1.029707 -0.21782339 0 0 0 0 85.616341
5.5276051 -1.3893961 0.21469013 0 0 0 0 85.621292
4.7589884 -1.1989349 0.029557314 0 0 0 0 85.626236
4.1762514 -1.051371 -0.10504283 0 0 0 0 85.631187
3.7014761 -0.93271786 -0.21635324 0 0 0 0 85.636131
5.4863811 -1.2524507 0.21222126 0 0 0 0 85.641075
4.7507973 -1.0839378 0.029112471 0 0 0 0 85.646027
4.1640749 -0.9463861 -0.10455292 0 0 0 0 85.65097
3.6963186 -0.83972484 -0.21489424 0 0 0 0 85.655922
5.464169 -1.1204649 0.2088044 0 0 0 0 85.660866
4.705595 -0.96300954 0.028549282 0 0 0 0 85.665817
4.1539025 -0.84339756 -0.1040644 0 0 0 0 85.670761
3.6731513 -0.7437703 -0.21249232 0 0 0 0 85.675705
5.4529605 -0.99446851 0.20740268 0 0 0 0 85.680656
4.6854072 -0.84802985 0.027057188 0 0 0 0 85.6856
4.1357293 -0.74042392 -0.10360754 0 0 0 0 85.690552
3.6810083 -0.65474337 -0.2130001 0 0 0 0 85.695496
5.414753 -0.86451262 0.20391288 0 0 0 0 85.700439
4.6752248 -0.73803639 0.026581092 0 0 0 0 85.705391
4.1335678 -0.6414156 -0.10410582 0 0 0 0 85.710335
3.6808579 -0.56373614 -0.21252985 0 0 0 0 85.715286
5.3505449 -0.73460525 0.20031936 0 0 0 0 85.72023
4.6410389 -0.62608778 0.02601902 0 0 0 0 85.725174
4.1364098 -0.54439789 -0.10459347 0 0 0 0 85.730125
5.3753529 -0.61754161 0.19901909 0 0 0 0 85.740021
4.6298656 -0.51909131 0.024525011 0 0 0 0 85.744965
4.1182442 -0.44542426 -0.10415512 0 0 0 0 85.749916
5.3291578 -0.49460065 0.19546419 0 0 0 0 85.759804
4.6036849 -0.41012773 0.023981005 0 0 0 0 85.764755
4.1040835 -0.3494432 -0.10371511 0 0 0 0 85.769699
5.2899661 -0.37364671 0.19192792 0 0 0 0 85.779594
4.5795159 -0.30515555 0.022425814 0 0 0 0 85.784538
4.0769196 -0.25148642 -0.1033171 0 0 0 0 85.78949
5.2577758 -0.25568455 0.18940535 0 0 0 0 85.799385
4.5543442 -0.20119011 0.021862028 0 0 0 0 85.804329
4.0707626 -0.15749039 -0.10285416 0 0 0 0 85.80928
5.2045937 -0.13975671 0.18578914 0 0 0 0 85.819168
4.5381765 -0.097203016 0.020334672 0 0 0 0 85.82412
4.0576081 -0.062502578 -0.10341408 0 0 0 0 85.829063
5.1881499 -0.024878975 0.1829277 0 0 0 0 85.581047
4.5147462 0.0046542198 0.019392714 0 0 0 0 85.585991
4.0331912 0.029349461 -0.10340104 0 0 0 0 85.590942
5.1479754 0.087073378 0.17934279 0 0 0 0 85.600838
4.5125847 0.10566746 0.017905174 0 0 0 0 85.605782
4.0280409 0.12235223 -0.10394011 0 0 0 0 85.610725
5.1257987 0.19805431 0.17682523 0 0 0 0 85.620621
4.491425 0.20564537 0.016337197 0 0 0 0 85.625572
4.0078883 0.21432224 -0.10354371 0 0 0 0 85.630516
5.2196016 0.31724611 0.17581064 0 0 0 0 85.640411
4.4642649 0.30561206 0.014745529 0 0 0 0 85.645355
3.9907374 0.30529779 -0.10313991 0 0 0 0 85.650307
4.6365552 0.38423696 0.15984136 0 0 0 0 85.660202
4.5200968 0.4117381 0.012515333 0 0 0 0 85.665146
3.9795885 0.39728937 -0.10370696 0 0 0 0 85.67009
4.290482 0.45163915 0.15081856 0 0 0 0 85.679985
4.2699699 0.48627028 0.013910318 0 0 0 0 85.684937
4.0544357 0.49946052 -0.10788079 0 0 0 0 85.68988
3.9854293 0.50811738 0.14190546 0 0 0 0 85.699776
3.7819145 0.51734459 0.017142637 0 0 0 0 85.70472
3.8213069 0.55999011 -0.099486955 0 0 0 0 85.709671
3.828346 0.57385629 0.13662799 0 0 0 0 85.719566
3.5798244 0.57196563 0.018630918 0 0 0 0 85.72451
3.4252117 0.58417195 -0.082921997 0 0 0 0 85.729454
3.7672408 0.64876896 0.13277863 0 0 0 0 85.739349
3.4577303 0.63274527 0.018468525 0 0 0 0 85.744301
3.2581167 0.63283855 -0.077323526 0 0 0 0 85.749245
3.0914812 0.63396889 -0.16797875 0 0 0 0 85.754189
4.9116225 0.95584464 0.15188284 0 0 0 0 85.75914
3.3466415 0.69054526 0.018335419 0 0 0 0 85.764084
3.1110256 0.67954218 -0.071654983 0 0 0 0 85.769035
2.9323792 0.67362088 -0.15639286 0 0 0 0 85.773979
4.8484712 1.054754 0.14814501 0 0 0 0 85.778923
4.3521547 1.0005287 0.0029001015 0 0 0 0 85.783875
3.0239341 0.73237216 -0.068716846 0 0 0 0 85.788818
2.7912889 0.71131617 -0.14674485 0 0 0 0 85.79377
4.8372989 1.1647601 0.14466953 0 0 0 0 85.798714
4.2980127 1.090445 0.0011537266 0 0 0 0 85.803665
3.0088241 0.80335581 -0.069402061 0 0 0 0 85.808609
2.6942005 0.75410783 -0.1398962 0 0 0 0 85.813553
4.8121386 1.2707449 0.14011876 0 0 0 0 85.818504
4.2888517 1.1924499 -0.0013533416 0 0 0 0 85.823448
3.8803964 1.1332078 -0.10927241 0 0 0 0 85.8284
2.6700995 0.81606483 -0.13866183 0 0 0 0 85.833344
4.7659855 1.3706858 0.1364547 0 0 0 0 85.838287
4.2676945 1.2904276 -0.0029277708 0 0 0 0 85.843239
3.8562498 1.2231749 -0.10989868 0 0 0 0 85.848183
3.4897416 1.1579329 -0.20167987 0 0 0 0 85.853134
4.7408204 1.4786706 0.13191429 0 0 0 0 85.858078
4.2435427 1.3874046 -0.0055188257 0 0 0 0 85.863029
3.8470981 1.318175 -0.11144 0 0 0 0 85.867973
3.4865973 1.248944 -0.2032173 0 0 0 0 85.872917
4.7036629 1.5806282 0.12829666 0 0 0 0 85.877869
4.2053924 1.4813504 -0.0071805073 0 0 0 0 85.882812
3.8339422 1.4131626 -0.11199708 0 0 0 0 85.887764
3.4644544 1.33491 -0.20285518 0 0 0 0 85.892708
4.6844959 1.6896243 0.12378584 0 0 0 0 85.897652
4.2132158 1.591387 -0.009578866 0 0 0 0 85.902603
3.8087916 1.5051278 -0.11261675 0 0 0 0 85.907547
3.4633002 1.42892 -0.20336927 0 0 0 0 85.912498
4.6673212 1.800619 0.12029319 0 0 0 0 85.917442
4.1650748 1.682319 -0.012294838 0 0 0 0 85.922386
3.7916393 1.6001129 -0.1141893 0 0 0 0 85.927338
3.4531479 1.5219132 -0.20392413 0 0 0 0 85.932281
4.6141791 1.8965516 0.11558276 0 0 0 0 85.937233
4.1379189 1.7812903 -0.014887025 0 0 0 0 85.942177
3.7674851 1.6940799 -0.1147946 0 0 0 0 85.947128
3.4320011 1.6098809 -0.20354739 0 0 0 0 85.952072
4.598002 2.0105531 0.11110946 0 0 0 0 85.957016
4.115757 1.8832709 -0.017444121 0 0 0 0 85.961967
3.7373364 1.7850356 -0.11543848 0 0 0 0 85.966911
3.4218466 1.7058789 -0.20508687 0 0 0 0 85.971863
4.5848212 2.12656 0.1066584 0 0 0 0 85.976807
4.0776043 1.9782164 -0.019099606 0 0 0 0 85.98175
3.7361627 1.8930553 -0.11788207 0 0 0 0 85.986702
3.407692 1.7998644 -0.20565201 0 0 0 0 85.991646
4.8453779 2.3800786 0.10398176 0 0 0 0 85.996597
4.0764236 2.092241 -0.022512775 0 0 0 0 86.001541
3.709012 1.9870214 -0.11949858 0 0 0 0 86.006485
3.3795409 1.8878142 -0.20430261 0 0 0 0 86.011436
4.5974131 2.3846519 0.09704192 0 0 0 0 86.01638
4.082233 2.2132835 -0.026863007 0 0 0 0 86.021332
3.6838553 2.0839913 -0.12109205 0 0 0 0 86.026276
3.378371 1.9938337 -0.20675592 0 0 0 0 86.031227
4.4973087 2.4604964 0.09204559 0 0 0 0 86.036171
4.2298918 2.4196057 -0.033223908 0 0 0 0 86.041115
3.6716797 2.1909854 -0.12258382 0 0 0 0 86.046066
3.3602085 2.0918117 -0.20731661 0 0 0 0 86.05101
4.3939934 2.5322349 0.086617418 0 0 0 0 85.818588
4.1095886 2.4752924 -0.03479344 0 0 0 0 85.823532
3.7731693 2.3731315 -0.13163352 0 0 0 0 85.828484
3.3508103 2.1967132 -0.209181 0 0 0 0 85.833427
4.1670489 2.5238435 0.080701075 0 0 0 0 85.838379
4.0304666 2.554162 -0.036691383 0 0 0 0 85.843323
3.7519901 2.4821091 -0.13315277 0 0 0 0 85.848267
3.3735998 2.3287871 -0.21341203 0 0 0 0 85.853218
3.9581006 2.5174859 0.074866049 0 0 0 0 85.858162
3.8934188 2.5919189 -0.038022559 0 0 0 0 85.863113
3.652894 2.5389218 -0.13123912 0 0 0 0 85.868057
3.4173591 2.4809096 -0.21946037 0 0 0 0 85.873001
3.7851217 2.527195 0.069253199 0 0 0 0 85.877953
3.6794667 2.5705128 -0.035951853 0 0 0 0 85.882896
3.5917547 2.6228149 -0.13104083 0 0 0 0 85.887848
3.3592191 2.5607984 -0.21727008 0 0 0 0 85.892792
3.6451159 2.5509653 0.063840926 0 0 0 0 85.897743
3.5134752 2.5742054 -0.035566673 0 0 0 0 85.902687
3.4437261 2.6375215 -0.12652969 0 0 0 0 85.907631
3.2990792 2.6406837 -0.2150877 0 0 0 0 85.912582
3.5131063 2.5767505 0.058470245 0 0 0 0 85.917526
3.3724663 2.5889492 -0.036027633 0 0 0 0 85.922478
3.2607541 2.6181531 -0.12032605 0 0 0 0 85.927422
3.2219615 2.706532 -0.21204211 0 0 0 0 85.932365
3.4000757 2.6115658 0.054219704 0 0 0 0 85.937317
3.2504368 2.6147285 -0.036358725 0 0 0 0 85.942261
3.1417084 2.6439183 -0.11664528 0 0 0 0 85.947212
3.0489693 2.6851528 -0.19980878 0 0 0 0 85.952156
3.3060296 2.6564217 0.049094357 0 0 0 0 85.957108
3.1433978 2.6475403 -0.037595429 0 0 0 0 85.962051
3.0096931 2.6536593 -0.11309545 0 0 0 0 85.966995
2.8999641 2.6768327 -0.1904157 0 0 0 0 85.971947
3.0503433 2.6883783 -0.038736813 0 0 0 0 85.981842
2.9136324 2.689472 -0.11027368 0 0 0 0 85.986786
2.7899141 2.6986001 -0.1837191 0 0 0 0 85.99173
2.9493041 2.7212012 -0.039949741 0 0 0 0 86.001625
2.8075922 2.7142661 -0.10754625 0 0 0 0 86.006577
2.6768754 2.7143614 -0.17706424 0 0 0 0 86.01152
2.7215278 2.7561069 -0.1066551 0 0 0 0 86.02636
2.5818176 2.7421608 -0.1712783 0 0 0 0 86.031311
2.4867656 2.7689652 -0.16649739 0 0 0 0 86.051094
3.6553698 3.8807964 -0.084318437 0 0 0 0 86.060989
3.6071668 4.0077372 -0.088853471 0 0 0 0 86.08078
3.3226948 3.8835554 -0.16160075 0 0 0 0 86.085724
3.5509717 4.132668 -0.094430245 0 0 0 0 86.100563
3.2684932 4.0034704 -0.1631947 0 0 0 0 86.105515
3.0349345 3.9183686 -0.23254575 0 0 0 0 86.110458
3.5067422 4.2756214 -0.099869885 0 0 0 0 86.120354
3.2402334 4.1624532 -0.1684918 0 0 0 0 86.125305
2.9956894 4.0633163 -0.23495652 0 0 0 0 86.130249
3.1999788 4.3164082 -0.17286141 0 0 0 0 86.145088
2.9743915 4.2403069 -0.23913686 0 0 0 0 86.15004
3.1686938 4.4883852 -0.1781057 0 0 0 0 86.164879
2.9331155 4.403255 -0.24246624 0 0 0 0 86.169823
3.3729947 4.7434974 -0.11999859 0 0 0 0 86.179718
3.1144428 4.6383095 -0.18155059 0 0 0 0 86.184669
2.8988054 4.5842166 -0.24567829 0 0 0 0 86.189613
3.3207326 4.907445 -0.12736553 0 0 0 0 86.199509
3.0781348 4.8242812 -0.18774518 0 0 0 0 86.204453
2.8584991 4.7651711 -0.24991401 0 0 0 0 86.209404
3.2764399 5.0894117 -0.13561109 0 0 0 0 86.219292
3.0487812 5.0362716 -0.19478291 0 0 0 0 86.224243
2.8311243 4.9841552 -0.25490957 0 0 0 0 86.229187
3.2121854 5.2493367 -0.14304528 0 0 0 0 86.239082
3.0034592 5.2292266 -0.2009782 0 0 0 0 86.244026
2.5395412 4.7174835 -0.23036495 0 0 0 0 86.248978
3.1598773 5.4412932 -0.15227288 0 0 0 0 86.258873
3.0846145 5.605197 -0.159731 0 0 0 0 86.278656
2.4752536 4.7399297 -0.12716298 0 0 0 0 86.448906
2.1585097 4.7897491 -0.21218292 0 0 0 0 86.458801
2.2485852 5.2378092 -0.1855375 0 0 0 0 86.493431
2.2581344 4.7593808 -0.095850699 0 0 0 0 86.503326
2.1002119 4.8022714 -0.13427019 0 0 0 0 86.50827
2.4988916 6.2375269 -0.22953321 0 0 0 0 86.513222
2.0929515 5.7038059 -0.24181522 0 0 0 0 86.518166
2.1471062 4.7982121 -0.10307407 0 0 0 0 86.523117
3.0306907 7.4416404 -0.2443794 0 0 0 0 86.528061
2.1338298 5.6886911 -0.2016969 0 0 0 0 86.533012
2.5558522 7.5411606 -0.32979238 0 0 0 0 86.537956
2.201359 5.2504406 -0.12557743 0 0 0 0 86.5429
2.8386891 7.4573002 -0.24804008 0 0 0 0 86.547852
2.5868156 7.4599786 -0.28003877 0 0 0 0 86.552795
1.796926 5.7011809 -0.22695702 0 0 0 0 86.557747
2.4187877 6.1770778 -0.16606362 0 0 0 0 86.562691
2.6456974 7.4659519 -0.25074002 0 0 0 0 86.567635
1.8487841 5.7221456 -0.19861561 0 0 0 0 86.572586
2.1707845 7.5533524 -0.3122142 0 0 0 0 86.57753
2.0896521 5.7053976 -0.15570296 0 0 0 0 86.582481
2.0160632 6.1044636 -0.19601244 0 0 0 0 86.587425
1.4830832 4.9642596 -0.161826 0 0 0 0 86.592369
1.5923278 6.0398235 -0.23003551 0 0 0 0 86.597321
2.5345926 7.4986706 -0.23395863 0 0 0 0 86.602264
1.519066 4.9542737 -0.14970419 0 0 0 0 86.607216
2.0466225 7.5779567 -0.27752674 0 0 0 0 86.61216
1.8036578 7.602592 -0.29738137 0 0 0 0 86.617111
1.8076812 5.7399511 -0.17160505 0 0 0 0 86.622055
2.1006205 7.5570002 -0.26438206 0 0 0 0 86.626999
1.6382132 6.6509509 -0.23375079 0 0 0 0 86.63195
1.0731356 4.9665174 -0.16740441 0 0 0 0 86.636894
2.1736119 7.5481 -0.25510034 0 0 0 0 86.641846
1.5452186 6.0586123 -0.20204397 0 0 0 0 86.64679
1.1121246 4.9575462 -0.15726578 0 0 0 0 86.651733
0.95511228 4.9772744 -0.16279745 0 0 0 0 86.656685
1.5992526 6.0427108 -0.19987679 0 0 0 0 86.661629
1.1551175 4.9676328 -0.15701625 0 0 0 0 86.66658
0.99510968 4.9723253 -0.15663487 0 0 0 0 86.671524
1.2594947 7.666471 -0.27715856 0 0 0 0 86.676476
1.812633 7.5965281 -0.27624872 0 0 0 0 86.681419
1.0351322 4.9734216 -0.15944223 0 0 0 0 86.686363
1.323487 7.6675777 -0.27286428 0 0 0 0 86.691315
0.72301781 5.0278068 -0.15542407 0 0 0 0 86.696259
1.0812049 4.9525385 -0.16433427 0 0 0 0 86.70121
0.9171508 4.979219 -0.16286035 0 0 0 0 86.706154
0.76405132 5.0188942 -0.15627722 0 0 0 0 86.711098
0.71429008 6.0279994 -0.19345093 0 0 0 0 86.716049
0.96422088 4.9703627 -0.17268871 0 0 0 0 86.720993
1.2025717 7.6694345 -0.28828043 0 0 0 0 86.725945
0.7643261 6.0281291 -0.19922116 0 0 0 0 86.730888
0.48109692 4.9772949 -0.14359452 0 0 0 0 86.735832
0.84626311 4.9681697 -0.17814694 0 0 0 0 86.740784
0.687123 5.0268288 -0.17049412 0 0 0 0 86.745728
0.62628597 6.0578728 -0.19960044 0 0 0 0 86.750679
0.50032789 7.1497874 -0.22766776 0 0 0 0 86.755623
1.020712 7.0881019 -0.29084927 0 0 0 0 86.760574
0.67344809 6.0220666 -0.21956158 0 0 0 0 86.765518
0.56343108 7.1379967 -0.24444297 0 0 0 0 86.770462
0.25197744 5.0428362 -0.13713661 0 0 0 0 86.775414
0.62124306 5.0308332 -0.19468619 0 0 0 0 86.780357
0.44926515 4.975399 -0.17365412 0 0 0 0 86.785309
0.39640197 7.1616845 -0.24496903 0 0 0 0 86.790253
0.16026457 6.5989695 -0.19372484 0 0 0 0 86.795197
0.50132787 5.0086417 -0.20125298 0 0 0 0 86.800148
0.4555845 7.1489811 -0.28076509 0 0 0 0 86.805092
0.18182229 5.1878257 -0.15964445 0 0 0 0 86.810043
0.0022171899 7.194768 -0.21136443 0 0 0 0 86.814987
0.52381653 7.1233249 -0.32258889 0 0 0 0 86.819931
0.27432859 6.7325573 -0.26554367 0 0 0 0 86.824883
0.064383887 7.18606 -0.24512871 0 0 0 0 86.829826
-0.10113294 5.104126 -0.12717439 0 0 0 0 86.834778
0.34725016 6.8959732 -0.31940636 0 0 0 0 86.839722
0.122577 7.1934142 -0.29282922 0 0 0 0 86.844673
-0.0548499 5.014339 -0.15141055 0 0 0 0 86.849617
-0.33488774 7.2450871 -0.20241682 0 0 0 0 86.854561
0.1855066 6.7756824 -0.32263073 0 0 0 0 86.859512
-0.01359132 4.9585919 -0.1854977 0 0 0 0 86.864456
-0.2746934 7.24543 -0.24714433 0 0 0 0 86.869408
-0.5089891 7.2977405 -0.19882903 0 0 0 0 86.874352
0.034608997 4.9458876 -0.22534189 0 0 0 0 86.879295
-0.15161963 5.5825171 -0.22091587 0 0 0 0 86.884247
-0.44575873 7.2921195 -0.24957408 0 0 0 0 86.889191
-0.69217855 7.4003859 -0.19702911 0 0 0 0 86.894142
-0.097396143 5.5788741 -0.2706897 0 0 0 0 86.899086
-0.38748285 7.2905536 -0.31331924 0 0 0 0 86.904037
-0.62898678 7.4318042 -0.25558949 0 0 0 0 86.908981
-0.31379688 7.2671785 -0.38233331 0 0 0 0 87.357628
-0.56629741 7.4023967 -0.32368121 0 0 0 0 87.362579
-0.88992822 8.172596 -0.28712445 0 0 0 0 87.367523
-0.48782307 7.3189197 -0.39675409 0 0 0 0 87.377419
-0.80323696 7.9751315 -0.35973704 0 0 0 0 87.382362
-0.72079611 7.9427423 -0.44853598 0 0 0 0 87.397209
-1.0073919 8.0908089 -0.37295926 0 0 0 0 87.402153
-0.9137699 7.9674468 -0.46317077 0 0 0 0 87.416992
-1.2054198 8.1304722 -0.38153946 0 0 0 0 87.421944
-1.4728684 8.1664906 -0.28944865 0 0 0 0 87.426888
-1.1047282 7.9841557 -0.47783801 0 0 0 0 87.436783
-1.4195479 8.2301254 -0.39388403 0 0 0 0 87.441727
-1.3057464 8.0358534 -0.49437076 0 0 0 0 87.456573
-1.5208352 8.1345491 -0.51572484 0 0 0 0 87.476357
-1.7368913 8.2142382 -0.53617913 0 0 0 0 87.496147
-1.9589297 8.284915 -0.55670387 0 0 0 0 87.51593
-3.1379888 8.5761805 -0.6629324 0 0 0 0 87.614876
-5.1593304 8.7156639 -0.15142319 0 0 0 0 87.70887
-5.0964708 8.7248449 -0.36009786 0 0 0 0 87.723709
-5.0605855 8.7530499 -0.58378792 0 0 0 0 87.738548
-4.9925742 8.7594185 -0.82745594 0 0 0 0 87.753387
-6.2554646 8.2433872 -0.12521192 0 0 0 0 87.807808
-6.2084498 8.2487173 -0.36897394 0 0 0 0 87.822647
-6.4471965 8.0999832 -0.11970715 0 0 0 0 87.827591
-6.1455235 8.213089 -0.62125558 0 0 0 0 87.57383
-6.4123745 8.1152983 -0.36983955 0 0 0 0 87.578773
-6.7704196 8.1173306 -0.11829577 0 0 0 0 87.583717
-6.0763392 8.1976185 -0.89703268 0 0 0 0 87.588669
-6.3642626 8.1007004 -0.6286993 0 0 0 0 87.593613
-6.7303405 8.1217213 -0.37809306 0 0 0 0 87.598564
-7.1595492 8.1905746 -0.11850578 0 0 0 0 87.603508
-6.3200831 8.1112366 -0.91544873 0 0 0 0 87.608459
-6.6941924 8.1141615 -0.64896727 0 0 0 0 87.613403
-7.1033883 8.176053 -0.38933277 0 0 0 0 87.618347
-7.4915385 8.1849136 -0.11587963 0 0 0 0 87.623299
-6.6549706 8.1307545 -0.94870698 0 0 0 0 87.628242
-7.0751896 8.1725483 -0.67421991 0 0 0 0 87.633194
-7.4753828 8.20539 -0.40169555 0 0 0 0 87.638138
-7.92068 8.2640781 -0.11622688 0 0 0 0 87.643082
-7.0609436 8.2111731 -0.98995209 0 0 0 0 87.648033
-7.4651685 8.2219172 -0.69955623 0 0 0 0 87.652977
-7.9876046 8.3664894 -0.42097226 0 0 0 0 87.657928
-8.5872107 8.5518026 -0.12050099 0 0 0 0 87.662872
-7.4528532 8.2546101 -1.029327 0 0 0 0 87.667816
-8.1195259 8.5209026 -0.7507236 0 0 0 0 87.672768
-8.5769014 8.57446 -0.44433141 0 0 0 0 87.677711
-9.0553236 8.6158905 -0.1210877 0 0 0 0 87.682663
-8.1191158 8.5647144 -1.1084881 0 0 0 0 87.687607
-8.5915318 8.5971413 -0.78226519 0 0 0 0 87.692558
-9.0569458 8.6366014 -0.45997807 0 0 0 0 87.697502
-9.3020201 8.4543791 -0.11590213 0 0 0 0 87.702446
-8.5820198 8.6230526 -1.1560833 0 0 0 0 87.707397
-9.0675011 8.6543722 -0.81392062 0 0 0 0 87.712341
-9.2254791 8.3992634 -0.45885381 0 0 0 0 87.717293
-9.3583956 8.1232281 -0.1087897 0 0 0 0 87.722237
-9.0118399 8.62743 -1.1988163 0 0 0 0 87.72718
-9.1518745 8.327178 -0.80890375 0 0 0 0 87.732132
-9.2768459 8.0621157 -0.45075148 0 0 0 0 87.737076
-9.4107895 7.8000779 -0.10062156 0 0 0 0 87.742027
-9.0531626 8.2602835 -1.186824 0 0 0 0 87.746971
-9.2092447 7.9920201 -0.80081683 0 0 0 0 87.751915
-9.3332233 7.7349701 -0.44462067 0 0 0 0 87.756866
-9.4561853 7.4819517 -0.094400309 0 0 0 0 87.76181
-9.108511 7.9141312 -1.178785 0 0 0 0 87.766762
-9.2506065 7.6528931 -0.79268503 0 0 0 0 87.771706
-9.3756123 7.4118452 -0.4374128 0 0 0 0 87.776657
-9.5086098 7.1768069 -0.087143585 0 0 0 0 87.781601
-9.1588812 7.5799875 -1.1706657 0 0 0 0 87.786545
-9.2949829 7.3237658 -0.78551638 0 0 0 0 87.791496
-9.4200163 7.098722 -0.43116382 0 0 0 0 87.79644
-9.5440216 6.8697052 -0.081827573 0 0 0 0 87.801392
-9.359416 7.372653 -1.1825273 0 0 0 0 87.806335
-9.3423901 7.010632 -0.77828044 0 0 0 0 87.811279
-9.4674301 6.7925973 -0.4258931 0 0 0 0 87.816231
-9.5834589 6.5735903 -0.075473674 0 0 0 0 87.821175
-9.4138031 7.0515113 -1.1763614 0 0 0 0 87.826126
-9.3867989 6.7005091 -0.77201807 0 0 0 0 87.83107
-9.5048609 6.4934874 -0.41954657 0 0 0 0 87.836021
-9.6319113 6.2874627 -0.070107654 0 0 0 0 87.840965
-9.4672117 6.7413716 -1.170137 0 0 0 0 87.845909
-9.4282217 6.3993964 -0.76669884 0 0 0 0 87.850861
-9.5613184 6.2123494 -0.41518894 0 0 0 0 87.855804
-9.6773729 6.0083456 -0.065694802 0 0 0 0 87.860756
-9.5136194 6.4312453 -1.1638848 0 0 0 0 87.8657
-9.4786644 6.1112714 -0.76235217 0 0 0 0 87.870644
-9.5847435 5.913271 -0.40978652 0 0 0 0 87.875595
-9.7398653 5.7451954 -0.061272644 0 0 0 0 87.880539
-9.4039326 6.0323257 -1.1384366 0 0 0 0 87.88549
-9.5311222 5.8311424 -0.75797451 0 0 0 0 87.890434
-11.469002 -8.2476292 -1.3980041 0 0 0 0 88.704689
-11.491025 -8.6915913 -1.415398 0 0 0 0 88.72448
-11.655643 -8.5179262 -0.63718307 0 0 0 0 88.734375
-11.727402 -8.4159765 -0.26695353 0 0 0 0 88.739319
-11.560917 -9.1886148 -1.4392695 0 0 0 0 88.74427
-11.639857 -9.0909119 -1.0240914 0 0 0 0 88.749214
-11.716616 -8.9849606 -0.65586251 0 0 0 0 88.754166
-11.788401 -8.8710127 -0.28557119 0 0 0 0 88.759109
-11.598808 -9.6875811 -1.4620183 0 0 0 0 88.764053
-11.709735 -9.596941 -1.0470116 0 0 0 0 88.769005
-11.783527 -9.4789963 -0.67670834 0 0 0 0 88.773949
-11.870325 -9.3600826 -0.30545482 0 0 0 0 88.7789
-11.6656 -10.229589 -1.4881132 0 0 0 0 88.783844
-11.752604 -10.108923 -1.0688506 0 0 0 0 88.788795
-11.848399 -9.9900217 -0.6986354 0 0 0 0 88.793739
-11.893296 -9.8260384 -0.32497227 0 0 0 0 88.798683
-11.752291 -10.813613 -1.5185114 0 0 0 0 88.803635
-11.832363 -10.669961 -1.094101 0 0 0 0 88.808578
-11.907222 -10.52303 -0.72165263 0 0 0 0 88.81353
-11.96115 -10.34607 -0.34696057 0 0 0 0 88.818474
-11.484764 -11.09516 -1.5038522 0 0 0 0 88.823418
-11.755404 -11.112748 -1.1070803 0 0 0 0 88.828369
-11.972984 -11.084047 -0.74584621 0 0 0 0 88.833313
-12.047918 -10.906135 -0.37023786 0 0 0 0 88.838264
-11.032096 -11.181469 -1.4632292 0 0 0 0 88.602798
-11.274711 -11.178921 -1.0802313 0 0 0 0 88.607742
-11.526157 -11.176185 -0.73727065 0 0 0 0 88.612694
-11.747732 -11.134453 -0.38198337 0 0 0 0 88.617638
-10.350706 -11.008486 -1.3904846 0 0 0 0 88.622581
-10.807684 -11.232131 -1.0535549 0 0 0 0 88.627533
-11.051085 -11.221302 -0.72551924 0 0 0 0 88.632477
-11.321485 -11.229573 -0.38869554 0 0 0 0 88.637428
-9.9067316 -11.062805 -1.3509085 0 0 0 0 88.642372
-10.143205 -11.051051 -1.0058385 0 0 0 0 88.647316
-10.385487 -11.053108 -0.69986498 0 0 0 0 88.652267
-10.647817 -11.052256 -0.38396084 0 0 0 0 88.657211
-9.467803 -11.096142 -1.3102444 0 0 0 0 88.662163
-9.7301302 -11.117341 -0.98445362 0 0 0 0 88.667107
-9.9583969 -11.102308 -0.69033355 0 0 0 0 88.672058
-10.198701 -11.085342 -0.38825417 0 0 0 0 88.677002
-9.0618105 -11.150516 -1.2748265 0 0 0 0 88.681946
-9.3071194 -11.15662 -0.96088666 0 0 0 0 88.686897
-9.5582724 -11.164551 -0.68298197 0 0 0 0 88.691841
-9.8434124 -11.197596 -0.39634994 0 0 0 0 88.696793
-8.8133354 -11.398078 -1.2640681 0 0 0 0 88.701736
-9.0028009 -11.322063 -0.95146996 0 0 0 0 88.70668
-9.1791019 -11.244824 -0.67781079 0 0 0 0 88.711632
-9.3943739 -11.191681 -0.40044022 0 0 0 0 88.716576
-9.1112299 -12.025099 -0.98856777 0 0 0 0 88.726471
-8.9645147 -11.513367 -0.68430448 0 0 0 0 88.731422
-9.1139383 -11.37307 -0.41120678 0 0 0 0 88.736366
-8.012125 -12.051703 -1.2220991 0 0 0 0 88.761101
-8.1232624 -12.078649 -0.69371235 0 0 0 0 88.790779
-7.6419883 -12.153841 -0.4700906 0 0 0 0 88.835304
-7.3027787 -12.224118 -0.4790329 0 0 0 0 88.855095
-6.1980944 -12.285809 -1.0797027 0 0 0 0 88.860039
-4.4796047 -12.54586 -0.78882879 0 0 0 0 88.983719
-3.1124058 -12.007898 -0.82826537 0 0 0 0 89.038132
-3.3657713 -12.053968 -0.7195766 0 0 0 0 89.043083
-2.8391788 -12.130407 -0.81674755 0 0 0 0 89.057922
-3.0558722 -12.015412 -0.70606738 0 0 0 0 89.062866
-3.296102 -12.057281 -0.63130236 0 0 0 0 89.067818
-2.5296111 -12.084784 -0.79228801 0 0 0 0 89.561089
-2.77596 -12.102757 -0.70143408 0 0 0 0 89.566032
-2.9943793 -12.043569 -0.6300571 0 0 0 0 89.570984
-3.2277193 -12.021407 -0.55993807 0 0 0 0 89.575928
-2.2356596 -12.085284 -0.77303678 0 0 0 0 89.580879
-2.4730494 -12.068203 -0.68896127 0 0 0 0 89.585823
-2.7072775 -12.075979 -0.63100326 0 0 0 0 89.590767
-2.9504874 -12.092773 -0.57313114 0 0 0 0 89.595718
-1.9456978 -12.090793 -0.75382805 0 0 0 0 89.600662
-2.184041 -12.075662 -0.67976725 0 0 0 0 89.605614
-2.4102998 -12.05138 -0.62960756 0 0 0 0 89.610558
-2.6603978 -12.10013 -0.58293295 0 0 0 0 89.615501
-1.6665871 -12.159296 -0.73999542 0 0 0 0 89.620453
-1.9019508 -12.117117 -0.67378044 0 0 0 0 89.625397
-2.1212347 -12.065785 -0.63044935 0 0 0 0 89.630348
-2.3633919 -12.070484 -0.59051025 0 0 0 0 89.635292
-1.1882466 -10.574931 -0.61863655 0 0 0 0 89.640244
-1.4260144 -10.763598 -0.58364302 0 0 0 0 89.645187
-1.8460468 -12.134202 -0.63463324 0 0 0 0 89.650131
-2.0742979 -12.077837 -0.6013146 0 0 0 0 89.655083
-1.0915104 -12.233288 -0.7079255 0 0 0 0 89.660027
-1.1514181 -10.585128 -0.56552964 0 0 0 0 89.664978
-1.3652436 -10.696628 -0.55302995 0 0 0 0 89.669922
-1.7990735 -12.143201 -0.61548215 0 0 0 0 89.674866
-0.69704384 -10.693044 -0.5961498 0 0 0 0 89.679817
-1.0506617 -12.248466 -0.65683115 0 0 0 0 89.684761
-1.1112622 -10.672108 -0.55281246 0 0 0 0 89.689713
-1.3212898 -10.677585 -0.54274058 0 0 0 0 89.694656
-0.43755141 -10.484656 -0.56794137 0 0 0 0 89.6996
-0.65731817 -10.627172 -0.55463058 0 0 0 0 89.704552
-0.93241656 -11.475503 -0.60026562 0 0 0 0 89.709496
-1.2386711 -12.252913 -0.64266253 0 0 0 0 89.714447
-0.18171778 -9.9813519 -0.52419758 0 0 0 0 89.719391
-0.4017137 -10.448729 -0.53859532 0 0 0 0 89.724342
-0.60842627 -10.567094 -0.54910296 0 0 0 0 89.729286
-0.88935643 -11.470366 -0.60805434 0 0 0 0 89.73423
0.050033763 -9.8819714 -0.50567758 0 0 0 0 89.739182
-0.14985421 -9.9393854 -0.50383532 0 0 0 0 89.744125
-0.35567746 -10.436597 -0.54433107 0 0 0 0 89.749077
-0.56739593 -10.532926 -0.5637452 0 0 0 0 89.754021
0.28213206 -9.9365454 -0.49596456 0 0 0 0 89.758965
0.080029406 -9.883955 -0.49555388 0 0 0 0 89.763916
-0.10580695 -9.9202271 -0.51554114 0 0 0 0 89.76886
-0.32043347 -10.484382 -0.57042849 0 0 0 0 89.773811
0.55294454 -10.754833 -0.52810192 0 0 0 0 89.778755
0.36365303 -11.933825 -0.60611534 0 0 0 0 89.783699
0.12517841 -9.8937407 -0.51740682 0 0 0 0 89.788651
-0.067674004 -9.9029799 -0.54628259 0 0 0 0 89.793594
0.77400029 -10.344556 -0.49299088 0 0 0 0 89.798546
0.58084852 -10.683754 -0.53060412 0 0 0 0 89.80349
0.41381085 -11.921537 -0.639835 0 0 0 0 89.808441
0.16044757 -9.9244518 -0.55741251 0 0 0 0 89.813385
1.0026742 -10.209185 -0.4732919 0 0 0 0 89.818329
0.79478508 -10.204465 -0.50015903 0 0 0 0 89.82328
0.41306993 -10.601662 -0.61088908 0 0 0 0 89.833176
1.5883081 -13.187287 -0.61545163 0 0 0 0 89.83812
1.0338323 -10.218987 -0.49720401 0 0 0 0 89.843063
0.6612457 -10.641071 -0.62602741 0 0 0 0 89.852959
1.901338 -13.215718 -0.60125583 0 0 0 0 89.85791
1.6235194 -13.187997 -0.65530455 0 0 0 0 89.862854
1.0801477 -10.2426 -0.55112427 0 0 0 0 89.867805
0.87124914 -10.17173 -0.60664874 0 0 0 0 89.872749
1.8371667 -10.906482 -0.47236368 0 0 0 0 89.877693
1.9436375 -13.234349 -0.65317237 0 0 0 0 89.882645
1.6839086 -13.193449 -0.73407495 0 0 0 0 89.887589
1.1225781 -10.278111 -0.6261245 0 0 0 0 89.89254
2.5495553 -13.339507 -0.57811928 0 0 0 0 89.897484
2.2647684 -13.284694 -0.65205616 0 0 0 0 89.902428
1.6993407 -11.160997 -0.61629361 0 0 0 0 89.907379
1.4512403 -10.961134 -0.68530756 0 0 0 0 89.912323
2.8694997 -13.327929 -0.56268048 0 0 0 0 89.917274
2.5847986 -13.290052 -0.64870673 0 0 0 0 89.922218
2.3242114 -13.272038 -0.75173461 0 0 0 0 89.927162
1.7072282 -10.916549 -0.69596738 0 0 0 0 89.932114
3.2096503 -13.407281 -0.55263335 0 0 0 0 89.937057
2.9149437 -13.345373 -0.64857644 0 0 0 0 89.942009
2.6503363 -13.29832 -0.7604689 0 0 0 0 89.946953
2.3767791 -13.265259 -0.87747395 0 0 0 0 89.951904
3.5507233 -13.452642 -0.54040229 0 0 0 0 89.956848
3.2541134 -13.410669 -0.64945918 0 0 0 0 89.961792
2.9734223 -13.307612 -0.76812577 0 0 0 0 89.966743
2.6462998 -13.011699 -0.87697452 0 0 0 0 89.971687
3.7395971 -12.953427 -0.50495142 0 0 0 0 89.976639
3.5831501 -13.417003 -0.64707363 0 0 0 0 89.981583
3.3186867 -13.393833 -0.78109241 0 0 0 0 89.986526
3.0301139 -13.312702 -0.91690928 0 0 0 0 89.991478
4.0424266 -12.885882 -0.48928651 0 0 0 0 89.996422
3.7790759 -12.928736 -0.61864877 0 0 0 0 90.001373
3.6598554 -13.435066 -0.79283839 0 0 0 0 90.006317
3.391535 -13.441804 -0.94603258 0 0 0 0 90.011261
4.1660872 -12.28681 -0.45158508 0 0 0 0 90.016212
3.9217989 -12.347593 -0.5869602 0 0 0 0 90.021156
2.3477709 -8.3867788 -0.57881945 0 0 0 0 90.031052
2.755157 -8.4625521 -0.48661086 0 0 0 0 89.756317
2.5594475 -8.3813982 -0.59102339 0 0 0 0 89.761261
2.9792399 -8.4740515 -0.49369943 0 0 0 0 89.7761
2.7936792 -8.4428186 -0.60933125 0 0 0 0 89.781052
3.6216152 -8.625905 -0.27273107 0 0 0 0 89.785995
3.4090033 -8.5757418 -0.38537928 0 0 0 0 89.790947
3.2214274 -8.528492 -0.50493562 0 0 0 0 89.795891
3.9068778 -8.7473326 -0.2701337 0 0 0 0 89.805786
3.6651683 -8.636198 -0.38858634 0 0 0 0 89.81073
2.5414658 -6.5899448 -0.48363912 0 0 0 0 89.820625
4.1247659 -8.6989336 -0.25993133 0 0 0 0 89.825577
3.9293416 -8.6986303 -0.39276892 0 0 0 0 89.830521
2.7255797 -6.6044927 -0.49691144 0 0 0 0 89.840416
4.4099331 -8.7773714 -0.25510707 0 0 0 0 89.84536
3.2851679 -6.8234172 -0.29464865 0 0 0 0 89.850311
3.1024349 -6.7242212 -0.40191019 0 0 0 0 89.855255
2.9358208 -6.6709609 -0.51534462 0 0 0 0 89.860199
3.6868925 -6.917191 -0.18140294 0 0 0 0 89.86515
3.4972813 -6.8609662 -0.29692054 0 0 0 0 89.870094
3.3236396 -6.787704 -0.41327983 0 0 0 0 89.875046
2.5388381 -5.3942709 -0.41430879 0 0 0 0 89.87999
3.9169896 -6.96174 -0.17663367 0 0 0 0 89.884941
3.7173927 -6.8954935 -0.30014166 0 0 0 0 89.889885
3.6010671 -6.9460354 -0.43190736 0 0 0 0 89.894829
2.6526976 -5.3050141 -0.41733298 0 0 0 0 89.89978
4.1440644 -6.995295 -0.17181893 0 0 0 0 89.904724
3.9796464 -6.9939189 -0.30651793 0 0 0 0 89.909676
2.9253144 -5.3099589 -0.32117224 0 0 0 0 89.914619
2.7906878 -5.269681 -0.42553714 0 0 0 0 89.919563
4.4012103 -7.0617833 -0.16804798 0 0 0 0 89.924515
3.2601235 -5.4137878 -0.22326471 0 0 0 0 89.929459
3.0743136 -5.2876248 -0.3253969 0 0 0 0 89.93441
2.9537845 -5.278276 -0.43786451 0 0 0 0 89.939354
3.4291523 -5.4124289 -0.22451326 0 0 0 0 89.949249
3.2544382 -5.3162003 -0.33475578 0 0 0 0 89.954193
3.1459885 -5.3287845 -0.45528737 0 0 0 0 89.959145
3.6393056 -5.46597 -0.22887404 0 0 0 0 89.96904
3.4816954 -5.401659 -0.34821159 0 0 0 0 89.973984
3.3351426 -5.3593102 -0.47061753 0 0 0 0 89.978928
4.8123708 -6.6670642 -0.13914707 0 0 0 0 89.983879
4.0250044 -5.7600856 -0.2467486 0 0 0 0 89.988823
3.7721534 -5.5709524 -0.36883757 0 0 0 0 89.993774
3.5323079 -5.3908091 -0.48791793 0 0 0 0 89.998718
4.0826225 -5.7411942 -0.39138219 0 0 0 0 90.013557
3.357079 -4.8603706 -0.44585332 0 0 0 0 90.018509
3.8111534 -5.0949569 -0.34811991 0 0 0 0 90.033348
3.3570881 -4.3954697 -0.42235976 0 0 0 0 90.058083
2.5972106 -3.2196264 -0.30239913 0 0 0 0 90.077873
2.6510532 -3.1315107 -0.30168086 0 0 0 0 90.097656
2.7299843 -3.0763175 -0.30602813 0 0 0 0 90.117447
2.8249545 -3.0360811 -0.31238493 0 0 0 0 90.137238
2.9219222 -2.9948406 -0.31872734 0 0 0 0 90.157021
3.888763 -3.5484519 -0.019470686 0 0 0 0 90.161972
3.3373342 -3.118031 -0.12157044 0 0 0 0 90.166916
3.1315098 -2.9909234 -0.2207834 0 0 0 0 90.171867
3.0429542 -2.9785349 -0.32809749 0 0 0 0 90.176811
3.8643937 -3.3695269 -0.01260696 0 0 0 0 90.181755
3.4663229 -3.0957465 -0.1238739 0 0 0 0 90.186707
3.2705467 -2.9835973 -0.2271228 0 0 0 0 90.19165
3.1920438 -2.982151 -0.34145164 0 0 0 0 90.196602
4.3199153 -3.6065729 -0.015872752 0 0 0 0 90.201546
3.7526085 -3.2041049 -0.13318945 0 0 0 0 90.20649
3.4847441 -3.0380754 -0.24146456 0 0 0 0 90.211441
3.4213128 -3.0525508 -0.36481291 0 0 0 0 90.216385
4.3546238 -3.5596678 -0.16030811 0 0 0 0 90.354286
3.8994858 -3.2509987 -0.27263761 0 0 0 0 90.35923
3.5053623 -2.9812851 -0.36990935 0 0 0 0 90.364182
4.3362575 -3.38273 -0.15342546 0 0 0 0 90.374069
3.8240182 -3.0372093 -0.25980648 0 0 0 0 90.379021
3.3908153 -2.7456176 -0.34913117 0 0 0 0 90.383965
4.3148971 -3.2087986 -0.14657114 0 0 0 0 90.39386
3.8257339 -2.89622 -0.25502732 0 0 0 0 90.398811
3.3945575 -2.6176245 -0.34441236 0 0 0 0 90.403755
4.2995677 -3.0478494 -0.14075917 0 0 0 0 90.413651
3.8174393 -2.7522566 -0.24927524 0 0 0 0 90.418594
3.4093349 -2.502598 -0.3417142 0 0 0 0 90.423546
4.934411 -3.2663045 0.0028533216 0 0 0 0 90.42849
4.299273 -2.9018641 -0.13596104 0 0 0 0 90.433434
3.8261874 -2.6252475 -0.24553894 0 0 0 0 90.438385
3.4030726 -2.3746302 -0.33603796 0 0 0 0 90.443329
4.917069 -3.099359 0.0086897416 0 0 0 0 90.44828
4.3009963 -2.7628694 -0.13219084 0 0 0 0 90.453224
3.779851 -2.4653721 -0.23786624 0 0 0 0 90.458168
3.3908143 -2.2486746 -0.33039796 0 0 0 0 90.46312
4.9237738 -2.9513543 0.012530239 0 0 0 0 90.468063
4.2897072 -2.6199064 -0.12745546 0 0 0 0 90.473015
3.7996359 -2.3543353 -0.23516609 0 0 0 0 90.477959
3.3986056 -2.1406622 -0.32776615 0 0 0 0 90.48291
4.2964506 -2.4909015 -0.12371564 0 0 0 0 90.492798
3.815423 -2.2443066 -0.23248821 0 0 0 0 90.497749
3.4073987 -2.0336478 -0.32513484 0 0 0 0 90.502693
4.2821803 -2.3549395 -0.12002956 0 0 0 0 90.512589
3.7931564 -2.112366 -0.22785845 0 0 0 0 90.517532
3.4071834 -1.9246569 -0.32153168 0 0 0 0 90.522484
4.8818645 -2.5004766 0.025822219 0 0 0 0 90.527428
4.2959442 -2.23592 -0.11631146 0 0 0 0 90.532379
3.7969368 -2.0013669 -0.22422671 0 0 0 0 90.537323
3.3919532 -1.8127073 -0.3159776 0 0 0 0 90.542274
4.8886056 -2.3684661 0.028579779 0 0 0 0 90.547218
4.2736793 -2.1029739 -0.1126753 0 0 0 0 90.552162
3.8057337 -1.8943471 -0.22259396 0 0 0 0 90.557114
3.3917544 -1.7097111 -0.31340563 0 0 0 0 90.562057
4.8713245 -2.22751 0.032281104 0 0 0 0 90.567009
4.2744474 -1.9839758 -0.11001293 0 0 0 0 90.571953
3.8045177 -1.7853582 -0.21899383 0 0 0 0 90.576897
3.3925633 -1.6107128 -0.31085017 0 0 0 0 90.581848
4.8830819 -2.1034894 0.035018846 0 0 0 0 90.586792
4.2772212 -1.8679734 -0.10735738 0 0 0 0 90.591743
3.8023105 -1.6783661 -0.21640827 0 0 0 0 90.596687
3.3873658 -1.5107321 -0.30731526 0 0 0 0 90.601631
4.8778243 -1.9745088 0.03870954 0 0 0 0 90.606583
4.2659912 -1.7499996 -0.10475183 0 0 0 0 90.611526
3.0592139 -1.2581913 -0.15837397 0 0 0 0 90.616478
2.6431644 -1.0967036 -0.22231828 0 0 0 0 90.621422
3.3008201 -1.2591935 -0.063307218 0 0 0 0 90.631317
2.9609475 -1.1374331 -0.14913265 0 0 0 0 90.636261
2.6800742 -1.0386107 -0.22382355 0 0 0 0 90.641212
3.7404668 -1.3168821 0.049320042 0 0 0 0 90.646156
3.3627169 -1.1970549 -0.063681334 0 0 0 0 90.651108
3.0078576 -1.0773143 -0.15158308 0 0 0 0 90.656052
2.8040991 -1.0132809 -0.23612434 0 0 0 0 90.660995
3.9054098 -1.2795379 0.050263014 0 0 0 0 90.665947
3.6658258 -1.2153642 -0.074434362 0 0 0 0 90.670891
3.2649767 -1.0876856 -0.16849436 0 0 0 0 90.675842
3.1323555 -1.0524107 -0.27087986 0 0 0 0 90.680786
4.181417 -1.2719613 0.050531413 0 0 0 0 90.68573
4.2751546 -1.3159833 -0.096292377 0 0 0 0 90.690681
3.7803285 -1.169422 -0.20466149 0 0 0 0 90.695625
3.3894956 -1.0537335 -0.29674226 0 0 0 0 90.700577
4.9006686 -1.3774621 0.049127996 0 0 0 0 90.705521
4.2349215 -1.1990741 -0.092816897 0 0 0 0 90.710472
3.7691348 -1.0694482 -0.2021504 0 0 0 0 90.715416
3.3743205 -0.96276784 -0.29429698 0 0 0 0 90.72036
4.8584208 -1.2515516 0.051643703 0 0 0 0 90.725311
4.2397342 -1.0980569 -0.092229754 0 0 0 0 90.730255
3.7629573 -0.97545874 -0.2006491 0 0 0 0 90.735207
3.3791616 -0.87775582 -0.29279596 0 0 0 0 90.74015
4.8391938 -1.1335888 0.053217608 0 0 0 0 90.745094
4.2315359 -0.99407142 -0.090683058 0 0 0 0 90.750046
3.7627821 -0.88245696 -0.1991266 0 0 0 0 90.75499
3.3699944 -0.79077792 -0.29034522 0 0 0 0 90.759941
4.8349767 -1.0205953 0.054830797 0 0 0 0 90.764885
4.2053318 -0.88912827 -0.088209413 0 0 0 0 90.769836
3.7486002 -0.78848922 -0.19665965 0 0 0 0 90.77478
3.3618352 -0.70579249 -0.28890046 0 0 0 0 90.779724
4.8167601 -0.90562505 0.055393841 0 0 0 0 90.784676
4.2261558 -0.79407817 -0.087583229 0 0 0 0 90.789619
3.7404265 -0.69650382 -0.19517681 0 0 0 0 90.794571
3.3596785 -0.62179482 -0.28743449 0 0 0 0 90.799515
4.7925406 -0.79167247 0.056925617 0 0 0 0 90.804459
4.2039595 -0.69112146 -0.086102083 0 0 0 0 90.80941
3.7342591 -0.60751438 -0.19370098 0 0 0 0 90.814354
4.7830653 -0.68280071 0.057127539 0 0 0 0 90.563049
4.2045093 -0.59522724 -0.085917562 0 0 0 0 90.567993
4.7498536 -0.57186627 0.058602534 0 0 0 0 90.582832
4.1993299 -0.49823034 -0.085395627 0 0 0 0 90.587784
4.7406554 -0.46587744 0.059155919 0 0 0 0 90.602623
4.1901484 -0.40224686 -0.083896153 0 0 0 0 90.607567
4.7234573 -0.359905 0.059674758 0 0 0 0 90.622414
4.1759715 -0.30626827 -0.083418138 0 0 0 0 90.627357
4.7252674 -0.25588849 0.05926621 0 0 0 0 90.642197
4.1707959 -0.21127133 -0.082905866 0 0 0 0 90.647148
4.7140713 -0.15090382 0.059806611 0 0 0 0 90.661987
4.1686225 -0.11726828 -0.082385503 0 0 0 0 90.666931
4.6698771 -0.046986498 0.060197908 0 0 0 0 90.681778
4.142447 -0.022314211 -0.081964292 0 0 0 0 90.686722
4.676693 0.054040253 0.059796266 0 0 0 0 90.701561
4.126277 0.069660284 -0.081515118 0 0 0 0 90.706512
4.645505 0.1569894 0.059239633 0 0 0 0 90.721352
4.1181073 0.16165109 -0.081030704 0 0 0 0 90.726295
4.6413207 0.25799367 0.058790643 0 0 0 0 90.741142
4.1009417 0.25362885 -0.081585295 0 0 0 0 90.746086
4.6801276 0.36308575 0.058551397 0 0 0 0 90.760925
4.0807738 0.3445951 -0.081158079 0 0 0 0 90.765877
4.5409622 0.45280898 0.058453839 0 0 0 0 90.780716
4.093606 0.43963942 -0.082564823 0 0 0 0 90.78566
4.0228968 0.49174717 0.058430471 0 0 0 0 90.800499
4.0794377 0.53061795 -0.082110755 0 0 0 0 90.80545
3.7648056 0.54422158 0.058613401 0 0 0 0 90.82029
3.6183329 0.55458677 -0.065966517 0 0 0 0 90.825241
3.5777156 0.59784627 0.05811204 0 0 0 0 90.84008
3.3982272 0.59910131 -0.058660973 0 0 0 0 90.845024
3.4856081 0.66167021 0.057079971 0 0 0 0 90.859863
3.2461255 0.64777064 -0.054036513 0 0 0 0 90.864815
4.6060119 0.97802711 0.052700959 0 0 0 0 90.879654
3.1430235 0.70055079 -0.051176157 0 0 0 0 90.884605
2.9124508 0.68154645 -0.13928109 0 0 0 0 90.889549
4.4848781 1.054792 0.051613525 0 0 0 0 90.899445
3.0679193 0.75639343 -0.049177084 0 0 0 0 90.904388
2.795352 0.72227108 -0.13154696 0 0 0 0 90.90934
2.6427383 0.71440488 -0.21525168 0 0 0 0 90.914284
4.4726944 1.1567852 0.050137822 0 0 0 0 90.919228
3.9874508 1.0795118 -0.08639472 0 0 0 0 90.924179
2.6942637 0.76203907 -0.12574817 0 0 0 0 90.929123
2.5606351 0.75720102 -0.2073538 0 0 0 0 90.934074
4.4585176 1.2577797 0.047648359 0 0 0 0 90.939018
3.9662905 1.1704865 -0.087969296 0 0 0 0 90.943962
2.6951513 0.83005846 -0.12735185 0 0 0 0 90.948914
2.5065339 0.80507052 -0.2023063 0 0 0 0 90.953857
4.4333382 1.3577462 0.046105586 0 0 0 0 90.958809
3.9521236 1.2624701 -0.088507533 0 0 0 0 90.963753
3.5307455 1.1781452 -0.19079959 0 0 0 0 90.968704
2.4584353 0.85395747 -0.19822703 0 0 0 0 90.973648
4.411159 1.4577187 0.044576254 0 0 0 0 90.978592
3.941957 1.3584727 -0.091006421 0 0 0 0 90.983543
3.5165892 1.2651289 -0.19136508 0 0 0 0 90.988487
3.1861305 1.1939257 -0.28118932 0 0 0 0 90.993439
4.3939795 1.5597069 0.042079933 0 0 0 0 90.998383
3.91979 1.4504399 -0.091579206 0 0 0 0 91.003326
3.5074346 1.353128 -0.19290294 0 0 0 0 91.008278
3.1739864 1.2749134 -0.28177851 0 0 0 0 91.013222
4.3787961 1.6636992 0.039603449 0 0 0 0 91.018173
3.9016211 1.5454206 -0.093118019 0 0 0 0 91.023117
3.48928 1.4391035 -0.19349077 0 0 0 0 91.028069
3.1588426 1.3558949 -0.28238061 0 0 0 0 91.033012
4.3410897 1.7598554 0.03776313 0 0 0 0 91.523712
3.8749278 1.6365918 -0.093959831 0 0 0 0 91.528656
3.4735963 1.5282946 -0.19431487 0 0 0 0 91.533607
3.1491718 1.4410968 -0.28321582 0 0 0 0 91.538551
4.3099127 1.8598144 0.035198834 0 0 0 0 91.543503
3.8487632 1.7285558 -0.095546149 0 0 0 0 91.548447
3.4564359 1.6162717 -0.19488376 0 0 0 0 91.553398
3.134022 1.524078 -0.28380349 0 0 0 0 91.558342
4.2957225 1.9658084 0.03274262 0 0 0 0 91.563286
3.8195984 1.8205135 -0.097145528 0 0 0 0 91.568237
3.4462714 1.710274 -0.1973888 0 0 0 0 91.573181
3.1168764 1.6070606 -0.28539976 0 0 0 0 91.578133
4.2435646 2.0567238 0.030037064 0 0 0 0 91.583076
3.807421 1.9205117 -0.099625938 0 0 0 0 91.58802
3.4261131 1.7992504 -0.19896498 0 0 0 0 91.592972
3.0967264 1.6900314 -0.28600907 0 0 0 0 91.597916
