# .PCD v0.7 - Point Cloud Data file format
VERSION 0.7
FIELDS x y z normal_x normal_y normal_z intensity curvature
SIZE 4 4 4 4 4 4 4 4
TYPE F F F F F F F F
COUNT 1 1 1 1 1 1 1 1
WIDTH 977
HEIGHT 1
VIEWPOINT 0 0 0 1 0 0 0
POINTS 977
DATA ascii
1.1995645 -4.2074218 2.1234138 0 0 0 0 34.689693
1.0465649 -4.218257 2.1524394 0 0 0 0 34.694641
0.90557986 -4.2170901 2.1704829 0 0 0 0 34.699585
0.76858789 -4.2219415 2.1955156 0 0 0 0 34.704533
1.3046174 -4.2005825 2.1434634 0 0 0 0 34.70948
1.1476195 -4.2094011 2.1654935 0 0 0 0 34.714428
1.0036308 -4.2102242 2.1795344 0 0 0 0 34.719376
0.86463422 -4.2180676 2.2015629 0 0 0 0 34.724319
1.4106719 -4.1927457 2.1645143 0 0 0 0 34.729271
1.2496742 -4.2005491 2.1805468 0 0 0 0 34.734215
1.1036785 -4.2063661 2.1925802 0 0 0 0 34.739162
0.96068442 -4.2111917 2.2066145 0 0 0 0 34.74411
1.5177319 -4.1809087 2.1855712 0 0 0 0 34.749054
1.3557166 -4.2017117 2.2015824 0 0 0 0 34.754005
1.2047235 -4.2045107 2.2066219 0 0 0 0 34.758949
1.0577375 -4.2023177 2.2126691 0 0 0 0 34.763897
1.629777 -4.1810894 2.2136064 0 0 0 0 34.768845
1.4607681 -4.195868 2.2206292 0 0 0 0 34.773792
1.3047789 -4.1946478 2.2176769 0 0 0 0 34.77874
1.1567782 -4.203455 2.2247062 0 0 0 0 34.783684
1.739835 -4.1712613 2.2386584 0 0 0 0 34.788635
1.5658239 -4.1870251 2.2406812 0 0 0 0 34.793579
1.4068334 -4.185791 2.2317295 0 0 0 0 34.798527
1.2558291 -4.1965871 2.2337558 0 0 0 0 34.803474
1.6758713 -4.1851964 2.2657194 0 0 0 0 34.81337
1.5118783 -4.1849461 2.2507675 0 0 0 0 34.818314
1.3558813 -4.1887188 2.2428071 0 0 0 0 34.823261
1.6149343 -4.1750908 2.2658205 0 0 0 0 34.838104
1.4569291 -4.1848578 2.2558508 0 0 0 0 34.843048
2.084995 -4.1548171 2.3307869 0 0 0 0 34.847996
1.719992 -4.1642399 2.2828743 0 0 0 0 34.857891
1.5619732 -4.1840062 2.2718885 0 0 0 0 34.862839
2.2010586 -4.1420031 2.3628409 0 0 0 0 34.867783
2.014019 -4.1767225 2.3468359 0 0 0 0 34.872734
1.6620374 -4.1671348 2.2809534 0 0 0 0 34.882626
2.3290992 -4.1482224 2.4058602 0 0 0 0 34.887573
2.1190994 -4.1488686 2.3639169 0 0 0 0 34.892517
1.7631028 -4.1492643 2.290019 0 0 0 0 34.902412
2.4511623 -4.1364202 2.4419103 0 0 0 0 34.90736
2.2351558 -4.1410484 2.392962 0 0 0 0 34.912308
2.0561368 -4.1567454 2.3559878 0 0 0 0 34.917255
2.5766852 -4.1279573 2.481205 0 0 0 0 34.660446
2.3566725 -4.1365538 2.4262455 0 0 0 0 34.66539
2.1686573 -4.1482091 2.3792751 0 0 0 0 34.670338
2.7057424 -4.121182 2.5232477 0 0 0 0 34.680233
2.4797258 -4.1317611 2.4622862 0 0 0 0 34.685181
2.2837143 -4.139389 2.4053245 0 0 0 0 34.690125
2.0967114 -4.1410351 2.3513713 0 0 0 0 34.695076
2.8378031 -4.1124144 2.5682924 0 0 0 0 34.70002
2.6007884 -4.1199594 2.4953387 0 0 0 0 34.704967
2.4057615 -4.138588 2.4373584 0 0 0 0 34.709915
2.2167506 -4.145225 2.3793976 0 0 0 0 34.714859
2.9758606 -4.1066599 2.6173306 0 0 0 0 34.71981
2.7388277 -4.1272025 2.5423553 0 0 0 0 34.724754
2.5278206 -4.1287813 2.4674075 0 0 0 0 34.729702
2.3278172 -4.1283846 2.3974607 0 0 0 0 34.73465
3.1189177 -4.1019173 2.6703656 0 0 0 0 34.739597
2.863899 -4.109406 2.5774162 0 0 0 0 34.744545
2.6468861 -4.1139646 2.4944649 0 0 0 0 34.749489
2.4518626 -4.1285806 2.4274919 0 0 0 0 34.75444
3.2629788 -4.0941744 2.7234046 0 0 0 0 34.759384
2.9979608 -4.0996346 2.6204612 0 0 0 0 34.764332
2.7829313 -4.1161947 2.5364895 0 0 0 0 34.769279
2.5759134 -4.124774 2.4565296 0 0 0 0 34.774223
3.4110463 -4.0824404 2.7794495 0 0 0 0 34.779175
3.1420133 -4.0978861 2.6704903 0 0 0 0 34.784119
2.9109941 -4.1043992 2.570539 0 0 0 0 34.789066
2.7009709 -4.1159649 2.4845753 0 0 0 0 34.794014
3.5641105 -4.0737181 2.8394876 0 0 0 0 34.798958
3.2880702 -4.0931406 2.7215235 0 0 0 0 34.803909
3.0460551 -4.0946202 2.6095831 0 0 0 0 34.808853
2.8320253 -4.1101713 2.5176136 0 0 0 0 34.813801
3.7241757 -4.065011 2.9045231 0 0 0 0 34.818748
3.4361315 -4.0853972 2.7735608 0 0 0 0 34.823696
3.1861117 -4.0888524 2.6526189 0 0 0 0 34.828644
2.9660788 -4.1053839 2.5526495 0 0 0 0 34.833588
3.8882442 -4.0543098 2.970561 0 0 0 0 34.838539
3.5911925 -4.0786705 2.8305941 0 0 0 0 34.843483
3.333168 -4.0840993 2.699651 0 0 0 0 34.848431
3.1021378 -4.0965972 2.5876911 0 0 0 0 34.853378
4.0593114 -4.0456266 3.0435934 0 0 0 0 34.858322
3.7482605 -4.0669446 2.887635 0 0 0 0 34.863274
3.4802322 -4.0733447 2.7466927 0 0 0 0 34.868217
3.2501893 -4.09484 2.6317177 0 0 0 0 34.873165
4.2313876 -4.0299401 3.1146364 0 0 0 0 34.878113
3.9103277 -4.0562291 2.9486725 0 0 0 0 34.88306
3.645283 -4.0746322 2.8057101 0 0 0 0 34.888008
3.3942506 -4.0850673 2.6707582 0 0 0 0 34.892952
4.4214554 -4.0232983 3.1996601 0 0 0 0 34.8979
4.0773983 -4.0435224 3.0117114 0 0 0 0 34.902847
3.8063452 -4.0669055 2.8607426 0 0 0 0 34.907795
3.5463128 -4.0753121 2.7147965 0 0 0 0 34.912743
4.6155267 -4.0136609 3.285687 0 0 0 0 34.917686
4.2594647 -4.0358496 3.0847383 0 0 0 0 34.922638
3.9624238 -4.0461617 2.9107969 0 0 0 0 34.927582
3.7103643 -4.0755873 2.7688148 0 0 0 0 34.932529
4.8136077 -3.9980328 3.3757224 0 0 0 0 34.937477
4.437541 -4.0201659 3.1557786 0 0 0 0 34.942421
4.1444802 -4.0454822 2.9798119 0 0 0 0 34.947372
3.8664377 -4.0578351 2.8138642 0 0 0 0 34.952316
5.0206895 -3.9824209 3.4697549 0 0 0 0 34.957264
4.6326122 -4.010519 3.2368042 0 0 0 0 34.962212
4.3185539 -4.0297766 3.040853 0 0 0 0 34.967159
4.0325069 -4.0441046 2.8649039 0 0 0 0 34.972107
5.2467666 -3.9728525 3.5767727 0 0 0 0 34.977051
4.8396821 -4.0028987 3.3258235 0 0 0 0 34.982002
4.4986329 -4.0110831 3.1058969 0 0 0 0 34.986946
4.2105718 -4.0354004 2.9239321 0 0 0 0 34.991894
5.4898424 -3.9663224 3.6957808 0 0 0 0 34.996841
5.0467644 -3.9862738 3.4138567 0 0 0 0 35.001785
4.6977038 -4.0014338 3.1839206 0 0 0 0 35.006737
4.3946395 -4.0247054 2.9849617 0 0 0 0 35.011681
5.5730491 -3.840404 3.7060184 0 0 0 0 35.016628
5.2838311 -3.9847159 3.520858 0 0 0 0 35.021576
4.9117703 -3.9958124 3.268934 0 0 0 0 35.02652
4.5877094 -4.0130291 3.05199 0 0 0 0 35.031471
5.5813088 -3.6643114 3.6693537 0 0 0 0 35.036415
5.5129185 -3.9661336 3.6208875 0 0 0 0 35.041363
5.121851 -3.9791787 3.3509655 0 0 0 0 35.04631
4.7947764 -4.0053821 3.127008 0 0 0 0 35.051258
5.5795674 -3.487201 3.6296916 0 0 0 0 35.056206
5.5921273 -3.8361964 3.6231315 0 0 0 0 35.06115
5.3629208 -3.9746144 3.4529693 0 0 0 0 35.066101
5.0078497 -3.9937418 3.2030303 0 0 0 0 35.071045
5.5768166 -3.3160927 3.5920184 0 0 0 0 35.075993
5.5923905 -3.6540792 3.5774767 0 0 0 0 35.08094
5.5870152 -3.9490044 3.5420105 0 0 0 0 35.085884
5.2239318 -3.975106 3.2810624 0 0 0 0 35.090836
5.5830531 -3.1550078 3.5613258 0 0 0 0 35.095779
5.5936422 -3.4799683 3.5348074 0 0 0 0 35.100727
5.6192575 -3.7849512 3.5103188 0 0 0 0 35.105675
5.473002 -3.969542 3.379065 0 0 0 0 35.110622
5.5802889 -2.9929099 3.5296357 0 0 0 0 35.11557
5.5868926 -3.3048444 3.4901404 0 0 0 0 35.120514
5.616518 -3.6018212 3.4586647 0 0 0 0 35.125465
5.6421432 -3.8987894 3.4251902 0 0 0 0 35.130409
5.5560727 -2.8233099 3.4853754 0 0 0 0 34.880112
5.5916519 -3.1422966 3.4548488 0 0 0 0 34.885059
5.6132798 -3.4232411 3.4103887 0 0 0 0 34.890007
5.6339035 -3.7071831 3.3649244 0 0 0 0 34.894951
5.32342 -2.5596745 3.3139071 0 0 0 0 34.899902
5.5878983 -2.9781878 3.4181685 0 0 0 0 34.904846
5.6115355 -3.2511239 3.3667221 0 0 0 0 34.909794
5.6351728 -3.5250597 3.3152747 0 0 0 0 34.914742
5.313642 -2.4125714 3.2841978 0 0 0 0 34.919685
5.5151734 -2.7839227 3.3415515 0 0 0 0 34.924637
5.6127849 -3.0840189 3.3280454 0 0 0 0 34.929581
5.6374311 -3.3499432 3.2686117 0 0 0 0 34.934528
5.3138547 -2.2724986 3.2644737 0 0 0 0 34.939476
5.3244967 -2.5403898 3.1960397 0 0 0 0 34.94442
5.6130266 -2.9209132 3.2893608 0 0 0 0 34.949371
5.6306901 -3.1728117 3.2199526 0 0 0 0 34.954315
5.3150611 -2.13643 3.2467415 0 0 0 0 34.959263
5.3287106 -2.3983159 3.1723177 0 0 0 0 34.964211
5.3753839 -2.6452761 3.1169116 0 0 0 0 34.969158
5.633935 -3.0067072 3.1792719 0 0 0 0 34.974106
5.3042665 -1.9993365 3.2230129 0 0 0 0 34.97905
5.3219252 -2.254221 3.1446004 0 0 0 0 34.984001
5.3526154 -2.4861326 3.0722234 0 0 0 0 34.988945
5.6061902 -2.828541 3.1256166 0 0 0 0 34.993893
5.3074636 -1.869276 3.2082689 0 0 0 0 34.99884
5.3271294 -2.1181538 3.1238663 0 0 0 0 35.003784
5.349834 -2.3380404 3.0425112 0 0 0 0 35.008736
5.3675408 -2.5559123 2.956161 0 0 0 0 35.01368
5.3226547 -1.7442492 3.2045124 0 0 0 0 35.018627
5.3223329 -1.9810702 3.101135 0 0 0 0 35.023575
5.345046 -2.1939454 3.0127921 0 0 0 0 35.028519
5.3707595 -2.4068265 2.9254491 0 0 0 0 35.03347
5.3088493 -1.6131589 3.1847715 0 0 0 0 35.038414
5.3185334 -1.8459913 3.0803995 0 0 0 0 35.043362
5.3512492 -2.0568781 2.9910581 0 0 0 0 35.048309
5.3829694 -2.2647655 2.9027224 0 0 0 0 35.053257
5.2690473 -1.4760125 3.1510458 0 0 0 0 35.058205
5.3307238 -1.7189512 3.070646 0 0 0 0 35.063148
5.3464546 -1.9167937 2.9673302 0 0 0 0 35.0681
5.3691492 -2.1161032 2.8685811 0 0 0 0 35.073044
5.2682223 -1.3543726 3.142765 0 0 0 0 35.077991
5.3119087 -1.5832767 3.0464249 0 0 0 0 35.082939
5.3556333 -1.7851853 2.9531264 0 0 0 0 35.087883
5.3753762 -1.9750406 2.8468466 0 0 0 0 35.092834
5.3014054 -1.2414012 3.1559854 0 0 0 0 35.097778
5.2841234 -1.4491535 3.0166764 0 0 0 0 35.102726
5.3338575 -1.6450694 2.9223881 0 0 0 0 35.107674
5.3755989 -1.8359665 2.8231077 0 0 0 0 35.112621
5.3575811 -1.1324815 3.182199 0 0 0 0 35.117569
5.2913208 -1.3261136 3.0089109 0 0 0 0 35.122513
5.3000817 -1.5039295 2.8866496 0 0 0 0 35.127464
5.3728194 -1.6978885 2.7993665 0 0 0 0 35.132408
5.4547472 -1.0296613 3.2364037 0 0 0 0 35.137356
5.3315043 -1.2121519 3.0221317 0 0 0 0 35.142303
5.3112826 -1.377894 2.8778884 0 0 0 0 35.147247
5.3420496 -1.5517519 2.762635 0 0 0 0 35.152199
5.9558144 -0.99277049 3.5315194 0 0 0 0 35.157143
5.4136772 -1.1042863 3.0603435 0 0 0 0 35.16209
5.3434739 -1.2579076 2.882118 0 0 0 0 35.167038
5.3442593 -1.419692 2.7458823 0 0 0 0 35.171982
5.9560208 -0.8607251 3.5297637 0 0 0 0 35.176933
5.4838543 -0.99339247 3.0915582 0 0 0 0 35.181877
5.403657 -1.142984 2.9023395 0 0 0 0 35.186825
5.3514643 -1.2896453 2.7331257 0 0 0 0 35.191772
5.9582243 -0.73068702 3.531004 0 0 0 0 35.19672
5.4908333 -1.0321214 2.9385543 0 0 0 0 35.206612
5.4096518 -1.1707116 2.7483528 0 0 0 0 35.211563
5.9424262 -0.60060894 3.5222428 0 0 0 0 35.216507
5.5028305 -1.0578541 2.7825701 0 0 0 0 35.231346
5.9336257 -0.47154969 3.5194793 0 0 0 0 35.236298
5.9338222 -0.34351349 3.5237134 0 0 0 0 35.256084
5.9270167 -0.21646318 3.5249448 0 0 0 0 35.275871
5.9022088 -0.09037485 3.5171733 0 0 0 0 35.295662
5.8893981 0.034683414 3.5183997 0 0 0 0 35.315445
5.8875866 0.15971774 3.5256252 0 0 0 0 35.335236
5.8676515 0.28449959 3.5255892 0 0 0 0 35.220486
5.8838406 0.40948635 3.5478165 0 0 0 0 35.240273
5.8460255 0.53159571 3.5380373 0 0 0 0 35.260063
5.8432131 0.65662068 3.5522623 0 0 0 0 35.27985
5.8413997 0.78164291 3.5674865 0 0 0 0 35.299637
5.9946108 0.90970814 3.4487619 0 0 0 0 35.344162
5.9577985 1.0378062 3.4449873 0 0 0 0 35.363949
5.9219871 1.1668996 3.4432127 0 0 0 0 35.383736
5.6162586 1.3632095 3.5325236 0 0 0 0 35.398579
5.9101777 1.2989383 3.4564424 0 0 0 0 35.403526
5.5694232 1.4763222 3.5267236 0 0 0 0 35.418365
5.8863659 1.429999 3.4656694 0 0 0 0 35.423313
5.5495944 1.5953689 3.5409322 0 0 0 0 35.438156
5.8485479 1.5570899 3.4668891 0 0 0 0 35.4431
5.5217648 1.7144307 3.5521398 0 0 0 0 35.457943
5.8207312 1.6861542 3.4771111 0 0 0 0 35.462891
5.4779248 1.8265296 3.552336 0 0 0 0 35.47773
5.8149252 1.8241687 3.5013454 0 0 0 0 35.482677
5.8388295 1.7474761 3.2762415 0 0 0 0 35.487625
5.4620972 1.9485605 3.5735462 0 0 0 0 35.49752
5.776104 1.9512544 3.5065625 0 0 0 0 35.502464
5.4342651 2.0686159 3.5887525 0 0 0 0 35.517307
5.4124355 2.1906576 3.6079607 0 0 0 0 35.537094
5.9384918 2.2282591 3.4220366 0 0 0 0 35.546989
5.3846021 2.31071 3.6251655 0 0 0 0 35.556885
5.8706684 2.3563967 3.4172516 0 0 0 0 35.566776
5.367775 2.4367335 3.6523776 0 0 0 0 35.576668
5.8348618 2.4984636 3.4324858 0 0 0 0 35.586563
5.3599563 2.5697339 3.6875989 0 0 0 0 35.596458
5.4999428 2.5568168 3.5105891 0 0 0 0 35.601406
5.7850466 2.6345568 3.4417107 0 0 0 0 35.606354
5.3571415 2.7067194 3.7288253 0 0 0 0 35.616249
5.4581151 2.683893 3.5238006 0 0 0 0 35.621193
5.7612476 2.7845891 3.4699543 0 0 0 0 35.626141
5.3353162 2.8367467 3.7580404 0 0 0 0 35.636032
5.4252939 2.8169441 3.5460196 0 0 0 0 35.640984
5.7464542 2.9396012 3.5042043 0 0 0 0 35.645927
5.3844666 2.9460115 3.5642321 0 0 0 0 35.66077
5.8997421 3.1576159 3.3925502 0 0 0 0 35.670662
5.3576512 3.0850449 3.5934579 0 0 0 0 35.680557
5.8269277 3.2987409 3.3997769 0 0 0 0 35.690453
5.6603036 3.4782739 4.1438408 0 0 0 0 36.311737
5.3420129 3.2343071 3.6345391 0 0 0 0 36.316681
5.4690719 3.2883751 3.4776125 0 0 0 0 36.321632
5.7772617 3.4551053 3.4228268 0 0 0 0 36.326576
5.5934477 3.6003821 4.1530261 0 0 0 0 36.331524
5.3251901 3.3843133 3.6757603 0 0 0 0 36.336472
5.4282432 3.4344285 3.5038285 0 0 0 0 36.341419
5.7154369 3.6051924 3.4420476 0 0 0 0 36.346367
5.5696249 3.7513974 4.1962466 0 0 0 0 36.351311
5.3123755 3.5423067 3.7239904 0 0 0 0 36.356262
5.3844166 3.5824809 3.5330462 0 0 0 0 36.361206
5.7186613 3.7991529 3.5023217 0 0 0 0 36.366154
5.7279105 4.0034218 4.0805964 0 0 0 0 36.376045
5.3435907 3.733526 3.5652666 0 0 0 0 36.380997
5.681088 4.1584749 4.1148195 0 0 0 0 36.395836
5.3077731 3.8915567 3.6044946 0 0 0 0 36.40078
5.5962324 4.2856021 4.1240067 0 0 0 0 36.415623
5.2999821 4.0745263 3.6667523 0 0 0 0 36.42057
5.396081 4.1676464 3.4958737 0 0 0 0 36.425518
5.5604224 4.4536271 4.1702442 0 0 0 0 36.43541
5.290194 4.2614961 3.731014 0 0 0 0 36.440361
5.3382626 4.3287082 3.5301032 0 0 0 0 36.445305
5.6888051 4.7996359 4.0937052 0 0 0 0 36.460144
5.2484183 4.4678273 3.5463047 0 0 0 0 36.465096
5.092422 4.4584856 3.9693093 0 0 0 0 36.474987
5.033402 4.4489017 3.6993046 0 0 0 0 36.479935
5.0604739 4.5201354 3.498399 0 0 0 0 36.484882
4.9584875 4.5103693 4.2033963 0 0 0 0 36.48983
4.9765267 4.5536666 3.9594555 0 0 0 0 36.494774
4.9575548 4.5869946 3.7235034 0 0 0 0 36.499725
4.9606128 4.6462684 3.5105829 0 0 0 0 36.504669
4.8846226 4.6324663 4.2235742 0 0 0 0 36.509617
4.8926625 4.6767793 3.9756351 0 0 0 0 36.514565
4.9257603 4.7719893 3.7867584 0 0 0 0 36.519508
4.934835 4.8472481 3.5798576 0 0 0 0 36.52446
4.8457975 4.7904844 4.2757955 0 0 0 0 36.529404
4.8518486 4.8457932 4.0318694 0 0 0 0 36.534351
4.909987 4.9779468 3.8660376 0 0 0 0 36.539299
4.9290895 5.0791807 3.6701686 0 0 0 0 36.544243
4.8159866 4.9624782 4.3400326 0 0 0 0 36.549194
4.8450761 5.0527334 4.1181488 0 0 0 0 36.554138
4.8792043 5.1769295 3.9393075 0 0 0 0 36.559086
4.8893094 5.281178 3.7384415 0 0 0 0 36.564034
4.8032012 5.1584296 4.4232974 0 0 0 0 36.568981
4.863348 5.3006082 4.235477 0 0 0 0 36.573929
4.8003697 5.331007 3.9775214 0 0 0 0 36.578873
4.8415308 5.4861798 3.8107171 0 0 0 0 36.583824
4.6592617 5.2176676 4.3903961 0 0 0 0 36.588768
4.7584729 5.418746 4.2486463 0 0 0 0 36.593716
4.7886276 5.5689325 4.0798354 0 0 0 0 36.598663
4.8127847 5.7221365 3.9020286 0 0 0 0 36.603607
4.6965551 5.4864888 4.5357466 0 0 0 0 36.608559
4.7307024 5.6317067 4.3379292 0 0 0 0 36.613503
4.7538676 5.792901 4.1681314 0 0 0 0 36.61845
4.7750378 5.9591026 3.9943399 0 0 0 0 36.623398
4.6757827 5.6984372 4.6290278 0 0 0 0 36.628342
4.7029424 5.8556585 4.4342241 0 0 0 0 36.633293
4.7251229 6.0318494 4.2684445 0 0 0 0 36.638237
4.8054032 6.299912 4.1557741 0 0 0 0 36.643185
4.6460056 5.9074016 4.7183032 0 0 0 0 36.648132
4.6721859 6.0846133 4.5315237 0 0 0 0 36.65308
4.6693525 6.2498474 4.3517303 0 0 0 0 36.658028
4.7546668 6.5498848 4.2550983 0 0 0 0 36.662971
4.6102319 6.121367 4.8115835 0 0 0 0 36.667923
4.5763421 6.2357073 4.5717292 0 0 0 0 36.672867
4.706737 6.6106253 4.5341854 0 0 0 0 36.677814
4.7159629 6.8318224 4.3734584 0 0 0 0 36.682762
4.5303979 6.2814341 4.8607988 0 0 0 0 36.687706
4.6708016 6.6653528 4.8142643 0 0 0 0 36.692657
4.660007 6.8685822 4.644516 0 0 0 0 36.697601
4.6168361 6.69209 5.1033101 0 0 0 0 36.707497
4.6721401 6.9871993 4.9746699 0 0 0 0 36.712444
5.2331724 7.9324441 5.9638004 0 0 0 0 36.727287
4.3780055 7.640286 5.5213423 0 0 0 0 36.45882
4.4274817 8.0743141 5.4648924 0 0 0 0 36.463768
4.4714861 8.990406 5.3720522 0 0 0 0 36.473663
4.3774252 8.0240698 5.7278371 0 0 0 0 36.478607
4.4209394 8.4940891 5.6844306 0 0 0 0 36.483555
4.3612947 8.8233232 5.5598488 0 0 0 0 36.488503
4.3698483 9.330369 5.5254884 0 0 0 0 36.493446
4.3397956 8.3669367 5.9032788 0 0 0 0 36.498398
4.3152142 8.7541094 5.7967677 0 0 0 0 36.503342
4.30373 9.228179 5.7603655 0 0 0 0 36.508289
4.2923131 9.7642326 5.7370391 0 0 0 0 36.513237
4.2921691 8.7148113 6.0807247 0 0 0 0 36.518181
4.2937155 9.2178688 6.0433559 0 0 0 0 36.523132
4.2762876 9.7449169 6.0300179 0 0 0 0 36.528076
4.2398906 10.301996 6.0077162 0 0 0 0 36.533024
4.0902138 8.7711105 6.0548081 0 0 0 0 36.537971
4.0757632 9.2791719 6.0274444 0 0 0 0 36.542919
4.0303192 9.793252 6.0120888 0 0 0 0 36.547867
3.9598804 10.314387 5.9747415 0 0 0 0 36.552811
3.8842363 8.808424 6.0188684 0 0 0 0 36.557762
3.8467786 9.3115072 5.9944973 0 0 0 0 36.562706
3.7753057 9.8016233 5.9721112 0 0 0 0 36.567654
3.6868751 10.33176 5.9487734 0 0 0 0 36.572601
3.6772501 8.8377399 5.9809184 0 0 0 0 36.577545
3.6137693 9.3218565 5.9505239 0 0 0 0 36.582497
3.5142679 9.7880116 5.9221063 0 0 0 0 36.58744
3.3787363 10.228249 5.8576574 0 0 0 0 36.592388
3.465245 8.8500681 5.9349484 0 0 0 0 36.597336
3.3817523 9.3252039 5.9065409 0 0 0 0 36.602283
3.2642448 9.7873688 5.8841181 0 0 0 0 36.607231
3.1358049 10.312527 5.8777719 0 0 0 0 36.612175
3.312407 9.014204 5.9911637 0 0 0 0 36.617123
3.1507311 9.3245468 5.863554 0 0 0 0 36.62207
3.0111978 9.764739 5.8371029 0 0 0 0 36.627018
2.8386552 10.197994 5.7886443 0 0 0 0 36.631966
3.1184525 9.0734663 5.9802504 0 0 0 0 36.636909
2.923713 9.3268785 5.8235707 0 0 0 0 36.641861
2.7641628 9.753088 5.8001022 0 0 0 0 36.646805
2.5605423 10.11641 5.7225571 0 0 0 0 36.651752
2.9014223 9.0638037 5.9272532 0 0 0 0 36.6567
2.6996896 9.3242006 5.786582 0 0 0 0 36.661644
2.5171084 9.723444 5.7550797 0 0 0 0 36.666595
2.30351 10.107746 5.7015595 0 0 0 0 36.671539
2.6823771 9.0401459 5.8692393 0 0 0 0 36.676487
2.4766641 9.319519 5.7505908 0 0 0 0 36.681435
2.2740579 9.696784 5.7170615 0 0 0 0 36.686382
2.0364082 10.03513 5.6484852 0 0 0 0 36.69133
2.4733469 9.0304642 5.8212433 0 0 0 0 36.696274
2.2526267 9.3038406 5.711587 0 0 0 0 36.701225
2.032989 9.6531296 5.6720228 0 0 0 0 36.706169
1.78032 9.9744864 5.6054258 0 0 0 0 36.711117
2.2643139 9.0177765 5.7752438 0 0 0 0 36.716064
2.0325861 9.2851553 5.6715798 0 0 0 0 36.721008
1.7939185 9.6074686 5.6279831 0 0 0 0 36.72596
1.5302477 9.9278193 5.5743837 0 0 0 0 36.730904
2.0592809 9.0050802 5.732245 0 0 0 0 36.735851
1.815546 9.2664595 5.6365733 0 0 0 0 36.740799
1.5628604 9.5727835 5.5949569 0 0 0 0 36.745743
1.282151 9.858161 5.5323153 0 0 0 0 36.750694
1.8562459 8.9903755 5.6912432 0 0 0 0 36.755638
1.5994986 9.2407637 5.5995588 0 0 0 0 36.760586
1.3317821 9.5191069 5.5529079 0 0 0 0 36.765533
1.0370497 9.7834949 5.4922414 0 0 0 0 36.770481
1.6562228 8.986659 5.6572556 0 0 0 0 36.775429
1.3844461 9.210062 5.563539 0 0 0 0 36.780373
1.106715 9.4754114 5.5198722 0 0 0 0 36.785324
0.79693735 9.6978273 5.4481549 0 0 0 0 36.790268
1.4551892 8.9729424 5.6222568 0 0 0 0 36.795216
1.1703812 9.1673641 5.5225053 0 0 0 0 36.800163
0.87862831 9.4127245 5.4798141 0 0 0 0 36.805107
0.55883229 9.6181431 5.4130769 0 0 0 0 36.810059
1.256156 8.9592171 5.5902576 0 0 0 0 36.815002
0.96032625 9.1336508 5.4894824 0 0 0 0 36.81995
0.6585443 9.3520231 5.4437594 0 0 0 0 36.824898
0.32872793 9.5384483 5.3779998 0 0 0 0 36.829845
1.06113 8.9524794 5.5642676 0 0 0 0 36.834793
0.75225687 9.0859375 5.4514437 0 0 0 0 36.839737
0.43945348 9.2843189 5.4066973 0 0 0 0 36.844685
0.10361478 9.449749 5.3409123 0 0 0 0 36.849632
0.86510015 8.94174 5.5382729 0 0 0 0 36.85458
0.54717845 9.0292244 5.4103951 0 0 0 0 36.859528
0.22635591 9.2096109 5.3666272 0 0 0 0 36.864471
-0.11850473 9.354043 5.3048177 0 0 0 0 36.869423
0.6710704 8.930995 5.5142789 0 0 0 0 36.874367
0.34510788 8.9794998 5.3743553 0 0 0 0 36.879314
0.016250696 9.1268988 5.3255486 0 0 0 0 36.884262
-0.33463079 9.2513323 5.2657161 0 0 0 0 36.889206
0.4790566 8.9352303 5.5033031 0 0 0 0 36.894157
0.14404522 8.9367609 5.3473244 0 0 0 0 36.899101
-0.18986002 9.0381813 5.2834635 0 0 0 0 36.904049
-0.54675382 9.1506109 5.2296171 0 0 0 0 36.908997
0.28607106 8.9664431 5.5113587 0 0 0 0 36.913944
-0.053015955 8.8950138 5.3232951 0 0 0 0 36.918892
-0.39395419 8.9644442 5.2543974 0 0 0 0 36.923836
-0.75289875 9.027894 5.1844935 0 0 0 0 36.928787
0.092316709 9.0013256 5.5233026 0 0 0 0 36.679359
-0.25281915 8.8859434 5.3221784 0 0 0 0 36.684311
-0.59482861 8.8854313 5.2241945 0 0 0 0 36.689255
-0.9597792 8.9388971 5.1632781 0 0 0 0 36.694202
-0.10068706 9.014554 5.5243359 0 0 0 0 36.69915
-0.44983724 8.8851681 5.328196 0 0 0 0 36.704094
-0.79093927 8.7987013 5.1901078 0 0 0 0 36.709045
-1.1579218 8.8221693 5.1271553 0 0 0 0 36.713989
-0.29574591 8.9768171 5.4973083 0 0 0 0 36.718937
-0.64293832 8.8074408 5.2891202 0 0 0 0 36.723885
-0.98603833 8.7219553 5.1660347 0 0 0 0 36.728832
-1.3520548 8.7134295 5.0960436 0 0 0 0 36.73378
-0.48781088 8.9330769 5.4682732 0 0 0 0 36.738724
-0.82414615 8.6297655 5.1939244 0 0 0 0 36.743675
-1.1761507 8.6322098 5.1359458 0 0 0 0 36.748619
-1.542187 8.6046782 5.0689325 0 0 0 0 36.753567
-0.65522325 8.565546 5.2418475 0 0 0 0 36.758514
-1.0112273 8.5690107 5.1698709 0 0 0 0 36.763458
-1.3622643 8.5404568 5.1068559 0 0 0 0 36.76841
-1.7293276 8.4869251 5.0388117 0 0 0 0 36.773354
-0.83530957 8.4997978 5.2057886 0 0 0 0 36.778301
-1.1943259 8.4912567 5.1387978 0 0 0 0 36.783249
-1.5473771 8.448699 5.0807672 0 0 0 0 36.788193
-1.9104629 8.3731604 5.0126967 0 0 0 0 36.793144
-1.0173868 8.4420433 5.1757398 0 0 0 0 36.798088
-1.3754237 8.413496 5.1107259 0 0 0 0 36.803036
-1.7265048 8.341938 5.0486608 0 0 0 0 36.807983
-2.0886118 8.2453966 4.9815664 0 0 0 0 36.812931
-1.1974604 8.3872776 5.1506958 0 0 0 0 36.817879
-1.5555271 8.3297338 5.0816479 0 0 0 0 36.822823
-1.9036243 8.2421665 5.0225639 0 0 0 0 36.827774
-2.260756 8.1216211 4.9534411 0 0 0 0 36.832718
-1.3765355 8.3305101 5.1256495 0 0 0 0 36.837666
-1.7296363 8.2399673 5.0495629 0 0 0 0 36.842613
-2.0767484 8.137393 4.994462 0 0 0 0 36.847557
-2.4269059 7.990839 4.9233093 0 0 0 0 36.852509
-1.5486406 8.244751 5.0855699 0 0 0 0 36.857452
-1.9017488 8.1461954 5.0184746 0 0 0 0 36.8624
-2.2438784 8.0256128 4.9643526 0 0 0 0 36.867348
-2.5890567 7.8580513 4.894176 0 0 0 0 36.872295
-1.7227197 8.182972 5.0625196 0 0 0 0 36.877243
-1.5798723 6.138319 3.8001003 0 0 0 0 36.882187
-2.4060163 7.9058294 4.9312348 0 0 0 0 36.887138
-2.7491984 7.7332535 4.8700538 0 0 0 0 36.892082
-1.8918203 8.1001987 5.0284452 0 0 0 0 36.89703
-2.2329869 7.9436388 4.952282 0 0 0 0 36.901978
-2.5701361 7.8020344 4.9091377 0 0 0 0 36.906921
-2.9462311 7.7114105 4.9150553 0 0 0 0 36.911873
-1.5748968 6.1253171 3.8141234 0 0 0 0 36.916817
-2.4040759 7.8698411 4.9382205 0 0 0 0 36.921764
-2.7252769 7.6772385 4.878016 0 0 0 0 36.926712
-3.1662071 7.743546 4.9971218 0 0 0 0 36.931656
-2.2250252 7.9286394 4.9642911 0 0 0 0 36.936607
-2.5671849 7.7760439 4.9151359 0 0 0 0 36.941551
-2.9033439 7.6224113 4.8919787 0 0 0 0 36.946499
-3.3163664 7.5987372 4.9699783 0 0 0 0 36.951447
-2.3931088 7.8598428 4.9452357 0 0 0 0 36.956394
-2.7223139 7.6622491 4.8820281 0 0 0 0 36.961342
-3.1412578 7.7145286 5.0041165 0 0 0 0 36.966286
-3.4734991 7.4789152 4.9588652 0 0 0 0 36.971237
-2.5582073 7.7760482 4.9211636 0 0 0 0 36.976181
-2.892391 7.5974288 4.8819795 0 0 0 0 36.981129
-3.299387 7.5987163 4.9860082 0 0 0 0 36.986076
-3.6036801 7.3111 4.917697 0 0 0 0 36.99102
-2.7123296 7.6682577 4.8820643 0 0 0 0 36.995972
-3.1392777 7.7165418 5.0051489 0 0 0 0 37.000916
-3.4405448 7.4539061 4.9498668 0 0 0 0 37.005863
-2.8893821 7.6274357 4.8890448 0 0 0 0 37.015755
-3.2983935 7.6137314 4.9850569 0 0 0 0 37.020706
-3.5956664 7.34308 4.938767 0 0 0 0 37.02565
-3.1462388 7.7775445 5.0232496 0 0 0 0 37.035545
-3.4445364 7.482923 4.950933 0 0 0 0 37.040493
-3.749788 7.2312479 4.9306669 0 0 0 0 37.045441
-3.2993734 7.6557474 4.985136 0 0 0 0 37.055336
-3.6136303 7.3990951 4.9518657 0 0 0 0 37.06028
-4.1412907 6.7367444 4.8371501 0 0 0 0 37.070175
-3.4584877 7.5529389 4.9610462 0 0 0 0 37.075119
-3.7447894 7.2502789 4.9087229 0 0 0 0 37.08007
-4.2634463 6.5868921 4.816009 0 0 0 0 37.089962
-3.6185923 7.4591212 4.9439673 0 0 0 0 37.09491
-4.141242 6.801744 4.8442621 0 0 0 0 37.104805
-4.3875895 6.4480305 4.8028817 0 0 0 0 37.109749
-3.7657249 7.3363085 4.9108558 0 0 0 0 37.1147
-4.2673874 6.6618953 4.822134 0 0 0 0 37.124592
-4.5007439 6.2971678 4.7807412 0 0 0 0 37.129539
-3.9248271 7.2424812 4.8987794 0 0 0 0 37.134483
-4.1661859 6.8767819 4.8393865 0 0 0 0 37.139435
-4.407506 6.5470371 4.8190355 0 0 0 0 37.144379
-4.6368632 6.1792922 4.7886419 0 0 0 0 37.149326
-3.4710541 6.0759244 4.1536393 0 0 0 0 37.305569
-4.3183556 6.7789602 4.8384767 0 0 0 0 37.310516
-4.5167198 6.3912001 4.7870722 0 0 0 0 37.315464
-4.7390637 6.022429 4.7656913 0 0 0 0 37.320412
-4.4494886 6.6461091 4.8153629 0 0 0 0 37.330307
-4.645843 6.2653313 4.7779684 0 0 0 0 37.335251
-4.3757639 5.3046165 4.2879081 0 0 0 0 37.340199
-4.5766201 6.5132518 4.794251 0 0 0 0 37.35009
-4.7589836 6.1214576 4.7588449 0 0 0 0 37.355042
-4.4798775 5.1837149 4.2858124 0 0 0 0 37.359985
-4.4824171 6.7421727 4.7895098 0 0 0 0 37.364933
-4.7077465 6.3843899 4.7791443 0 0 0 0 37.369881
-4.8811083 5.9915786 4.7507386 0 0 0 0 37.374828
-5.0474901 5.5757618 4.7213078 0 0 0 0 37.379776
-4.6185389 6.6193228 4.7674093 0 0 0 0 37.38472
-4.820889 6.2375245 4.7510185 0 0 0 0 37.389671
-4.5137877 5.2877522 4.2809768 0 0 0 0 37.394615
-5.1356378 5.4188609 4.7031732 0 0 0 0 37.399563
-4.7486711 6.4844699 4.7422972 0 0 0 0 37.40451
-4.9440169 6.1046538 4.7349095 0 0 0 0 37.409454
-4.6408744 5.19385 4.2969141 0 0 0 0 37.414406
-5.2317729 5.2729578 4.6930523 0 0 0 0 37.41935
-4.8987718 6.381608 4.740222 0 0 0 0 37.424297
-4.5916805 5.4128251 4.2791662 0 0 0 0 37.429245
-5.1855302 5.5449176 4.6913614 0 0 0 0 37.434189
-5.3129196 5.1140485 4.6749172 0 0 0 0 37.43914
-5.0099177 6.2297459 4.7050929 0 0 0 0 37.444084
-4.6808143 5.2699361 4.2500486 0 0 0 0 37.449032
-5.2756763 5.3880219 4.6682286 0 0 0 0 37.453979
-5.4040513 4.9691353 4.6687999 0 0 0 0 37.458927
-5.1430383 6.1028795 4.6909933 0 0 0 0 37.463875
-5.2324662 5.6290154 4.6375031 0 0 0 0 37.468819
-5.3817992 5.2531195 4.6641226 0 0 0 0 37.47377
-5.4811916 4.8132181 4.6536708 0 0 0 0 37.478714
-4.7806897 5.4170351 4.240262 0 0 0 0 37.483662
-5.3885493 5.5371251 4.6634459 0 0 0 0 37.488609
-5.47893 5.1092143 4.654007 0 0 0 0 37.493553
-5.5643229 4.6662955 4.647553 0 0 0 0 37.498505
-4.9137807 5.3171458 4.2451954 0 0 0 0 37.503448
-5.4966788 5.3962326 4.6503339 0 0 0 0 37.508396
-5.57306 4.9643059 4.6438918 0 0 0 0 37.513344
-5.6404552 4.5163698 4.6384335 0 0 0 0 37.518291
-5.4494777 5.6332512 4.5916009 0 0 0 0 37.523239
-5.5938153 5.2453341 4.6322117 0 0 0 0 37.528183
-5.6681867 4.822392 4.6387811 0 0 0 0 37.533131
-5.7095914 4.3614402 4.6263084 0 0 0 0 37.538078
-5.6165552 5.5463672 4.6185513 0 0 0 0 37.543026
-5.6949439 5.1024327 4.6201 0 0 0 0 37.547974
-5.7403293 4.6614738 4.61765 0 0 0 0 37.552917
-5.7717276 4.2045054 4.6121826 0 0 0 0 37.557869
-5.7376776 5.4104786 4.6094475 0 0 0 0 37.562813
-5.7940726 4.9575286 4.6079869 0 0 0 0 37.56776
-5.8224583 4.5135522 4.6075344 0 0 0 0 37.572708
-5.8448529 4.0575666 4.6110697 0 0 0 0 37.577652
-5.845809 5.2645855 4.5933337 0 0 0 0 37.582603
-5.8802099 4.8016167 4.5908632 0 0 0 0 37.587547
-5.9045854 4.3666267 4.600421 0 0 0 0 37.592495
-5.8989873 3.9006248 4.5959458 0 0 0 0 37.597443
-5.9579363 5.1206884 4.5832238 0 0 0 0 37.60239
-5.9733386 4.6537027 4.580749 0 0 0 0 37.607338
-5.9717216 4.2076969 4.5842957 0 0 0 0 37.612282
-5.3904591 3.391645 4.1494102 0 0 0 0 37.617233
-6.0510745 4.9637871 4.5611 0 0 0 0 37.622177
-6.063468 4.5037851 4.5716348 0 0 0 0 37.627125
-6.0448484 4.0577631 4.5761814 0 0 0 0 37.632072
-5.4395738 3.2526906 4.1423082 0 0 0 0 37.637016
-6.1592007 4.8178835 4.5519905 0 0 0 0 37.641968
-6.1336055 4.3428612 4.550508 0 0 0 0 37.646912
-6.1199727 3.9088249 4.5730696 0 0 0 0 37.651859
-6.0583711 3.4397755 4.5685916 0 0 0 0 37.656807
-6.2563334 4.6639738 4.5388732 0 0 0 0 37.661751
-6.2237291 4.1959376 4.5453992 0 0 0 0 37.666702
-5.5944424 3.3968298 4.1275339 0 0 0 0 37.671646
-6.1144915 3.2908189 4.5674815 0 0 0 0 37.676594
-6.3444681 4.5060596 4.5217519 0 0 0 0 37.681541
-6.3178501 4.0500093 4.5472927 0 0 0 0 37.686489
-5.6585517 3.2618823 4.1244392 0 0 0 0 37.691437
-6.1676102 3.1428604 4.5653734 0 0 0 0 37.696381
-6.431603 4.3461409 4.5076303 0 0 0 0 37.701332
-5.7673388 3.5140021 4.0927329 0 0 0 0 37.706276
-6.3023539 3.4449894 4.5457211 0 0 0 0 37.711224
-6.2117305 2.9918971 4.5602627 0 0 0 0 37.716171
-5.9011068 3.7901359 4.0670519 0 0 0 0 37.721115
-5.8494444 3.3810601 4.0976424 0 0 0 0 37.726067
-6.3634753 3.2930384 4.5416102 0 0 0 0 37.73101
-6.2438545 2.8349292 4.5491462 0 0 0 0 37.735958
-5.9902172 3.6532049 4.0659575 0 0 0 0 37.740906
-6.515245 3.5691938 4.5079308 0 0 0 0 37.745853
-6.4056048 3.132081 4.5274897 0 0 0 0 37.750801
-6.2899685 2.6879594 4.5510421 0 0 0 0 37.755745
-6.6899962 3.869364 4.4772763 0 0 0 0 37.760693
-6.5783725 3.410248 4.4988141 0 0 0 0 37.76564
-6.4687204 2.9831235 4.530385 0 0 0 0 37.770588
-6.3260841 2.5369864 4.5479341 0 0 0 0 37.775536
-6.7630196 3.704206 4.4651203 0 0 0 0 38.304237
-6.6423368 3.2500925 4.4937091 0 0 0 0 38.309181
-6.5116315 2.8259723 4.5223241 0 0 0 0 38.314133
-6.3589363 2.3868425 4.5449238 0 0 0 0 38.319077
-6.8421311 3.5412586 4.4590216 0 0 0 0 38.324024
-6.7034431 3.0911331 4.4876132 0 0 0 0 38.328972
-6.5517354 2.6679995 4.5152283 0 0 0 0 38.333916
-6.3980293 2.2398608 4.5478392 0 0 0 0 38.338867
-6.9152427 3.376308 4.4509211 0 0 0 0 38.343811
-6.7585502 2.9291687 4.4815154 0 0 0 0 38.348759
-6.5988345 2.5140259 4.5141382 0 0 0 0 38.353706
-6.4241252 2.0878751 4.5447502 0 0 0 0 38.358654
-6.9743581 3.2053525 4.4368153 0 0 0 0 38.363602
-6.8146553 2.768203 4.4774194 0 0 0 0 38.368546
-6.6359353 2.3560486 4.5090442 0 0 0 0 38.373497
-6.4502172 1.9388874 4.5436649 0 0 0 0 38.378441
-7.0364709 3.0343938 4.4277115 0 0 0 0 38.383389
-6.8637595 2.6062336 4.471324 0 0 0 0 38.388336
-6.6700335 2.200069 4.5039539 0 0 0 0 38.39328
-6.473309 1.7888974 4.5425792 0 0 0 0 38.398232
-7.103579 2.868434 4.4236135 0 0 0 0 38.403175
-6.9038658 2.4402595 4.4632244 0 0 0 0 38.408123
-6.7111282 2.0460865 4.5068665 0 0 0 0 38.413071
-6.4933982 1.6409053 4.5414963 0 0 0 0 38.418018
-7.1636891 2.6964693 4.4185114 0 0 0 0 38.422966
-6.955966 2.279285 4.4641323 0 0 0 0 38.42791
-6.730227 1.8860995 4.4977732 0 0 0 0 38.432861
-6.5114856 1.4929105 4.5414147 0 0 0 0 38.437805
-7.2187972 2.5255008 4.4134111 0 0 0 0 38.442753
-6.9890704 2.1113052 4.4560332 0 0 0 0 38.447701
-6.7713175 1.733114 4.5036893 0 0 0 0 38.452644
-6.5355701 1.3459145 4.5473356 0 0 0 0 38.457596
-7.2729049 2.3535299 4.4093108 0 0 0 0 38.46254
-7.030169 1.9483242 4.4549408 0 0 0 0 38.467487
-6.782414 1.5731217 4.493597 0 0 0 0 38.472435
-6.5416565 1.1969142 4.5442538 0 0 0 0 38.477379
-7.3170137 2.1775548 4.4022074 0 0 0 0 38.48233
-7.0702667 1.7843398 4.4568491 0 0 0 0 38.487274
-6.8035054 1.4161283 4.4925103 0 0 0 0 38.492222
-6.55374 1.0489134 4.546175 0 0 0 0 38.497169
-7.373117 2.0065787 4.4051113 0 0 0 0 38.502117
-7.0973663 1.6173514 4.4527545 0 0 0 0 38.507065
-6.8305931 1.2621335 4.4974279 0 0 0 0 38.512009
-6.5668201 0.90291053 4.5510988 0 0 0 0 38.51696
-7.3642349 1.8165895 4.3719921 0 0 0 0 38.521904
-7.1194649 1.4493604 4.4476595 0 0 0 0 38.526852
-6.8496814 1.1051358 4.4993429 0 0 0 0 38.531799
-6.5679011 0.75590485 4.5500216 0 0 0 0 38.536743
-7.4003391 1.6406044 4.3688922 0 0 0 0 38.541695
-7.1525598 1.2833695 4.4505687 0 0 0 0 38.546638
-6.8597689 0.94813466 4.4982586 0 0 0 0 38.551586
-6.5169873 0.60489392 4.5149355 0 0 0 0 38.556534
-7.4604368 1.4686204 4.3828006 0 0 0 0 38.561481
-7.1766529 1.1173735 4.4524789 0 0 0 0 38.566429
-6.8598566 0.79013109 4.4921732 0 0 0 0 38.571373
-7.1827488 0.94737303 4.445384 0 0 0 0 38.586216
-6.8679409 0.63412672 4.4930916 0 0 0 0 38.591164
-0.4808594 0.069535203 0.27079144 0 0 0 0 38.601059
-7.1628451 0.77636749 4.4242864 0 0 0 0 38.606003
-0.54087067 0.013496024 0.36578664 0 0 0 0 38.615898
-7.2009311 0.61236733 4.4412036 0 0 0 0 38.625793
-0.55985206 0.025517158 0.35683319 0 0 0 0 38.630737
-0.47484359 0.045539439 0.26586092 0 0 0 0 38.640633
-0.5368529 -0.0095015364 0.36485782 0 0 0 0 38.655472
-0.56182969 0.020538295 0.3369087 0 0 0 0 38.665367
-0.54483736 -0.00048097089 0.34790045 0 0 0 0 38.670315
-0.46482703 0.022542827 0.25893101 0 0 0 0 38.680206
-0.5338347 -0.032499239 0.36492956 0 0 0 0 38.695049
-0.54781419 -0.0044593392 0.32797709 0 0 0 0 38.704941
-0.54281914 -0.023478245 0.3479723 0 0 0 0 38.709892
-0.46080875 0.00054592488 0.25700313 0 0 0 0 38.719784
-0.53481609 -0.056497667 0.36900136 0 0 0 0 38.734627
-0.53679764 -0.029458264 0.32304627 0 0 0 0 38.744522
-0.54080093 -0.047476292 0.3490437 0 0 0 0 38.749466
-0.53078526 -0.023440387 0.29808441 0 0 0 0 38.759361
-0.55379635 -0.08249554 0.38607448 0 0 0 0 38.7742
-0.54404861 -0.055486083 0.32837304 0 0 0 0 38.461349
-0.55505317 -0.074505806 0.36036944 0 0 0 0 38.466297
-0.52903551 -0.048468035 0.29741141 0 0 0 0 38.476192
-6.1792588 -1.1992589 4.4561834 0 0 0 0 38.491032
-0.55003202 -0.081484251 0.33544287 0 0 0 0 38.500927
-6.5192347 -1.1789808 4.390286 0 0 0 0 38.505875
-6.1433215 -1.3322904 4.4581203 0 0 0 0 38.510818
-0.52201945 -0.073467255 0.29548037 0 0 0 0 38.51577
-6.8272285 -1.1807085 4.3033657 0 0 0 0 38.520714
-6.4943061 -1.3260117 4.3982134 0 0 0 0 38.525661
-6.1083817 -1.4633218 4.46106 0 0 0 0 38.530609
-6.0814409 -1.5963551 4.4730005 0 0 0 0 38.550396
-0.49000162 -0.093470924 0.27955064 0 0 0 0 38.555344
-0.50600493 -0.11148784 0.31254902 0 0 0 0 38.560291
-6.4334426 -1.6180799 4.4140711 0 0 0 0 38.565239
-6.0434985 -1.7273903 4.4789419 0 0 0 0 38.570183
-6.7854643 -1.6698065 4.3541174 0 0 0 0 38.580078
-6.3935089 -1.7631172 4.4190016 0 0 0 0 38.585026
-6.0045543 -1.8574266 4.4858851 0 0 0 0 38.589973
-0.53098667 -0.12746398 0.30761915 0 0 0 0 38.594917
-6.7505388 -1.8298464 4.364037 0 0 0 0 38.599869
-6.3595734 -1.9081544 4.4289341 0 0 0 0 38.604813
-5.9756103 -1.9914646 4.5028276 0 0 0 0 38.60976
-7.119576 -1.9035512 4.2860689 0 0 0 0 38.614708
-6.7076106 -1.9868875 4.3699589 0 0 0 0 38.619652
-6.3156362 -2.0521951 4.4358668 0 0 0 0 38.624603
-6.0436769 -2.1605015 4.5937552 0 0 0 0 38.629547
-7.0716572 -2.0765963 4.290978 0 0 0 0 38.634495
-6.7816944 -2.1819193 4.4548664 0 0 0 0 38.639442
-6.3787103 -2.2322321 4.5207853 0 0 0 0 38.64439
-7.158752 -2.2906251 4.3798728 0 0 0 0 38.654282
-6.759769 -2.3519647 4.4827833 0 0 0 0 38.659233
-6.3407717 -2.3802748 4.535718 0 0 0 0 38.664177
-5.9597812 -2.4255836 4.6176438 0 0 0 0 38.669125
-7.1098313 -2.4676762 4.3917813 0 0 0 0 38.674072
-6.6918354 -2.5050135 4.4797087 0 0 0 0 38.679016
-6.2968316 -2.5273199 4.5496516 0 0 0 0 38.683968
-5.9068294 -2.5526261 4.6235924 0 0 0 0 38.688911
-7.0489068 -2.6387293 4.3976946 0 0 0 0 38.693859
-6.658905 -2.6720622 4.5046291 0 0 0 0 38.698807
-6.6459765 -2.8481114 4.5455456 0 0 0 0 38.718594
-6.539031 -2.9851675 4.5244827 0 0 0 0 38.73838
-5.7419662 -2.935761 4.6504421 0 0 0 0 38.748276
-6.9031315 -3.1738958 4.456429 0 0 0 0 38.753223
-6.5080981 -3.157222 4.5594025 0 0 0 0 38.758171
-5.685009 -3.0618079 4.6613951 0 0 0 0 38.768066
-6.838201 -3.3479578 4.4733438 0 0 0 0 38.77301
-6.4191523 -3.3012795 4.5553384 0 0 0 0 38.777958
-5.9970946 -3.2305701 4.5973511 0 0 0 0 38.782906
-5.6340513 -3.1918566 4.6803465 0 0 0 0 38.787853
-6.7452631 -3.5080223 4.4732676 0 0 0 0 38.792801
-6.3112011 -3.4363408 4.5422792 0 0 0 0 38.797745
-5.9341426 -3.3706226 4.6102939 0 0 0 0 38.802696
-5.5700898 -3.3159058 4.6903009 0 0 0 0 38.80764
-6.6863298 -3.6850867 4.4991837 0 0 0 0 38.812588
-6.2882667 -3.6163993 4.5911975 0 0 0 0 38.817535
-5.8731909 -3.5136786 4.6292357 0 0 0 0 38.822479
-5.4851227 -3.4269524 4.6822643 0 0 0 0 38.827431
-6.6133943 -3.8591545 4.520102 0 0 0 0 38.832375
-6.1933141 -3.7564616 4.5911388 0 0 0 0 38.837322
-5.8162374 -3.658735 4.6531777 0 0 0 0 38.84227
-5.4551678 -3.5730066 4.7262092 0 0 0 0 38.847214
-6.544457 -4.034224 4.5470209 0 0 0 0 38.852165
-6.1053619 -3.9025259 4.6000772 0 0 0 0 38.857109
-5.7472816 -3.7987933 4.671123 0 0 0 0 38.862057
-5.3801994 -3.690057 4.7321706 0 0 0 0 38.867004
-6.4445119 -4.1942954 4.5549483 0 0 0 0 38.871952
-6.0364132 -4.0595899 4.6240101 0 0 0 0 38.8769
-5.6563177 -3.9238503 4.6720772 0 0 0 0 38.881844
-5.3082318 -3.8111098 4.7441306 0 0 0 0 38.886795
-6.3635693 -4.364368 4.5788717 0 0 0 0 38.891739
-5.9584618 -4.2136574 4.646946 0 0 0 0 38.896687
-5.5903592 -4.0659099 4.696023 0 0 0 0 38.901634
-5.2752748 -3.9611678 4.7930741 0 0 0 0 38.906578
-6.2296095 -4.5004449 4.5698147 0 0 0 0 38.91153
-5.8645034 -4.3557243 4.6578898 0 0 0 0 38.916473
-5.5173984 -4.2059717 4.7189708 0 0 0 0 38.921421
-5.1682944 -4.0562167 4.7760506 0 0 0 0 38.926369
-5.9080958 -4.4894562 4.41996 0 0 0 0 38.675026
-5.7480493 -4.4817495 4.6539612 0 0 0 0 38.679977
-5.4359388 -4.3390121 4.7350521 0 0 0 0 38.684921
-5.0938201 -4.1772728 4.7911544 0 0 0 0 38.689869
-5.5970659 -4.4715362 4.2739997 0 0 0 0 38.694817
-5.4620204 -4.4678154 4.512001 0 0 0 0 38.699764
-5.3169665 -4.444078 4.7230177 0 0 0 0 38.704712
-5.0248561 -4.3023338 4.8141093 0 0 0 0 38.709656
-5.3140383 -4.4626136 4.1490355 0 0 0 0 38.714607
-5.1879888 -4.4498777 4.3770452 0 0 0 0 38.719551
-5.0809441 -4.444129 4.6050525 0 0 0 0 38.724499
-4.9338841 -4.412394 4.8200741 0 0 0 0 38.729446
-5.0470085 -4.4516873 4.0320749 0 0 0 0 38.73439
-4.9439631 -4.4459386 4.264082 0 0 0 0 38.739342
-4.8489161 -4.4361768 4.4870934 0 0 0 0 38.744286
-4.747869 -4.4314356 4.7311001 0 0 0 0 38.749233
-4.7999821 -4.4477577 3.9291105 0 0 0 0 38.754181
-4.7079339 -4.436996 4.1551228 0 0 0 0 38.759125
-4.6248865 -4.4262247 4.3761368 0 0 0 0 38.764076
-4.5358377 -4.417469 4.6141481 0 0 0 0 38.76902
-4.5599504 -4.4358234 3.8271532 0 0 0 0 38.773968
-4.4819036 -4.4270525 4.0531659 0 0 0 0 38.778915
-4.4278631 -4.4312711 4.2861714 0 0 0 0 38.783863
-4.3418102 -4.4135041 4.5131903 0 0 0 0 38.788811
-4.3329186 -4.4248877 3.7341962 0 0 0 0 38.793755
-4.2678723 -4.4171052 3.95821 0 0 0 0 38.798706
-4.2138276 -4.4113126 4.1782236 0 0 0 0 38.80365
-4.1567822 -4.4095383 4.4192333 0 0 0 0 38.808598
-4.1208892 -4.4199505 3.6522365 0 0 0 0 38.813545
-4.0688434 -4.4131575 3.8742509 0 0 0 0 38.818489
-4.0177946 -4.3983536 4.0842714 0 0 0 0 38.823441
-3.9747512 -4.4005704 4.3262806 0 0 0 0 38.828384
-3.9158561 -4.4100099 3.5732808 0 0 0 0 38.833332
-3.8628054 -4.3912044 3.7803044 0 0 0 0 38.83828
-3.841768 -4.4003963 4.0083108 0 0 0 0 38.843227
-3.7967186 -4.3886003 4.2343302 0 0 0 0 38.848175
-3.7248259 -4.4060678 3.5033221 0 0 0 0 38.853119
-3.6837759 -4.3892536 3.710346 0 0 0 0 38.85807
-3.6597331 -4.3854342 3.923362 0 0 0 0 38.863014
-3.6366909 -4.3886318 4.1593728 0 0 0 0 38.867962
-3.5357912 -4.3951225 3.4333689 0 0 0 0 38.87291
-3.5097463 -4.3873024 3.6443877 0 0 0 0 38.877853
-3.4907014 -4.3784723 3.8494081 0 0 0 0 38.882805
-3.4776609 -4.3846622 4.0844178 0 0 0 0 38.887749
-3.3607597 -4.3911767 3.3744121 0 0 0 0 38.892696
-3.3387129 -4.3783469 3.5774353 0 0 0 0 38.897644
-3.3356738 -4.3815126 3.7894485 0 0 0 0 38.902588
-3.3186266 -4.3726892 4.0064697 0 0 0 0 38.907539
-3.185725 -4.3812289 3.3134592 0 0 0 0 38.912483
-3.1786821 -4.3763924 3.5204782 0 0 0 0 38.917431
-3.1786416 -4.3755498 3.7254953 0 0 0 0 38.922379
-3.1665931 -4.3627176 3.9355199 0 0 0 0 38.927326
-3.0286963 -4.3862834 3.2704971 0 0 0 0 38.932274
-3.0186477 -4.3674345 3.4605265 0 0 0 0 38.937218
-3.0256081 -4.3675847 3.662544 0 0 0 0 38.942169
-3.0275638 -4.3627462 3.8765643 0 0 0 0 38.947113
-2.8666604 -4.3753314 3.2165465 0 0 0 0 38.952061
-2.8666151 -4.3634787 3.4105718 0 0 0 0 38.957008
-2.8795753 -4.3616195 3.6055915 0 0 0 0 38.961952
-2.8905332 -4.3617759 3.8206093 0 0 0 0 38.966904
-2.7096229 -4.3623781 3.1665976 0 0 0 0 38.971848
-2.7185805 -4.3555183 3.3586204 0 0 0 0 38.976795
-2.7425454 -4.3636556 3.558634 0 0 0 0 38.981743
-2.7555003 -4.3558016 3.7626584 0 0 0 0 38.986687
-2.56359 -4.3604269 3.1276417 0 0 0 0 38.991638
-2.578548 -4.3535595 3.3156652 0 0 0 0 38.996582
-2.5995076 -4.3486872 3.5016885 0 0 0 0 39.00153
-2.6244681 -4.3518276 3.7087061 0 0 0 0 39.006477
-2.4165533 -4.350472 3.0856912 0 0 0 0 39.011425
-2.4385121 -4.3445988 3.2717154 0 0 0 0 39.016373
-2.4714777 -4.3517213 3.460731 0 0 0 0 39.021317
-2.4994371 -4.3518558 3.6627517 0 0 0 0 39.026268
-2.2755163 -4.3405161 3.0467415 0 0 0 0 39.031212
-2.3054793 -4.342638 3.2337606 0 0 0 0 39.03616
-2.3394415 -4.3417525 3.4137828 0 0 0 0 39.041107
-2.3704009 -4.3398786 3.607805 0 0 0 0 39.046051
-2.1414824 -4.338562 3.0177867 0 0 0 0 39.051003
-2.1714411 -4.3296742 3.1918139 0 0 0 0 39.055946
-2.2104058 -4.3327832 3.3698339 0 0 0 0 39.060894
-2.2493677 -4.3359051 3.5638535 0 0 0 0 39.065842
-2.008446 -4.331605 2.9858353 0 0 0 0 39.070789
-2.0424049 -4.3217111 3.1558638 0 0 0 0 39.075737
-2.0903735 -4.3328156 3.3348792 0 0 0 0 39.080681
-2.1333356 -4.3349304 3.5239003 0 0 0 0 39.085632
-1.8784083 -4.3226471 2.9568856 0 0 0 0 39.090576
-1.9213727 -4.3237491 3.1289074 0 0 0 0 39.095524
-1.9673368 -4.322845 3.2949314 0 0 0 0 39.100471
-2.0142987 -4.3229518 3.4769547 0 0 0 0 39.105415
-1.7553754 -4.3246918 2.9369285 0 0 0 0 39.110367
-1.7993349 -4.3137836 3.0969594 0 0 0 0 39.115311
-1.8483003 -4.3148751 3.2599821 0 0 0 0 39.120258
-1.9012651 -4.3199763 3.4400029 0 0 0 0 39.125206
-1.6323372 -4.3157315 2.9119792 0 0 0 0 39.13015
-1.6792991 -4.3088202 3.0700076 0 0 0 0 39.135101
-1.7332643 -4.3079038 3.2270329 0 0 0 0 39.140045
-1.7892298 -4.3129992 3.4020538 0 0 0 0 39.144993
-1.5110136 -4.3097119 2.8925164 0 0 0 0 39.302361
-1.5629758 -4.3037915 3.046545 0 0 0 0 39.307308
-1.6209413 -4.3048673 3.1995702 0 0 0 0 39.312256
-1.6769024 -4.2999496 3.3615987 0 0 0 0 39.3172
-1.394979 -4.3097506 2.8775606 0 0 0 0 39.322151
-1.4489399 -4.2988229 3.0235929 0 0 0 0 39.327095
-1.5099061 -4.2998934 3.1726182 0 0 0 0 39.332043
-1.5728711 -4.3039742 3.3366418 0 0 0 0 39.33699
-1.2779422 -4.3047876 2.8616076 0 0 0 0 39.341938
-1.3339 -4.2838511 2.9966471 0 0 0 0 39.346886
-1.3998691 -4.2909184 3.1446693 0 0 0 0 39.35183
-1.4688381 -4.3039961 3.3096879 0 0 0 0 39.356781
-1.1619004 -4.2878199 2.8406625 0 0 0 0 39.361725
-1.2268674 -4.2898865 2.9866881 0 0 0 0 39.366673
-1.2958361 -4.2939467 3.127713 0 0 0 0 39.37162
-1.3617982 -4.2850103 3.2707458 0 0 0 0 39.376564
-1.0508664 -4.2918591 2.8347042 0 0 0 0 39.381516
-1.1168287 -4.278914 2.9647398 0 0 0 0 39.386459
-1.1877966 -4.2789688 3.0987678 0 0 0 0 39.391407
-1.2627664 -4.2900338 3.2507887 0 0 0 0 39.396355
-0.94082826 -4.2858939 2.8237522 0 0 0 0 39.401302
-1.0107918 -4.2739434 2.9497881 0 0 0 0 39.40625
-1.0867643 -4.284997 3.0858092 0 0 0 0 39.411194
-1.1627311 -4.2850533 3.2258379 0 0 0 0 39.416145
-0.83078718 -4.2719259 2.8098054 0 0 0 0 39.421089
-0.90775764 -4.2779775 2.9438305 0 0 0 0 39.426037
-0.98272502 -4.2720194 3.0628629 0 0 0 0 39.430984
-1.0616935 -4.2750707 3.1988902 0 0 0 0 39.435928
-0.72375005 -4.2699623 2.805851 0 0 0 0 39.44088
-0.80271912 -4.2700062 2.9308803 0 0 0 0 39.445824
-0.88168854 -4.2670436 3.0459116 0 0 0 0 39.450771
-0.96565992 -4.2760921 3.1809359 0 0 0 0 39.455719
-0.61871403 -4.2719994 2.8058939 0 0 0 0 39.460663
-0.69968051 -4.2620344 2.9189301 0 0 0 0 39.465614
-0.78365427 -4.2700715 3.0369551 0 0 0 0 39.470558
-0.86662221 -4.2661099 3.1569877 0 0 0 0 39.475506
-0.51367605 -4.2690344 2.8039398 0 0 0 0 39.480453
-0.59964651 -4.2690687 2.9199703 0 0 0 0 39.485401
-0.68461704 -4.2650962 3.0250034 0 0 0 0 39.490349
-0.77158558 -4.2591271 3.1360383 0 0 0 0 39.495293
-0.40963787 -4.2670698 2.8059852 0 0 0 0 39.500244
-0.49760449 -4.2520924 2.905026 0 0 0 0 39.505188
-0.58657855 -4.2561183 3.0100548 0 0 0 0 39.510136
-0.67655039 -4.2581482 3.1220849 0 0 0 0 39.515083
-0.3055993 -4.2641053 2.8080308 0 0 0 0 39.520027
-0.39756829 -4.2541251 2.9060693 0 0 0 0 39.524979
-0.48954275 -4.2561445 3.0030999 0 0 0 0 39.529922
-0.58251411 -4.2541676 3.1071332 0 0 0 0 39.53487
-0.20255335 -4.239131 2.797091 0 0 0 0 39.539818
-0.29853079 -4.2521548 2.9041152 0 0 0 0 39.544765
-0.39250275 -4.2441659 2.9901526 0 0 0 0 39.549713
-0.48947653 -4.2461843 3.090184 0 0 0 0 39.554657
-0.1005173 -4.2461705 2.8101301 0 0 0 0 39.559605
-0.2004924 -4.2491851 2.9051616 0 0 0 0 39.564552
-0.29746553 -4.24119 2.9841995 0 0 0 0 39.5695
-0.39644012 -4.2432046 3.0792315 0 0 0 0 39.574448
0.00052276108 -4.2412043 2.8161771 0 0 0 0 39.579391
-0.1014533 -4.2442141 2.9052091 0 0 0 0 39.584343
-0.20243011 -4.2452178 2.9852419 0 0 0 0 39.589287
-0.30440331 -4.2392235 3.0682795 0 0 0 0 39.594234
0.10256365 -4.2342377 2.8222249 0 0 0 0 39.599182
-0.0044143461 -4.2402425 2.9072556 0 0 0 0 39.604126
-0.10739221 -4.2422428 2.9832888 0 0 0 0 39.609077
-0.21136482 -4.2302413 3.0553303 0 0 0 0 39.614021
0.20360237 -4.2352738 2.8352675 0 0 0 0 39.618969
0.092625871 -4.2332702 2.9093044 0 0 0 0 39.623917
-0.013352957 -4.2342644 2.9773383 0 0 0 0 39.628864
-0.12032939 -4.2322626 3.0513744 0 0 0 0 39.633812
0.30464393 -4.2283072 2.845315 0 0 0 0 39.638756
0.18966573 -4.2282987 2.9143515 0 0 0 0 39.643707
0.08068499 -4.2322898 2.978384 0 0 0 0 39.648651
-0.029290263 -4.2222786 3.040426 0 0 0 0 39.653599
0.40568563 -4.2213407 2.8563623 0 0 0 0 39.658546
0.28670573 -4.2233276 2.920398 0 0 0 0 39.66349
0.17472504 -4.2243128 2.9774334 0 0 0 0 39.668442
0.060747858 -4.2162971 3.0334749 0 0 0 0 39.673386
0.50772417 -4.2263794 2.8774016 0 0 0 0 39.678333
0.38474566 -4.2203579 2.9304433 0 0 0 0 39.683281
0.26876348 -4.2223377 2.9814789 0 0 0 0 39.688225
0.15178503 -4.2143168 3.0305209 0 0 0 0 39.693176
0.60876745 -4.2164121 2.8904502 0 0 0 0 39.69812
0.48178786 -4.209384 2.9354935 0 0 0 0 39.703068
0.36380211 -4.2203636 2.9865236 0 0 0 0 39.708015
0.2428215 -4.2163391 3.0325639 0 0 0 0 39.712963
0.70881295 -4.1994414 2.9005029 0 0 0 0 39.717911
0.5788281 -4.2064137 2.9475384 0 0 0 0 39.722855
0.45784232 -4.2133865 2.9895718 0 0 0 0 39.727806
0.33486187 -4.2043557 3.0256157 0 0 0 0 39.73275
0.81085539 -4.1944766 2.920548 0 0 0 0 39.737698
0.67687094 -4.1954408 2.9565876 0 0 0 0 39.742645
0.55188352 -4.2044096 2.9936211 0 0 0 0 39.747589
0.42589927 -4.2043767 3.0286598 0 0 0 0 39.752541
0.91289902 -4.1865106 2.9405942 0 0 0 0 39.757484
0.77291387 -4.1844668 2.9666371 0 0 0 0 39.762432
0.64592415 -4.1974325 2.9996684 0 0 0 0 39.76738
0.51793909 -4.1963949 3.0277085 0 0 0 0 39.772327
1.0168023 -4.1800995 2.9650581 0 0 0 0 40.240906
0.87381512 -4.1840653 2.9881015 0 0 0 0 40.24585
0.74282634 -4.1940351 3.0111394 0 0 0 0 40.250797
0.6108405 -4.1920033 3.0321836 0 0 0 0 40.255745
1.1198456 -4.1751223 2.9900994 0 0 0 0 40.260689
0.97385669 -4.182085 3.0081422 0 0 0 0 40.26564
0.83786762 -4.1840477 3.0191851 0 0 0 0 40.270584
0.70387882 -4.1920156 3.0392249 0 0 0 0 40.275532
1.2248898 -4.1691451 3.0171406 0 0 0 0 40.280479
1.0728996 -4.1731019 3.0251863 0 0 0 0 40.285427
0.93490791 -4.1820626 3.0332263 0 0 0 0 40.290375
0.79591888 -4.1810231 3.0402715 0 0 0 0 40.295319
1.3319339 -4.1671705 3.0491791 0 0 0 0 40.30027
1.1759416 -4.1731229 3.0502245 0 0 0 0 40.305214
1.0309491 -4.1760764 3.0462692 0 0 0 0 40.310162
0.88895869 -4.1730323 3.0443165 0 0 0 0 40.315109
1.4439774 -4.1752005 3.0912113 0 0 0 0 40.320053
1.2769847 -4.1681414 3.0732656 0 0 0 0 40.325005
1.1309903 -4.1750932 3.0653088 0 0 0 0 40.329948
0.98299819 -4.170043 3.0533581 0 0 0 0 40.334896
1.5510232 -4.1652226 3.1212533 0 0 0 0 40.339844
1.3780292 -4.1531563 3.0913115 0 0 0 0 40.344791
1.2290319 -4.169107 3.081351 0 0 0 0 40.349739
1.0810379 -4.1710567 3.068397 0 0 0 0 40.354683
1.6600695 -4.1572456 3.1552935 0 0 0 0 40.359631
1.4860719 -4.160181 3.1273448 0 0 0 0 40.364578
1.3280749 -4.1571193 3.0953956 0 0 0 0 40.369526
1.1770781 -4.1660666 3.0784392 0 0 0 0 40.374474
