# .PCD v0.7 - Point Cloud Data file format
VERSION 0.7
FIELDS x y z normal_x normal_y normal_z intensity curvature
SIZE 4 4 4 4 4 4 4 4
TYPE F F F F F F F F
COUNT 1 1 1 1 1 1 1 1
WIDTH 938
HEIGHT 1
VIEWPOINT 0 0 0 1 0 0 0
POINTS 938
DATA ascii
2.05076 1.1000769 -0.018477876 0 0 0 0 30.85742
1.9093704 1.0720631 -0.076529086 0 0 0 0 30.862368
1.7789888 1.0438558 -0.12358956 0 0 0 0 30.867313
1.6676884 1.0224197 -0.16962539 0 0 0 0 30.872261
2.0151896 1.1395391 -0.020206958 0 0 0 0 30.877209
1.8818356 1.114422 -0.077247605 0 0 0 0 30.882156
1.7514319 1.0842053 -0.12331966 0 0 0 0 30.887102
1.6390988 1.0597659 -0.16737205 0 0 0 0 30.89205
1.9806279 1.1799936 -0.022932168 0 0 0 0 30.896996
1.847241 1.1518612 -0.077990189 0 0 0 0 30.901943
1.7248615 1.123542 -0.12305739 0 0 0 0 30.906891
1.6135178 1.0980819 -0.16611642 0 0 0 0 30.911837
1.9450419 1.2184523 -0.024669128 0 0 0 0 30.916784
1.818679 1.1922289 -0.078721508 0 0 0 0 30.921732
1.6932663 1.1609352 -0.1228035 0 0 0 0 30.926678
1.5869352 1.1364082 -0.16486098 0 0 0 0 30.931625
1.9124762 1.2588803 -0.027398128 0 0 0 0 30.936573
1.7860922 1.2306416 -0.079462066 0 0 0 0 30.941519
1.6717371 1.2042168 -0.12352448 0 0 0 0 30.946466
1.5653955 1.1786811 -0.16458774 0 0 0 0 30.951412
1.8758633 1.2953471 -0.029147806 0 0 0 0 30.95636
1.7504692 1.2660875 -0.080218323 0 0 0 0 30.961308
1.6421386 1.2415787 -0.12227429 0 0 0 0 30.966255
1.5337632 1.2130629 -0.16335307 0 0 0 0 30.971201
1.8432822 1.3347718 -0.031884626 0 0 0 0 30.976149
1.7198786 1.3044739 -0.080962546 0 0 0 0 30.981094
1.6135598 1.2809387 -0.12301449 0 0 0 0 30.986042
1.5081862 1.2523737 -0.16209576 0 0 0 0 30.99099
1.8036432 1.3692696 -0.033645269 0 0 0 0 30.995937
1.6892967 1.3438643 -0.082702078 0 0 0 0 31.000883
1.5870025 1.3222685 -0.12274601 0 0 0 0 31.005831
1.4816074 1.2916949 -0.16083865 0 0 0 0 31.010777
1.7720697 1.4096792 -0.036379289 0 0 0 0 31.015724
1.6566911 1.3812708 -0.083452404 0 0 0 0 31.020672
1.5624539 1.3645799 -0.12347454 0 0 0 0 31.02562
1.4631166 1.3389285 -0.1605437 0 0 0 0 31.030565
1.732415 1.4431791 -0.039147567 0 0 0 0 31.035513
1.6251063 1.420664 -0.084193222 0 0 0 0 31.040459
1.5298246 1.3999761 -0.12323733 0 0 0 0 31.045406
1.4395556 1.3802186 -0.16027981 0 0 0 0 31.050354
1.7058724 1.4865224 -0.04087076 0 0 0 0 31.0553
1.5934961 1.4580613 -0.085946374 0 0 0 0 31.060247
1.5002389 1.4393363 -0.12298089 0 0 0 0 31.065193
1.4119815 1.4205531 -0.16001943 0 0 0 0 31.070141
1.66418 1.5170417 -0.043656334 0 0 0 0 31.075089
1.5608735 1.4944628 -0.086705379 0 0 0 0 31.080036
1.4676173 1.4757293 -0.12274001 0 0 0 0 31.084982
1.3843946 1.4598808 -0.15876575 0 0 0 0 31.08993
1.6275541 1.5535015 -0.046413019 0 0 0 0 31.094875
1.5333275 1.5378113 -0.088429973 0 0 0 0 31.099823
1.4400496 1.5170695 -0.12347597 0 0 0 0 31.104771
1.3538063 1.499241 -0.1575107 0 0 0 0 31.109718
1.5949373 1.5909141 -0.049168292 0 0 0 0 31.114664
1.4956563 1.5702667 -0.089209482 0 0 0 0 31.119612
1.4145136 1.5613853 -0.12419777 0 0 0 0 31.124557
1.3252262 1.5395828 -0.15725265 0 0 0 0 31.129505
1.5633752 1.6333135 -0.051897336 0 0 0 0 31.134453
1.4671063 1.6136234 -0.090935424 0 0 0 0 31.1394
1.3849314 1.6017396 -0.12393995 0 0 0 0 31.144346
1.2996892 1.5838889 -0.15697569 0 0 0 0 31.149294
1.5267211 1.6677681 -0.054668278 0 0 0 0 31.15424
1.4365318 1.6550013 -0.092672095 0 0 0 0 31.159187
1.3533578 1.6431206 -0.124676 0 0 0 0 31.164135
1.2711283 1.6262223 -0.15570866 0 0 0 0 31.169081
1.4971775 1.7121414 -0.057389904 0 0 0 0 31.174028
1.4059553 1.6963776 -0.094409853 0 0 0 0 31.178974
1.3187157 1.6785285 -0.12444424 0 0 0 0 31.183922
1.242576 1.6695597 -0.15543714 0 0 0 0 31.188869
1.4564865 1.7436377 -0.060176402 0 0 0 0 31.193817
1.3753992 1.7397523 -0.096137568 0 0 0 0 31.198763
1.2942275 1.7278273 -0.12514342 0 0 0 0 31.203711
1.217099 1.7198671 -0.15613018 0 0 0 0 31.208656
1.4198496 1.7800868 -0.06293916 0 0 0 0 31.213604
1.340786 1.778165 -0.09689106 0 0 0 0 31.218552
1.2586032 1.7652487 -0.12590185 0 0 0 0 31.223499
1.1875541 1.7642074 -0.15485467 0 0 0 0 31.228445
1.3903216 1.8264605 -0.066652946 0 0 0 0 31.233393
1.3082148 1.8205589 -0.098624974 0 0 0 0 31.238338
1.2290773 1.8116007 -0.12661611 0 0 0 0 31.243286
1.1549954 1.8075852 -0.1545835 0 0 0 0 31.248234
1.3536921 1.8639058 -0.069412276 0 0 0 0 31.253181
1.2726306 1.8619846 -0.10036319 0 0 0 0 31.258127
1.196527 1.8559848 -0.12734029 0 0 0 0 31.263075
1.1224458 1.8519615 -0.15430795 0 0 0 0 31.268021
1.3170942 1.9043491 -0.072156049 0 0 0 0 31.272968
1.2360109 1.90042 -0.10211831 0 0 0 0 31.277916
1.1639857 1.9013672 -0.12806013 0 0 0 0 31.282862
1.0929825 1.9043024 -0.15399177 0 0 0 0 31.287809
1.2784604 1.9418185 -0.075915881 0 0 0 0 31.292757
1.1994109 1.940859 -0.10486343 0 0 0 0 31.297703
1.1304421 1.9467592 -0.12878038 0 0 0 0 31.30265
1.0594394 1.9496864 -0.15371236 0 0 0 0 31.307598
1.2413423 1.9800986 -0.07872238 0 0 0 0 31.094299
1.1673943 1.9880985 -0.10662198 0 0 0 0 31.099247
1.0933479 1.98707 -0.12957242 0 0 0 0 31.104193
1.0233685 1.9920002 -0.15349236 0 0 0 0 31.10914
1.2037488 2.0205634 -0.082462527 0 0 0 0 31.114086
1.1267455 2.0235841 -0.10838822 0 0 0 0 31.119034
1.0608915 2.0394557 -0.13024989 0 0 0 0 31.123981
0.99093497 2.0463779 -0.15315901 0 0 0 0 31.128929
1.164142 2.0600491 -0.086207785 0 0 0 0 31.133875
1.0871626 2.0650558 -0.11012262 0 0 0 0 31.138823
1.0223312 2.0829082 -0.13097437 0 0 0 0 31.143768
0.95445389 2.0967996 -0.15284626 0 0 0 0 31.148716
1.1214548 2.092567 -0.089990906 0 0 0 0 31.153664
1.0485882 2.1075199 -0.11285335 0 0 0 0 31.158611
0.98994792 2.1422956 -0.13261533 0 0 0 0 31.163557
0.91694796 2.145231 -0.15254523 0 0 0 0 31.168505
1.0839456 2.1410251 -0.093689591 0 0 0 0 31.17345
1.0141463 2.1619358 -0.11552142 0 0 0 0 31.178398
0.94732714 2.1807899 -0.13336705 0 0 0 0 31.183346
0.8785063 2.1996765 -0.15321122 0 0 0 0 31.188293
1.0433669 2.1835155 -0.097420618 0 0 0 0 31.193239
0.97359002 2.2064185 -0.11824185 0 0 0 0 31.198187
0.90681571 2.2292647 -0.13506573 0 0 0 0 31.203133
0.84214103 2.2610922 -0.1528413 0 0 0 0 31.20808
0.99973029 2.2210379 -0.10117824 0 0 0 0 31.213028
0.93204355 2.2519045 -0.11995715 0 0 0 0 31.217974
0.86429155 2.2767539 -0.13576971 0 0 0 0 31.222921
0.80066055 2.3125677 -0.15352452 0 0 0 0 31.227869
0.96021378 2.2695181 -0.105879 0 0 0 0 31.232815
0.88640505 2.2894392 -0.12271489 0 0 0 0 31.237762
0.82178742 2.326241 -0.13646387 0 0 0 0 31.24271
0.75615686 2.3620641 -0.15221785 0 0 0 0 31.247656
0.91457337 2.3070583 -0.10963728 0 0 0 0 31.252604
0.8449316 2.3419261 -0.12539382 0 0 0 0 31.257549
0.78243524 2.3897026 -0.13908426 0 0 0 0 31.262497
0.71798211 2.4415057 -0.15375134 0 0 0 0 31.267445
0.87206376 2.3565676 -0.11433264 0 0 0 0 31.272392
0.80659926 2.4073818 -0.12900469 0 0 0 0 31.277338
0.74003631 2.4491904 -0.14072604 0 0 0 0 31.282286
0.6694724 2.4910479 -0.15344456 0 0 0 0 31.287231
0.82752967 2.4040968 -0.1190388 0 0 0 0 31.292179
0.75592124 2.4419656 -0.13177872 0 0 0 0 31.297127
0.69257939 2.5037317 -0.14239301 0 0 0 0 31.302074
0.62627983 2.569541 -0.15498336 0 0 0 0 31.30702
0.77788281 2.4416802 -0.12379736 0 0 0 0 31.311968
0.71052831 2.5024951 -0.13541466 0 0 0 0 31.316914
0.64626354 2.5712588 -0.14399078 0 0 0 0 31.321861
0.57477576 2.6201115 -0.15467177 0 0 0 0 31.326809
0.73346591 2.5002038 -0.12844561 0 0 0 0 31.331755
0.66307801 2.5580392 -0.13807811 0 0 0 0 31.336702
0.59579015 2.6248286 -0.14566401 0 0 0 0 31.34165
0.52241272 2.6836894 -0.15428956 0 0 0 0 31.346596
0.68079299 2.5358155 -0.1332152 0 0 0 0 31.351543
0.61262453 2.6136193 -0.14174069 0 0 0 0 31.356491
0.54545659 2.6914005 -0.14826752 0 0 0 0 31.361437
0.47126526 2.7672634 -0.15580037 0 0 0 0 31.366385
0.63131553 2.5893953 -0.13888974 0 0 0 0 31.37133
0.56115741 2.6682081 -0.14540949 0 0 0 0 31.376278
0.48999983 2.74702 -0.14992903 0 0 0 0 31.381226
0.41813651 2.8528509 -0.15630092 0 0 0 0 31.386173
0.57981366 2.6409948 -0.1445751 0 0 0 0 31.391119
0.50774193 2.7278214 -0.15005095 0 0 0 0 31.396067
0.43676987 2.8236191 -0.15247914 0 0 0 0 31.401012
0.35887241 2.9265029 -0.15686443 0 0 0 0 31.40596
0.52525467 2.6876249 -0.15028679 0 0 0 0 31.410908
0.45021495 2.7774711 -0.15374537 0 0 0 0 31.415855
0.37849268 2.89627 -0.15504918 0 0 0 0 31.420801
0.29771346 3.0101783 -0.158374 0 0 0 0 31.425749
0.47079176 2.7432513 -0.1559509 0 0 0 0 31.430695
0.39278391 2.8361168 -0.15739231 0 0 0 0 31.435642
0.31711394 2.9599519 -0.15766768 0 0 0 0 31.44059
0.23245317 3.0848894 -0.15893154 0 0 0 0 31.445536
0.41327181 2.7939079 -0.16164134 0 0 0 0 31.450483
0.33461019 2.9187799 -0.16291006 0 0 0 0 31.455431
0.25496012 3.0446453 -0.16117345 0 0 0 0 31.460377
0.16540636 3.1796231 -0.1603813 0 0 0 0 31.465324
0.35584664 2.8535666 -0.16828451 0 0 0 0 31.470272
0.27330285 2.9894679 -0.16749258 0 0 0 0 31.475218
0.18878138 3.1273737 -0.16368923 0 0 0 0 31.480165
0.094301552 3.269392 -0.16085754 0 0 0 0 31.485111
0.29339716 2.9112768 -0.17493629 0 0 0 0 31.490059
0.20778617 3.0411978 -0.17217642 0 0 0 0 31.495007
0.11863068 3.2131474 -0.16718797 0 0 0 0 31.499954
0.019365281 3.3752048 -0.16224693 0 0 0 0 31.5049
0.22982578 2.9579952 -0.18164814 0 0 0 0 31.509848
0.13968794 3.1319647 -0.17864954 0 0 0 0 31.514793
0.045432687 3.2949502 -0.17070827 0 0 0 0 31.519741
-0.060684003 3.4710689 -0.16368905 0 0 0 0 31.524689
0.16355351 3.0327516 -0.19020858 0 0 0 0 31.529636
0.06945648 3.2107451 -0.18418801 0 0 0 0 31.534582
-0.031693511 3.3837922 -0.17419016 0 0 0 0 31.53953
-0.1464787 3.5909917 -0.16500045 0 0 0 0 31.544476
0.095213734 3.101521 -0.19780174 0 0 0 0 31.549423
-0.0058862828 3.2795768 -0.18977842 0 0 0 0 31.554371
-0.11365282 3.4886935 -0.17958498 0 0 0 0 31.559317
-0.23912954 3.7249954 -0.1682348 0 0 0 0 31.564264
0.021097427 3.1645243 -0.20700918 0 0 0 0 32.555176
-0.088994853 3.366533 -0.1969824 0 0 0 0 32.56012
-0.20492563 3.5855825 -0.18387216 0 0 0 0 32.565067
-0.34429696 3.8638606 -0.17146716 0 0 0 0 32.570015
-0.054360818 3.2302704 -0.21566273 0 0 0 0 32.574963
-0.1712389 3.4553366 -0.20452499 0 0 0 0 32.57991
-0.29713532 3.6784632 -0.18839243 0 0 0 0 32.584858
-0.44917047 3.9928493 -0.17381212 0 0 0 0 32.589802
-0.1327557 3.3030405 -0.22428299 0 0 0 0 32.594749
-0.25849652 3.5431831 -0.21207152 0 0 0 0 32.599697
-0.39884865 3.8244452 -0.1956578 0 0 0 0 32.604645
-0.56479466 4.1489401 -0.17702568 0 0 0 0 32.609592
-0.21508889 3.3828535 -0.23486957 0 0 0 0 32.61454
-0.34984273 3.6220591 -0.21866043 0 0 0 0 32.619484
-0.50194532 3.9304197 -0.20011535 0 0 0 0 32.624432
-0.30246285 3.4587049 -0.24447402 0 0 0 0 32.634327
-0.44884521 3.7380178 -0.22807194 0 0 0 0 32.639275
-0.61676502 4.0665097 -0.20642672 0 0 0 0 32.644218
-0.90372914 4.9232235 -0.20022234 0 0 0 0 32.649166
-0.39280394 3.5385895 -0.25605986 0 0 0 0 32.654114
-0.55392826 3.8460286 -0.23752037 0 0 0 0 32.659061
-0.74328172 4.2357149 -0.21457894 0 0 0 0 32.664009
-1.0027781 4.8240786 -0.193664 0 0 0 0 32.668957
-0.48905471 3.628525 -0.26759714 0 0 0 0 32.673904
-0.66690367 3.9661081 -0.24691036 0 0 0 0 32.678848
-0.96005476 4.8068757 -0.2427955 0 0 0 0 32.683796
-1.1304741 4.8692255 -0.19140983 0 0 0 0 32.688744
-0.59130073 3.7195163 -0.28012839 0 0 0 0 32.693691
-0.78592271 4.0822425 -0.2573185 0 0 0 0 32.698639
-1.0733143 4.791893 -0.24283174 0 0 0 0 32.703583
-1.2187498 4.7449594 -0.18297319 0 0 0 0 32.70853
-0.69848561 3.8175485 -0.29262638 0 0 0 0 32.713478
-0.91278881 4.2154498 -0.26864544 0 0 0 0 32.718426
-1.1943587 4.7999825 -0.24375571 0 0 0 0 32.723373
-1.3048903 4.6346788 -0.17646994 0 0 0 0 32.728317
-0.81459278 3.9246728 -0.30807942 0 0 0 0 32.733265
-1.1170348 4.632473 -0.29860756 0 0 0 0 32.738213
-1.2950907 4.7338567 -0.24103798 0 0 0 0 32.74316
-1.3996443 4.5654802 -0.1707681 0 0 0 0 32.748108
-0.94056582 4.0468879 -0.3244594 0 0 0 0 32.753056
-1.2351058 4.637547 -0.30354613 0 0 0 0 32.758003
-1.3705419 4.5894699 -0.23469749 0 0 0 0 32.762947
-1.5002098 4.5163364 -0.16596846 0 0 0 0 32.767895
-1.066766 4.1450877 -0.33895406 0 0 0 0 32.772842
-1.3638629 4.6767244 -0.31032082 0 0 0 0 32.77779
-1.4653214 4.5172791 -0.23200801 0 0 0 0 32.782738
-1.2716238 4.4991231 -0.37522152 0 0 0 0 32.792629
-1.4538193 4.5854907 -0.30872276 0 0 0 0 32.797577
-1.5619408 4.4621062 -0.23023744 0 0 0 0 32.802525
-1.3955107 4.5242662 -0.38606358 0 0 0 0 32.81242
-1.5301114 4.4571166 -0.3053022 0 0 0 0 32.817364
-1.662456 4.4179649 -0.22841278 0 0 0 0 32.822311
-2.5197797 6.1278443 -0.21004301 0 0 0 0 32.827259
-1.5262978 4.5604706 -0.39785174 0 0 0 0 32.832207
-1.626747 4.399951 -0.30653939 0 0 0 0 32.837154
-2.5179353 6.2392859 -0.32157114 0 0 0 0 32.842102
-2.6526244 6.0519533 -0.20436659 0 0 0 0 32.847046
-1.6142285 4.4712214 -0.39924219 0 0 0 0 32.851994
-1.7214165 4.3387628 -0.30779523 0 0 0 0 32.856941
-2.6146424 6.0690484 -0.3143492 0 0 0 0 32.861889
-3.5073915 7.5209708 -0.24819016 0 0 0 0 32.866837
-1.6904005 4.354846 -0.39776191 0 0 0 0 32.87178
-1.8238729 4.3006463 -0.30993983 0 0 0 0 32.876728
-2.7475395 5.9871674 -0.31269854 0 0 0 0 32.881676
-3.6871817 7.454473 -0.2414608 0 0 0 0 32.886623
-1.7782311 4.2755923 -0.40010288 0 0 0 0 32.891571
-2.7616282 6.1078367 -0.44417828 0 0 0 0 32.896519
-2.8882232 5.9283557 -0.31193674 0 0 0 0 32.901466
-3.8984687 7.4432688 -0.23746032 0 0 0 0 32.90641
-1.8728495 4.2194066 -0.40433323 0 0 0 0 32.911358
-2.864177 5.9536581 -0.4408738 0 0 0 0 32.916306
-3.0515232 5.9117575 -0.31396902 0 0 0 0 32.921253
-5.2452736 9.4777508 -0.29550618 0 0 0 0 32.926201
-1.9772934 4.1823144 -0.41047028 0 0 0 0 32.931145
-2.9862392 5.8526702 -0.4413133 0 0 0 0 32.936092
-4.0285172 7.3729482 -0.39282888 0 0 0 0 32.94104
-5.3788705 9.2157393 -0.2827152 0 0 0 0 32.945988
-3.1210806 5.7758069 -0.44463432 0 0 0 0 32.955879
-4.2448411 7.3577967 -0.39584389 0 0 0 0 32.960827
-6.480269 10.532757 -0.31722388 0 0 0 0 32.965775
-3.2559087 5.6999326 -0.44694957 0 0 0 0 32.97567
-10.043895 15.515546 -0.45582989 0 0 0 0 32.985565
-3.2239375 5.7182689 -0.60192221 0 0 0 0 32.990509
-4.4155645 7.3249598 -0.58401865 0 0 0 0 32.995457
-10.526642 15.475574 -0.4479143 0 0 0 0 33.005352
-3.3558259 5.6353755 -0.6082691 0 0 0 0 33.0103
-4.7257981 7.432713 -0.60542917 0 0 0 0 33.015244
-6.9372783 10.293475 -0.56834972 0 0 0 0 33.020191
-11.241741 15.732713 -0.44853508 0 0 0 0 33.025139
-3.491663 5.5631166 -0.61487472 0 0 0 0 32.736423
-4.8658028 7.2769217 -0.60409355 0 0 0 0 32.741371
-8.5099678 12.017343 -0.66989863 0 0 0 0 32.746319
-11.720323 15.645239 -0.43716374 0 0 0 0 32.751266
-3.6551762 5.5235815 -0.62700951 0 0 0 0 32.75621
-5.7270093 8.1452179 -0.68962401 0 0 0 0 32.761158
-12.009205 16.152901 -0.908777 0 0 0 0 32.766106
-5.0988903 7.3179784 -0.85089093 0 0 0 0 32.776001
-7.0870199 9.5853682 -0.82923639 0 0 0 0 32.780949
-12.187482 15.624124 -0.89231008 0 0 0 0 32.785896
-5.3512611 7.2992597 -0.87290114 0 0 0 0 32.795788
-8.6589575 11.151491 -0.98618215 0 0 0 0 32.800735
-12.392308 15.141602 -0.87960213 0 0 0 0 32.805683
-12.783036 14.824883 -0.3978771 0 0 0 0 32.810631
-5.6936498 7.3884263 -0.90836179 0 0 0 0 32.815575
-12.279614 15.061534 -1.3621737 0 0 0 0 32.820522
-10.559537 12.311554 -0.7278837 0 0 0 0 32.82547
-7.2318206 8.9344912 -1.1284291 0 0 0 0 32.835365
-10.452836 12.22123 -1.1354694 0 0 0 0 32.840313
-7.3368225 8.6302052 -1.1228589 0 0 0 0 32.855152
-10.692878 11.922132 -1.1368418 0 0 0 0 32.8601
-8.967267 10.048999 -1.3465159 0 0 0 0 32.874939
-10.784336 11.464588 -1.1230184 0 0 0 0 32.879887
-11.675836 11.833927 -0.74084604 0 0 0 0 32.884834
-12.710869 13.572462 -1.8723903 0 0 0 0 32.89473
-13.479303 13.036516 -0.83246464 0 0 0 0 32.904621
-12.867584 13.089477 -1.8646595 0 0 0 0 32.914516
-11.60615 11.221641 -1.1639158 0 0 0 0 32.919464
-13.122926 12.116691 -0.79200655 0 0 0 0 32.924412
-10.922271 10.591969 -1.5602669 0 0 0 0 32.934303
-11.592192 10.693075 -1.1424525 0 0 0 0 32.939251
-13.135152 11.570348 -0.77462095 0 0 0 0 32.944199
-13.341084 11.221883 -0.28411371 0 0 0 0 32.949146
-11.41402 10.542321 -1.6063333 0 0 0 0 32.954094
-13.017726 11.451217 -1.2603334 0 0 0 0 32.959038
-13.252295 11.14199 -0.76462919 0 0 0 0 32.963985
-11.249024 9.9002829 -1.5614489 0 0 0 0 32.973881
-13.162767 11.033125 -1.2542744 0 0 0 0 32.978828
-11.857957 9.9407339 -1.6240361 0 0 0 0 32.993668
-8.9535799 -1.1842357 -0.70635152 0 0 0 0 33.416161
-9.3762007 -1.2973255 -0.10859484 0 0 0 0 33.426056
-8.35289 -1.2725307 -0.9713341 0 0 0 0 33.185841
-8.5212116 -1.3294203 -0.67448318 0 0 0 0 33.190788
-8.7056484 -1.3813714 -0.39602032 0 0 0 0 33.195736
-8.8849087 -1.4320985 -0.10612232 0 0 0 0 33.200684
-7.9401603 -1.4069607 -0.92457962 0 0 0 0 33.205627
-8.0914335 -1.4589018 -0.64170313 0 0 0 0 33.210575
-8.2646837 -1.5065633 -0.37879509 0 0 0 0 33.215523
-8.4279165 -1.5533651 -0.10388904 0 0 0 0 33.22047
-7.558167 -1.530724 -0.88231015 0 0 0 0 33.225418
-7.7014036 -1.5776734 -0.61341619 0 0 0 0 33.230366
-7.8766685 -1.6262559 -0.36451021 0 0 0 0 33.235313
-8.0348644 -1.6680441 -0.10258503 0 0 0 0 33.240257
-7.202054 -1.6412278 -0.84296411 0 0 0 0 33.245205
-7.3512979 -1.6880624 -0.58806551 0 0 0 0 33.250153
-7.5055161 -1.730781 -0.35014629 0 0 0 0 33.2551
-7.6657281 -1.7734902 -0.10222325 0 0 0 0 33.260048
-6.8868852 -1.7453338 -0.80856276 0 0 0 0 33.264992
-7.0150914 -1.7873036 -0.56465513 0 0 0 0 33.269939
-7.1763144 -1.8299129 -0.33773071 0 0 0 0 33.274887
-4.5751724 -2.6231925 -0.10505284 0 0 0 0 33.517288
-4.1483607 -2.6190886 -0.52627105 0 0 0 0 33.522236
-4.2293668 -2.6320412 -0.37926435 0 0 0 0 33.527184
-4.3264561 -2.6538012 -0.2462849 0 0 0 0 33.532131
-4.430541 -2.6755314 -0.1063012 0 0 0 0 33.537079
-4.0006447 -2.6625087 -0.51248348 0 0 0 0 33.542027
-4.0977459 -2.6862969 -0.37251201 0 0 0 0 33.546974
-4.1888032 -2.7040951 -0.24251942 0 0 0 0 33.551918
-4.2858653 -2.7228637 -0.10752735 0 0 0 0 33.556866
-3.8629432 -2.7078333 -0.49969652 0 0 0 0 33.561813
-3.9540217 -2.7286553 -0.36371604 0 0 0 0 33.566761
-4.04809 -2.7474036 -0.23972547 0 0 0 0 33.571709
-4.1411376 -2.7641852 -0.10972734 0 0 0 0 33.576653
-3.7241895 -2.7471597 -0.48688415 0 0 0 0 33.5816
-3.8132536 -2.7659779 -0.35589641 0 0 0 0 33.586548
-3.9083486 -2.7877011 -0.23591715 0 0 0 0 33.591496
-4.002399 -2.8044538 -0.11091816 0 0 0 0 33.596443
-3.5914254 -2.7854292 -0.47406265 0 0 0 0 33.601391
-3.6815002 -2.8052182 -0.3480781 0 0 0 0 33.606335
-3.7745891 -2.825938 -0.23309569 0 0 0 0 33.611282
-3.8606083 -2.8387411 -0.11208498 0 0 0 0 33.61623
-3.4646523 -2.822634 -0.4632321 0 0 0 0 33.621178
-3.5547452 -2.8444066 -0.3412554 0 0 0 0 33.626125
-3.6407864 -2.8591685 -0.23025255 0 0 0 0 33.631073
-3.7338495 -2.876893 -0.11425774 0 0 0 0 33.636017
-3.3449099 -2.8637741 -0.45241225 0 0 0 0 33.640965
-3.4249225 -2.8756137 -0.33440077 0 0 0 0 33.645912
-3.51299 -2.8933427 -0.22740865 0 0 0 0 33.65086
-3.6120877 -2.9150014 -0.11542616 0 0 0 0 33.655807
-3.2323091 -2.9036458 -0.44269472 0 0 0 0 33.620049
-3.318382 -2.9224138 -0.3297078 0 0 0 0 33.624996
-3.3883188 -2.9242833 -0.22466147 0 0 0 0 33.629944
-3.474345 -2.9370279 -0.11765019 0 0 0 0 33.634892
-3.1225493 -2.9426894 -0.43385944 0 0 0 0 33.639839
-3.1995652 -2.9545243 -0.32284936 0 0 0 0 33.644783
-3.2826123 -2.9692612 -0.2238477 0 0 0 0 33.649731
-3.3726647 -2.9849603 -0.11984595 0 0 0 0 33.654678
-3.0057213 -2.9737899 -0.42399478 0 0 0 0 33.659626
-3.0897722 -2.9895461 -0.31799644 0 0 0 0 33.664574
-3.1688044 -3.0023041 -0.2219889 0 0 0 0 33.669518
-3.2528176 -3.0130374 -0.12197039 0 0 0 0 33.674465
-2.8958919 -3.0048225 -0.4151248 0 0 0 0 33.679413
-2.9819863 -3.0255463 -0.31314516 0 0 0 0 33.684361
-3.0589867 -3.0343089 -0.22012255 0 0 0 0 33.689308
-3.1399932 -3.044055 -0.12310163 0 0 0 0 33.694256
-2.7941184 -3.0427837 -0.40627703 0 0 0 0 33.6992
-2.8751647 -3.0575368 -0.30727601 0 0 0 0 33.704147
-2.9491594 -3.0653081 -0.21825103 0 0 0 0 33.709095
-3.0321758 -3.0760219 -0.12523279 0 0 0 0 33.714043
-2.691303 -3.0757442 -0.39840859 0 0 0 0 33.71899
-2.7632689 -3.0805595 -0.30237272 0 0 0 0 33.723938
-2.8483715 -3.1012244 -0.21739306 0 0 0 0 33.728882
-2.9253321 -3.1049759 -0.12735027 0 0 0 0 33.733829
-2.5884533 -3.1046996 -0.39052308 0 0 0 0 33.738777
-2.6675026 -3.1194415 -0.29852286 0 0 0 0 33.743725
-2.7424998 -3.1271808 -0.21549699 0 0 0 0 33.748672
-2.8174715 -3.1319289 -0.13045929 0 0 0 0 33.753616
-2.4936593 -3.1405807 -0.3836596 0 0 0 0 33.758564
-2.563612 -3.1433885 -0.29361677 0 0 0 0 33.763512
-2.6366193 -3.1521282 -0.21459597 0 0 0 0 33.768459
-2.7186494 -3.1638074 -0.13258186 0 0 0 0 33.773407
-2.3968387 -3.1734769 -0.37578425 0 0 0 0 33.778355
-2.4647613 -3.1722853 -0.28972667 0 0 0 0 33.783302
-2.5397863 -3.1829975 -0.2137125 0 0 0 0 33.788246
-2.6157529 -3.1867139 -0.13467009 0 0 0 0 33.793194
-2.2989688 -3.2003729 -0.36888465 0 0 0 0 33.798141
-2.375982 -3.2100923 -0.2868652 0 0 0 0 33.803089
-2.4479756 -3.2168214 -0.21283685 0 0 0 0 33.808037
-2.5138633 -3.2106073 -0.13676076 0 0 0 0 33.812981
-2.2050972 -3.2272317 -0.36198172 0 0 0 0 33.817928
-2.2791121 -3.236964 -0.28296393 0 0 0 0 33.822876
-2.348067 -3.2387056 -0.21191752 0 0 0 0 33.827824
-2.4270935 -3.2493706 -0.13990074 0 0 0 0 33.832771
-2.1142645 -3.2590618 -0.35509571 0 0 0 0 33.837719
-2.1842248 -3.2618148 -0.27905264 0 0 0 0 33.842663
-2.2542057 -3.2665327 -0.21201737 0 0 0 0 33.84761
-2.327153 -3.2672389 -0.14196476 0 0 0 0 33.852558
-2.0142939 -3.2739637 -0.34714732 0 0 0 0 33.857506
-2.0913441 -3.2876446 -0.27514318 0 0 0 0 33.862453
-2.1633425 -3.2943351 -0.2111145 0 0 0 0 33.867401
-2.231252 -3.2900665 -0.14504522 0 0 0 0 33.872345
-1.9305156 -3.3127203 -0.34228262 0 0 0 0 33.877293
-2.0035105 -3.3194261 -0.2722533 0 0 0 0 33.88224
-2.0704548 -3.3191454 -0.2112001 0 0 0 0 33.887188
-2.1464534 -3.3258011 -0.14816909 0 0 0 0 33.892136
-1.8355672 -3.3305688 -0.33534133 0 0 0 0 33.897079
-1.905516 -3.3312874 -0.26829034 0 0 0 0 33.902027
-1.9825974 -3.3479114 -0.21129745 0 0 0 0 33.906975
-2.0515175 -3.3446157 -0.15023154 0 0 0 0 33.911922
-1.7466741 -3.3553607 -0.32942298 0 0 0 0 33.91687
-1.8206719 -3.362036 -0.26539296 0 0 0 0 33.921818
-1.8855956 -3.3587487 -0.21032926 0 0 0 0 33.926765
-1.9585812 -3.3634062 -0.15329209 0 0 0 0 33.931709
-1.6618276 -3.3861122 -0.32452464 0 0 0 0 33.936657
-1.7317795 -3.3868084 -0.2634736 0 0 0 0 33.941605
-1.7977041 -3.3835063 -0.21040939 0 0 0 0 33.946552
-1.8737386 -3.3941283 -0.15639359 0 0 0 0 33.9515
-1.5729003 -3.4068956 -0.31858903 0 0 0 0 33.956444
-1.6428453 -3.4065845 -0.25953412 0 0 0 0 33.961391
-1.7138666 -3.4152272 -0.21051328 0 0 0 0 33.966339
-1.7817608 -3.4079025 -0.15943265 0 0 0 0 33.971287
-1.4859955 -3.4306586 -0.31266299 0 0 0 0 33.976234
-1.5579898 -3.4363167 -0.25762999 0 0 0 0 33.981178
-1.6249256 -3.433984 -0.21056907 0 0 0 0 33.986126
-1.6948686 -3.4326324 -0.16251041 0 0 0 0 33.991074
-1.4021299 -3.4593861 -0.30875349 0 0 0 0 33.996021
-1.472086 -3.4600527 -0.25570241 0 0 0 0 34.000969
-1.5410624 -3.4626935 -0.21165951 0 0 0 0 34.005917
-1.6099672 -3.4563427 -0.1655823 0 0 0 0 34.010864
-1.3172547 -3.4871209 -0.30383977 0 0 0 0 34.015808
-1.3871725 -3.4827807 -0.25276962 0 0 0 0 34.020756
-1.4571816 -3.4894025 -0.21174136 0 0 0 0 34.025703
-1.5230335 -3.4760647 -0.16863924 0 0 0 0 34.030651
-1.2333546 -3.5118437 -0.29891312 0 0 0 0 34.035599
-1.3012662 -3.5065084 -0.25084034 0 0 0 0 34.040543
-1.3681906 -3.502147 -0.21177188 0 0 0 0 34.04549
-1.4370989 -3.4957747 -0.17169483 0 0 0 0 34.050438
-1.1504999 -3.5425544 -0.29400781 0 0 0 0 34.055386
-1.2193981 -3.5351968 -0.24992687 0 0 0 0 34.060333
-1.2832615 -3.5228522 -0.21282984 0 0 0 0 34.065281
-1.3542335 -3.5244532 -0.17578202 0 0 0 0 34.070225
-1.0665901 -3.5662651 -0.29007551 0 0 0 0 34.075172
-1.134474 -3.5569086 -0.24798767 0 0 0 0 34.08012
-1.2003779 -3.5495374 -0.21390854 0 0 0 0 34.085068
-1.2702966 -3.5441399 -0.17883486 0 0 0 0 34.090015
-0.97913325 -3.5876889 -0.28400183 0 0 0 0 34.430882
-1.0500604 -3.5833192 -0.24493429 0 0 0 0 34.435829
-1.1149479 -3.5729659 -0.21384858 0 0 0 0 34.440777
-1.182835 -3.5625947 -0.18176141 0 0 0 0 34.445724
-0.89625537 -3.6173487 -0.28008127 0 0 0 0 34.450668
-0.96513981 -3.6069875 -0.24299355 0 0 0 0 34.455616
-1.0310361 -3.5976164 -0.21491095 0 0 0 0 34.460564
-1.0999322 -3.5882282 -0.18582694 0 0 0 0 34.465511
-0.81133193 -3.6410224 -0.27513954 0 0 0 0 34.470459
-0.88120401 -3.6286407 -0.24204431 0 0 0 0 34.475407
-0.94810879 -3.6202562 -0.21596487 0 0 0 0 34.480354
-1.0149847 -3.6078725 -0.18987142 0 0 0 0 34.485298
-0.72537178 -3.6596961 -0.2711798 0 0 0 0 34.490246
-0.7973029 -3.655293 -0.24011192 0 0 0 0 34.495193
-0.86419481 -3.6448989 -0.2170255 0 0 0 0 34.500141
-0.931014 -3.6245093 -0.19290403 0 0 0 0 34.505089
-0.6404323 -3.6813581 -0.26722935 0 0 0 0 34.510033
-0.71234334 -3.6739454 -0.23915099 0 0 0 0 34.51498
-0.78024358 -3.6645379 -0.21806772 0 0 0 0 34.519928
-0.85014433 -3.655113 -0.19798353 0 0 0 0 34.524876
-0.55657822 -3.7150083 -0.26331961 0 0 0 0 34.529823
-0.6274116 -3.6965938 -0.2382033 0 0 0 0 34.534771
-0.69532776 -3.6891761 -0.22012715 0 0 0 0 34.539715
-0.7662009 -3.6757386 -0.20202857 0 0 0 0 34.544662
-0.47167996 -3.7426581 -0.26038831 0 0 0 0 34.54961
-0.54457194 -3.7322228 -0.23729913 0 0 0 0 34.554558
-0.6113888 -3.7108071 -0.22117472 0 0 0 0 34.559505
-0.68125641 -3.696367 -0.20607334 0 0 0 0 34.564453
-0.38373706 -3.764329 -0.25643674 0 0 0 0 34.569397
-0.45864487 -3.7558696 -0.23635361 0 0 0 0 34.574345
-0.52647787 -3.7364371 -0.22323588 0 0 0 0 34.579292
-0.59836847 -3.7249732 -0.21114407 0 0 0 0 34.58424
-0.29783583 -3.791981 -0.25250408 0 0 0 0 34.589188
-0.37168825 -3.7755198 -0.23539385 0 0 0 0 34.594131
-0.44054431 -3.7590706 -0.22528623 0 0 0 0 34.599079
-0.51139396 -3.7416048 -0.2161743 0 0 0 0 34.604027
-0.21091197 -3.8166358 -0.24856062 0 0 0 0 34.608974
-0.2858091 -3.8061547 -0.23547079 0 0 0 0 34.613922
-0.35562384 -3.7836928 -0.22734214 0 0 0 0 34.61887
-0.42643929 -3.7612212 -0.22021319 0 0 0 0 34.623817
-0.12103 -3.8473041 -0.24563842 0 0 0 0 34.628761
-0.19783621 -3.8238034 -0.23450294 0 0 0 0 34.633709
-0.26766694 -3.8033323 -0.22938147 0 0 0 0 34.638657
-0.34156936 -3.7928264 -0.22629252 0 0 0 0 34.643604
-0.032174699 -3.8819611 -0.24272838 0 0 0 0 34.648552
-0.1099968 -3.8604438 -0.23459955 0 0 0 0 34.653496
-0.18081513 -3.8379567 -0.23247091 0 0 0 0 34.658443
-0.2545985 -3.8104489 -0.23032387 0 0 0 0 34.663391
0.056745503 -3.9076135 -0.23978643 0 0 0 0 34.668339
-0.021113496 -3.8910873 -0.23467493 0 0 0 0 34.673286
-0.092869975 -3.8595877 -0.23451534 0 0 0 0 34.67823
-0.16565578 -3.8320746 -0.23636913 0 0 0 0 34.683178
0.14963181 -3.9382896 -0.23686258 0 0 0 0 34.688126
0.069841675 -3.9117441 -0.23371622 0 0 0 0 34.693073
-0.0029732208 -3.8882246 -0.23758371 0 0 0 0 34.698021
-0.076809809 -3.8676956 -0.24246113 0 0 0 0 34.702969
0.24258941 -3.9589615 -0.23390366 0 0 0 0 34.707916
0.16268528 -3.9484031 -0.23481196 0 0 0 0 34.71286
0.087917916 -3.9178646 -0.24065499 0 0 0 0 34.717808
0.011114502 -3.8923059 -0.24851421 0 0 0 0 34.722755
0.33850667 -3.9856527 -0.22996575 0 0 0 0 34.727703
0.25568452 -3.9630654 -0.23383209 0 0 0 0 34.732651
0.17985216 -3.9415071 -0.24370545 0 0 0 0 34.737595
0.1030959 -3.9089434 -0.25354135 0 0 0 0 34.742542
0.43534794 -4.0233393 -0.22806442 0 0 0 0 34.74749
0.35060081 -3.9897332 -0.23389296 0 0 0 0 34.752438
0.2737875 -3.9651592 -0.24675596 0 0 0 0 34.757385
0.19594581 -3.944576 -0.26063216 0 0 0 0 34.762329
0.5332675 -4.0500317 -0.22512536 0 0 0 0 34.767281
0.44844881 -4.026413 -0.23498791 0 0 0 0 34.772224
0.36864766 -3.99981 -0.25084299 0 0 0 0 34.777172
0.28794312 -3.9592049 -0.2656509 0 0 0 0 34.78212
0.63127142 -4.064723 -0.22114514 0 0 0 0 34.787067
0.54541606 -4.0460854 -0.23502424 0 0 0 0 34.792015
0.46461299 -4.0194669 -0.25387919 0 0 0 0 34.796959
0.38383025 -3.98985 -0.27272436 0 0 0 0 34.801907
0.73510343 -4.1044431 -0.21925054 0 0 0 0 34.806854
0.64435673 -4.069767 -0.23507409 0 0 0 0 34.811802
0.5635587 -4.04214 -0.25692603 0 0 0 0 34.81675
0.48072574 -4.0194969 -0.27979389 0 0 0 0 34.821693
0.83901298 -4.1331615 -0.21631806 0 0 0 0 34.826641
0.74725705 -4.0994673 -0.23614486 0 0 0 0 34.831589
0.66447091 -4.0698185 -0.26098952 0 0 0 0 34.836536
0.57969761 -4.0381541 -0.28682685 0 0 0 0 34.841484
0.94690305 -4.1648993 -0.21439636 0 0 0 0 34.846432
0.85315198 -4.1301832 -0.2372193 0 0 0 0 34.851379
0.767398 -4.0955052 -0.26504636 0 0 0 0 34.856323
0.67967719 -4.0558128 -0.29385617 0 0 0 0 34.861271
1.0567678 -4.2006483 -0.2114877 0 0 0 0 34.866219
0.95908219 -4.1558933 -0.23827614 0 0 0 0 34.871166
0.87132633 -4.1211944 -0.26910263 0 0 0 0 34.876114
0.78356904 -4.0864902 -0.30192944 0 0 0 0 34.881058
1.1687014 -4.2264023 -0.20954584 0 0 0 0 34.886005
1.0670002 -4.1836128 -0.23933952 0 0 0 0 34.890953
0.98020124 -4.1549091 -0.27418661 0 0 0 0 34.895901
0.88848948 -4.1131701 -0.30998895 0 0 0 0 34.900848
1.282299 -4.2593522 -0.20758681 0 0 0 0 34.664383
1.1805503 -4.2245131 -0.24239989 0 0 0 0 34.669331
1.0898137 -4.1877422 -0.28021187 0 0 0 0 34.674278
0.99513936 -4.1419415 -0.31899148 0 0 0 0 34.679222
1.4011645 -4.2941771 -0.2056832 0 0 0 0 34.68417
1.2974069 -4.2603159 -0.24349913 0 0 0 0 34.689117
1.2017448 -4.2124991 -0.28527161 0 0 0 0 34.694065
1.1070118 -4.1746864 -0.32807899 0 0 0 0 34.699013
1.5230176 -4.3310175 -0.20378661 0 0 0 0 34.703957
1.4153274 -4.2871175 -0.24556701 0 0 0 0 34.708904
1.3195864 -4.2502918 -0.29037741 0 0 0 0 34.713852
1.2189629 -4.1964302 -0.33612803 0 0 0 0 34.7188
1.6459496 -4.3568625 -0.20085193 0 0 0 0 34.723747
1.5421379 -4.3299747 -0.24769239 0 0 0 0 34.728691
1.4385127 -4.276083 -0.29644176 0 0 0 0 34.733643
1.3348938 -4.2211928 -0.34518823 0 0 0 0 34.738586
0.75240129 -1.8609464 -0.087919988 0 0 0 0 34.743534
1.6621312 -4.3467822 -0.24872519 0 0 0 0 34.748482
1.5614125 -4.3058963 -0.30252057 0 0 0 0 34.753429
1.4567349 -4.2589846 -0.3562941 0 0 0 0 34.758377
0.77292728 -1.792097 -0.083648749 0 0 0 0 34.763321
0.75358176 -1.8418759 -0.10979532 0 0 0 0 34.768269
0.73035383 -1.8746247 -0.13688257 0 0 0 0 34.773216
1.5816126 -4.2917943 -0.36638334 0 0 0 0 34.778164
0.79045671 -1.7222258 -0.079374276 0 0 0 0 34.783112
0.77804261 -1.7820499 -0.10655738 0 0 0 0 34.788055
0.76269716 -1.8318473 -0.13570519 0 0 0 0 34.793003
0.74630922 -1.8876246 -0.16887227 0 0 0 0 34.797951
0.80990046 -1.6643671 -0.075142466 0 0 0 0 34.802898
0.79556251 -1.7131749 -0.10328735 0 0 0 0 34.807846
0.78123158 -1.7609799 -0.13242862 0 0 0 0 34.812794
0.76884407 -1.8167819 -0.16659719 0 0 0 0 34.817741
0.82834089 -1.6064972 -0.071911491 0 0 0 0 34.822685
0.81501067 -1.6543124 -0.10005314 0 0 0 0 34.827633
0.80664533 -1.707152 -0.13121352 0 0 0 0 34.832581
0.79130727 -1.7559377 -0.16435692 0 0 0 0 34.837528
0.84575129 -1.5526192 -0.068694614 0 0 0 0 34.842476
0.83145595 -1.5954285 -0.096818827 0 0 0 0 34.84742
0.82609111 -1.6482856 -0.12898019 0 0 0 0 34.852367
0.81179464 -1.691079 -0.16210385 0 0 0 0 34.857315
0.8572135 -1.4907 -0.065449663 0 0 0 0 34.862263
0.8518436 -1.5445672 -0.094614178 0 0 0 0 34.86721
0.83958888 -1.5813812 -0.12571895 0 0 0 0 34.872154
0.82827902 -1.626192 -0.15985034 0 0 0 0 34.877102
0.86566651 -1.429763 -0.061208028 0 0 0 0 34.88205
0.85935128 -1.4756209 -0.091345295 0 0 0 0 34.886997
0.85600179 -1.5264925 -0.12350013 0 0 0 0 34.891945
2.4996946 -4.3885856 -0.43955898 0 0 0 0 34.916679
2.7407846 -3.5480263 -0.13067853 0 0 0 0 34.980991
2.7290747 -3.6516373 -0.22399051 0 0 0 0 34.985939
2.59514 -3.2060437 -0.11743892 0 0 0 0 35.000778
2.6100538 -3.080111 -0.11097293 0 0 0 0 35.020565
3.4759185 -2.4830337 -0.078545578 0 0 0 0 34.986156
3.4976566 -2.3811159 -0.075166047 0 0 0 0 35.005943
3.513195 -2.4448166 -0.19536352 0 0 0 0 35.010891
3.5352974 -2.2933018 -0.071841151 0 0 0 0 35.025734
3.5488696 -2.3519869 -0.19302116 0 0 0 0 35.030678
3.554534 -2.3966141 -0.3161523 0 0 0 0 35.035625
3.5679603 -2.2014532 -0.068503164 0 0 0 0 35.045521
3.574579 -2.2530904 -0.19065712 0 0 0 0 35.050468
3.5802636 -2.2947187 -0.31377846 0 0 0 0 35.055412
3.6005986 -2.1125998 -0.066176794 0 0 0 0 35.065308
3.6172111 -2.1653001 -0.18933815 0 0 0 0 35.070255
3.5233066 -2.1443005 -0.30521646 0 0 0 0 35.075203
3.1057231 -1.9223019 -0.38431484 0 0 0 0 35.080151
3.6372199 -2.025774 -0.062860608 0 0 0 0 35.085098
3.6518583 -2.074456 -0.18800797 0 0 0 0 35.090042
3.4314349 -1.9796638 -0.29459801 0 0 0 0 35.09499
3.0466561 -1.7868905 -0.37380704 0 0 0 0 35.099937
3.6658626 -1.9348912 -0.060530104 0 0 0 0 35.104885
3.6755342 -1.9785386 -0.18665905 0 0 0 0 35.109833
3.3494637 -1.8290927 -0.28503251 0 0 0 0 35.114777
2.9696093 -1.6473716 -0.36128193 0 0 0 0 35.119724
3.700475 -1.8480457 -0.058216982 0 0 0 0 35.124672
3.696219 -1.880604 -0.18430471 0 0 0 0 35.12962
3.26844 -1.6855315 -0.27549329 0 0 0 0 35.134567
2.9194119 -1.5300173 -0.35284165 0 0 0 0 35.139511
3.7350767 -1.7621984 -0.055908944 0 0 0 0 35.144463
3.622179 -1.7390672 -0.1787751 0 0 0 0 35.149406
3.1893451 -1.5519866 -0.26599002 0 0 0 0 35.154354
2.8721757 -1.4176811 -0.34542131 0 0 0 0 35.159302
3.7646809 -1.6753174 -0.053597473 0 0 0 0 35.164249
3.5291398 -1.596418 -0.17123747 0 0 0 0 35.169197
3.1171849 -1.4274837 -0.25852141 0 0 0 0 35.174141
2.8139288 -1.3062826 -0.33600205 0 0 0 0 35.179089
3.7902937 -1.5864093 -0.05127997 0 0 0 0 35.184036
3.4400351 -1.4627925 -0.16573334 0 0 0 0 35.188984
3.055948 -1.3140541 -0.25109509 0 0 0 0 35.193932
2.7666121 -1.2049507 -0.32862157 0 0 0 0 35.198875
3.8089149 -1.4954555 -0.04895518 0 0 0 0 35.203823
3.3628602 -1.3392472 -0.16026904 0 0 0 0 35.208771
3.0066411 -1.2106972 -0.24570797 0 0 0 0 35.213718
2.7252512 -1.1096557 -0.32226485 0 0 0 0 35.218666
3.7417305 -1.3729554 -0.046498559 0 0 0 0 35.223614
3.3025963 -1.2288129 -0.15485559 0 0 0 0 35.228561
2.9503231 -1.1083012 -0.23932348 0 0 0 0 35.233505
2.6798675 -1.0173403 -0.31491804 0 0 0 0 35.238453
3.653553 -1.2483257 -0.044029661 0 0 0 0 35.243401
3.2283335 -1.11729 -0.15043573 0 0 0 0 35.248348
2.9089425 -1.0149962 -0.23497587 0 0 0 0 35.253296
2.6324661 -0.92701113 -0.30857888 0 0 0 0 35.25824
3.5753069 -1.1337662 -0.040599093 0 0 0 0 35.263187
3.1699955 -1.0168711 -0.14605951 0 0 0 0 35.268135
2.8595452 -0.92364568 -0.22963324 0 0 0 0 35.273083
2.5820358 -0.84066814 -0.30125293 0 0 0 0 35.27803
3.4451246 -1.007881 -0.038115136 0 0 0 0 35.282974
3.1146207 -0.92147046 -0.14270246 0 0 0 0 35.287922
2.8181117 -0.83734435 -0.22531171 0 0 0 0 35.29287
2.5435624 -0.76039642 -0.29595271 0 0 0 0 35.297817
3.0622165 -0.83009106 -0.13936132 0 0 0 0 35.307713
2.7716553 -0.75401372 -0.22099927 0 0 0 0 35.31266
2.5010672 -0.68310434 -0.28966188 0 0 0 0 35.317604
3.0167828 -0.74275756 -0.13603772 0 0 0 0 35.327499
2.7241828 -0.67268205 -0.21569464 0 0 0 0 35.332447
2.4685361 -0.61087018 -0.28539249 0 0 0 0 35.337395
2.9563324 -0.65733325 -0.13271588 0 0 0 0 35.347286
2.6736875 -0.59433079 -0.21139984 0 0 0 0 35.352234
2.4389827 -0.54165596 -0.28113529 0 0 0 0 35.357182
2.9109416 -0.57766533 -0.13019212 0 0 0 0 35.488163
2.628263 -0.51872432 -0.20689698 0 0 0 0 35.493111
2.4075015 -0.4741801 -0.27666935 0 0 0 0 35.498058
2.8614285 -0.49932083 -0.12690663 0 0 0 0 35.50795
2.5907001 -0.44845966 -0.20364125 0 0 0 0 35.512897
2.819881 -0.42602348 -0.12464102 0 0 0 0 35.52774
2.784312 -0.35576376 -0.1223885 0 0 0 0 35.547527
2.7267401 -0.2853753 -0.12012869 0 0 0 0 35.567314
2.6861408 -0.21908982 -0.11788922 0 0 0 0 35.587105
2.644526 -0.15479749 -0.11665677 0 0 0 0 35.606892
2.5968971 -0.092474811 -0.11442927 0 0 0 0 35.626678
2.8341999 -0.048075922 -0.025372436 0 0 0 0 35.641521
2.5612528 -0.032221481 -0.11321394 0 0 0 0 35.646469
2.784565 0.014267742 -0.025146509 0 0 0 0 35.661308
2.5255888 0.025027383 -0.11100865 0 0 0 0 35.666256
2.7409151 0.074574314 -0.024930285 0 0 0 0 35.681095
2.4969151 0.08123973 -0.11081047 0 0 0 0 35.686043
2.7002566 0.1338615 -0.024719663 0 0 0 0 35.700882
2.4602337 0.13649121 -0.10861333 0 0 0 0 35.705833
2.6495779 0.19020422 -0.024514962 0 0 0 0 35.720673
2.4275434 0.1907236 -0.10842202 0 0 0 0 35.72562
2.608891 0.2454873 -0.024318542 0 0 0 0 35.740459
2.3858397 0.2430003 -0.1062341 0 0 0 0 35.745407
2.5732007 0.30074275 -0.025125567 0 0 0 0 35.760246
2.3631322 0.29517251 -0.10605509 0 0 0 0 35.765194
2.531497 0.35402775 -0.024937177 0 0 0 0 35.780037
2.3244061 0.34443155 -0.10487934 0 0 0 0 35.784985
2.4987791 0.40525997 -0.024759214 0 0 0 0 35.799824
2.2966828 0.39462945 -0.10470649 0 0 0 0 35.804771
2.4660585 0.45649332 -0.025582595 0 0 0 0 35.819611
2.2419188 0.43797225 -0.10254349 0 0 0 0 35.824558
1.8887079 0.4102931 -0.22147541 0 0 0 0 35.834454
2.4203136 0.50379521 -0.025413124 0 0 0 0 35.839401
2.2111685 0.48418367 -0.10238288 0 0 0 0 35.844345
2.0350564 0.46934417 -0.16435198 0 0 0 0 35.849297
1.8759466 0.45439112 -0.22032776 0 0 0 0 35.85424
2.3925827 0.55399722 -0.0262438 0 0 0 0 35.859188
2.1834157 0.53037691 -0.10222464 0 0 0 0 35.864136
2.0072877 0.51252955 -0.16320214 0 0 0 0 35.869083
1.8481617 0.49456921 -0.21818621 0 0 0 0 35.874031
2.3518269 0.60027009 -0.027081538 0 0 0 0 35.878975
2.1546609 0.57657164 -0.10106724 0 0 0 0 35.883923
1.9795166 0.55571371 -0.16205341 0 0 0 0 35.88887
1.8263855 0.53671551 -0.21704268 0 0 0 0 35.893818
2.3160691 0.64651334 -0.027922437 0 0 0 0 35.898766
2.124893 0.62077332 -0.10091601 0 0 0 0 35.903709
1.9507326 0.59690201 -0.16091077 0 0 0 0 35.908657
1.8056016 0.57785529 -0.21590327 0 0 0 0 35.913605
2.2793038 0.69175762 -0.027766865 0 0 0 0 35.918552
2.0921171 0.66398996 -0.10076745 0 0 0 0 35.9235
1.9239466 0.63807803 -0.15976998 0 0 0 0 35.928448
1.7767998 0.61603528 -0.21376987 0 0 0 0 35.933395
2.252547 0.73894811 -0.028610988 0 0 0 0 35.938339
2.0673444 0.70816135 -0.10062043 0 0 0 0 35.943287
1.8951585 0.67926371 -0.15862952 0 0 0 0 35.948235
1.7550066 0.65617841 -0.21263483 0 0 0 0 35.953182
2.2013435 0.77820349 -0.028994929 0 0 0 0 36.433506
2.0251632 0.74723655 -0.10000648 0 0 0 0 36.438454
1.877021 0.72310036 -0.15801091 0 0 0 0 36.443401
1.7288617 0.69494814 -0.21002473 0 0 0 0 36.448349
2.1825645 0.82733607 -0.029854158 0 0 0 0 36.453297
2.0023608 0.791381 -0.09987618 0 0 0 0 36.458244
1.8451909 0.7612794 -0.15589176 0 0 0 0 36.463188
1.7150505 0.7370404 -0.20990223 0 0 0 0 36.468136
2.1387303 0.86558849 -0.030732023 0 0 0 0 36.473083
1.9765515 0.83453888 -0.099748358 0 0 0 0 36.478031
1.8143536 0.7984544 -0.15477629 0 0 0 0 36.482979
1.6902233 0.77618265 -0.20878416 0 0 0 0 36.487923
2.108918 0.90877151 -0.031603958 0 0 0 0 36.49287
1.9447211 0.87372428 -0.099628955 0 0 0 0 36.497818
1.7945381 0.8405776 -0.15465386 0 0 0 0 36.502766
1.664385 0.81332618 -0.20667139 0 0 0 0 36.507713
2.0720847 0.94798648 -0.032483976 0 0 0 0 36.512657
1.9138935 0.91390336 -0.099508628 0 0 0 0 36.517609
1.7656968 0.87774271 -0.15454109 0 0 0 0 36.522552
1.6395397 0.84946597 -0.20556225 0 0 0 0 36.5275
2.0412631 0.99017346 -0.034360126 0 0 0 0 36.532448
1.8880682 0.95505953 -0.1003887 0 0 0 0 36.537395
1.7428682 0.91787565 -0.1534244 0 0 0 0 36.542343
1.622716 0.89056903 -0.20544522 0 0 0 0 36.547287
2.0094357 1.0313613 -0.035239361 0 0 0 0 36.552235
1.8592367 0.99522632 -0.10027117 0 0 0 0 36.557182
1.7140234 0.95503813 -0.15331362 0 0 0 0 36.56213
1.5968719 0.92771143 -0.20433541 0 0 0 0 36.567078
1.9906336 1.0784866 -0.036110241 0 0 0 0 36.572021
1.8303938 1.0333917 -0.10015923 0 0 0 0 36.576969
1.6911906 0.99517107 -0.15319899 0 0 0 0 36.581917
1.5700169 0.9628551 -0.20223081 0 0 0 0 36.586864
1.9457595 1.1107347 -0.038007896 0 0 0 0 36.591812
1.7965351 1.0685791 -0.10005349 0 0 0 0 36.596756
1.6663468 1.0333099 -0.15208925 0 0 0 0 36.601707
1.5461692 0.99998564 -0.2011236 0 0 0 0 36.606651
1.9129164 1.1499226 -0.038894568 0 0 0 0 36.611599
1.7707022 1.1097299 -0.10093777 0 0 0 0 36.616547
1.6394963 1.0704594 -0.15198213 0 0 0 0 36.621494
1.5223193 1.0371175 -0.20101735 0 0 0 0 36.626442
1.8870897 1.1930786 -0.040775567 0 0 0 0 36.631386
1.7448627 1.1498793 -0.10182538 0 0 0 0 36.636333
1.6106441 1.1076164 -0.15187536 0 0 0 0 36.641281
1.4944545 1.0712621 -0.19891751 0 0 0 0 36.646229
1.8532337 1.230268 -0.041668519 0 0 0 0 36.651176
1.7109987 1.1850623 -0.10172263 0 0 0 0 36.65612
1.5847901 1.1447586 -0.15177053 0 0 0 0 36.661068
1.4716012 1.1083868 -0.1988135 0 0 0 0 36.666016
1.8113528 1.2624925 -0.042571042 0 0 0 0 36.670963
1.680137 1.2212318 -0.10261957 0 0 0 0 36.675911
1.5569301 1.1809062 -0.15066826 0 0 0 0 36.680859
1.4527642 1.1494921 -0.1987029 0 0 0 0 36.685806
1.7825066 1.3026578 -0.044460926 0 0 0 0 36.69075
1.6532923 1.2613797 -0.10250995 0 0 0 0 36.695698
1.5310769 1.2190459 -0.1505632 0 0 0 0 36.700645
1.4269075 1.1866263 -0.19759995 0 0 0 0 36.705593
1.7506495 1.3408353 -0.046355322 0 0 0 0 36.710541
1.6244363 1.2995373 -0.10340513 0 0 0 0 36.715485
1.502213 1.2551975 -0.15046258 0 0 0 0 36.720432
1.3960265 1.2187817 -0.19650736 0 0 0 0 36.72538
1.7137723 1.3750337 -0.048257913 0 0 0 0 36.730328
1.5905604 1.3337163 -0.10430848 0 0 0 0 36.735275
1.4733429 1.2903482 -0.1503651 0 0 0 0 36.740219
1.3711663 1.2559086 -0.19540663 0 0 0 0 36.745171
1.678903 1.4112194 -0.049157746 0 0 0 0 36.750114
1.5606961 1.3708754 -0.10520752 0 0 0 0 36.755062
1.447484 1.3284858 -0.151263 0 0 0 0 36.76001
1.348313 1.2950277 -0.19530319 0 0 0 0 36.764957
1.6550626 1.4543561 -0.051046841 0 0 0 0 36.769905
1.5318347 1.4090286 -0.10610571 0 0 0 0 36.774849
1.4186192 1.3656335 -0.15116315 0 0 0 0 36.779797
1.3234532 1.3331546 -0.19520231 0 0 0 0 36.784744
1.6161671 1.4855584 -0.052958202 0 0 0 0 36.789692
1.5059847 1.4501673 -0.1069994 0 0 0 0 36.79464
1.3877394 1.3997887 -0.15107009 0 0 0 0 36.799583
1.2955828 1.3692935 -0.19510578 0 0 0 0 36.804531
1.5833008 1.5237322 -0.054857366 0 0 0 0 36.809479
1.470093 1.4823487 -0.10791031 0 0 0 0 36.814426
1.3679059 1.444896 -0.15195793 0 0 0 0 36.819374
1.2727326 1.410409 -0.19500113 0 0 0 0 36.824322
1.5514327 1.5618999 -0.05675786 0 0 0 0 36.829269
1.4392262 1.5205065 -0.10881094 0 0 0 0 36.834213
1.3430616 1.4880244 -0.15284963 0 0 0 0 36.839161
1.2408459 1.4435607 -0.19391172 0 0 0 0 36.844109
1.5205714 1.6020638 -0.059655469 0 0 0 0 36.849056
1.4113704 1.5616496 -0.10970718 0 0 0 0 36.854004
1.3151981 1.5271623 -0.15274999 0 0 0 0 36.858948
1.2200134 1.4896672 -0.19479926 0 0 0 0 36.863895
1.4886994 1.6402285 -0.061558042 0 0 0 0 36.868843
1.3825082 1.6017977 -0.11160628 0 0 0 0 36.873791
1.2813066 1.5603249 -0.15266211 0 0 0 0 36.878738
1.1891316 1.5248117 -0.19370793 0 0 0 0 36.883682
1.4548258 1.6784002 -0.063461065 0 0 0 0 36.88863
1.3506355 1.6399553 -0.11250975 0 0 0 0 36.893578
1.2564694 1.6064491 -0.15355085 0 0 0 0 36.898525
1.1612651 1.5639441 -0.19361016 0 0 0 0 36.903473
1.4153898 1.7093613 -0.065464914 0 0 0 0 36.669968
1.3232428 1.6828955 -0.114494 0 0 0 0 36.674911
1.2250351 1.642436 -0.15455201 0 0 0 0 36.679859
1.138864 1.6099203 -0.19459599 0 0 0 0 36.684807
1.3885645 1.7565098 -0.068346068 0 0 0 0 36.689754
1.2853503 1.7150869 -0.11540467 0 0 0 0 36.694702
1.1941754 1.6815902 -0.15444931 0 0 0 0 36.699646
1.1080096 1.6500717 -0.194491 0 0 0 0 36.704597
1.3547006 1.7956887 -0.071243778 0 0 0 0 36.709541
1.2544969 1.7562445 -0.11629877 0 0 0 0 36.714489
1.1623136 1.7207496 -0.15534736 0 0 0 0 36.719437
1.0771532 1.6902217 -0.19438708 0 0 0 0 36.724384
1.3158081 1.8288864 -0.073154062 0 0 0 0 36.729332
1.2246637 1.8023983 -0.11818341 0 0 0 0 36.734276
1.1334769 1.7658938 -0.15623437 0 0 0 0 36.739223
1.0422637 1.7233859 -0.19329818 0 0 0 0 36.744171
1.2809452 1.8690662 -0.076051377 0 0 0 0 36.749119
1.1817392 1.8286068 -0.11910849 0 0 0 0 36.754066
1.0986022 1.8030635 -0.15713799 0 0 0 0 36.75901
1.01443 1.7695215 -0.19418432 0 0 0 0 36.763958
1.2460847 1.9102443 -0.078947619 0 0 0 0 36.768906
1.1519063 1.8757596 -0.1219932 0 0 0 0 36.773853
1.0607039 1.835243 -0.15705244 0 0 0 0 36.778801
0.97855049 1.8056871 -0.19309066 0 0 0 0 36.783749
1.2092134 1.9494296 -0.081848651 0 0 0 0 36.788696
1.1200669 1.9219174 -0.12388068 0 0 0 0 36.79364
1.0339006 1.8893758 -0.15892419 0 0 0 0 36.798588
0.95275205 1.8608128 -0.19496056 0 0 0 0 36.803535
1.1743622 1.9936042 -0.084740721 0 0 0 0 36.808483
1.0852121 1.9650869 -0.12577485 0 0 0 0 36.813431
1.0010599 1.9355316 -0.1598125 0 0 0 0 36.818375
0.91992062 1.9089661 -0.19584459 0 0 0 0 36.823322
1.1415262 2.0417702 -0.088626117 0 0 0 0 36.82827
1.0453289 2.0022767 -0.12768137 0 0 0 0 36.833218
0.96319067 1.9757078 -0.16071321 0 0 0 0 36.838165
0.88709146 1.9581156 -0.19572781 0 0 0 0 36.843109
1.0986184 2.0739763 -0.091543466 0 0 0 0 36.848061
1.0104831 2.0484426 -0.1295715 0 0 0 0 36.853004
0.92834538 2.0218711 -0.16260333 0 0 0 0 36.857952
0.85123795 2.0022786 -0.19662189 0 0 0 0 36.8629
1.058748 2.1151671 -0.094443806 0 0 0 0 36.867847
0.96960068 2.086633 -0.1314778 0 0 0 0 36.872795
0.88745922 2.0590565 -0.16351169 0 0 0 0 36.877739
0.8123697 2.0434508 -0.19652255 0 0 0 0 36.882687
1.0188842 2.1583581 -0.09834113 0 0 0 0 36.887634
0.93275899 2.1348057 -0.1343656 0 0 0 0 36.892582
0.85264409 2.1132164 -0.16538762 0 0 0 0 36.89753
0.77352089 2.0896211 -0.19641398 0 0 0 0 36.902473
0.97599703 2.1965578 -0.10124909 0 0 0 0 36.907421
0.89391077 2.1819856 -0.13725615 0 0 0 0 36.912369
0.81480926 2.1633871 -0.16727231 0 0 0 0 36.917316
0.73770767 2.1447809 -0.19828901 0 0 0 0 36.922264
0.93513328 2.2407489 -0.10514636 0 0 0 0 36.927208
0.85204774 2.2261741 -0.13915327 0 0 0 0 36.932159
0.77698475 2.2165558 -0.16915222 0 0 0 0 36.937103
0.69585848 2.1919601 -0.19818014 0 0 0 0 36.942051
0.89529717 2.2919333 -0.10903085 0 0 0 0 36.946999
0.81120354 2.2753582 -0.1420417 0 0 0 0 36.951946
0.73413688 2.2647421 -0.17004229 0 0 0 0 36.956894
0.65807819 2.2561247 -0.20003912 0 0 0 0 36.961838
0.8494122 2.3321414 -0.11293732 0 0 0 0 36.966785
0.7693612 2.3255446 -0.14492913 0 0 0 0 36.971733
0.69231558 2.3199258 -0.17291979 0 0 0 0 36.976681
0.61524898 2.3093061 -0.2009206 0 0 0 0 36.981628
0.80454189 2.3763452 -0.11783714 0 0 0 0 36.986572
0.72147876 2.3667543 -0.14783436 0 0 0 0 36.99152
0.64645869 2.3671205 -0.17381373 0 0 0 0 36.996468
0.57143778 2.3674917 -0.20279318 0 0 0 0 37.001415
0.7576738 2.4215524 -0.12173561 0 0 0 0 37.006363
0.68171471 2.4369297 -0.15168491 0 0 0 0 37.011311
0.60062003 2.4193146 -0.17569898 0 0 0 0 37.016258
0.52564061 2.4296813 -0.20365877 0 0 0 0 37.021202
0.70980358 2.4667618 -0.12563506 0 0 0 0 37.02615
0.63182765 2.4781427 -0.15459225 0 0 0 0 37.031097
0.5578692 2.4934981 -0.17954275 0 0 0 0 37.036045
0.47884026 2.4918749 -0.20552574 0 0 0 0 37.040993
0.66195154 2.5169706 -0.13052584 0 0 0 0 37.045937
0.5860368 2.5433407 -0.15945436 0 0 0 0 37.050884
0.50600451 2.5407124 -0.1814393 0 0 0 0 37.055832
0.4290615 2.5600784 -0.20738173 0 0 0 0 37.06078
0.61412132 2.573179 -0.13640618 0 0 0 0 37.065727
0.53315747 2.5875611 -0.16235758 0 0 0 0 37.070671
0.45722306 2.6089139 -0.18429676 0 0 0 0 37.075623
0.37727541 2.6272876 -0.20924091 0 0 0 0 37.080566
0.56125218 2.6204033 -0.14130431 0 0 0 0 37.085514
0.48032051 2.6427808 -0.16624054 0 0 0 0 37.090462
0.40238959 2.6651373 -0.18717781 0 0 0 0 37.095409
0.32247823 2.6925046 -0.21010499 0 0 0 0 37.100357
0.50738883 2.6696291 -0.1461996 0 0 0 0 37.105301
0.42751318 2.7059979 -0.1701095 0 0 0 0 37.110249
0.34758979 2.7303581 -0.19004296 0 0 0 0 37.115196
0.26570559 2.7647307 -0.21295674 0 0 0 0 37.120144
0.45355904 2.727854 -0.15207884 0 0 0 0 37.125092
0.36967075 2.7612324 -0.17399424 0 0 0 0 37.130035
0.28878281 2.7945919 -0.19291073 0 0 0 0 37.134983
0.20490201 2.8299663 -0.21382283 0 0 0 0 37.139931
0.39649275 2.7791696 -0.15788092 0 0 0 0 36.901882
0.31263882 2.8185713 -0.17877792 0 0 0 0 36.90683
0.229811 2.8639615 -0.19666313 0 0 0 0 36.911777
0.14405029 2.9253695 -0.21751486 0 0 0 0 36.916725
0.33973005 2.8504202 -0.16472591 0 0 0 0 36.921669
0.25189215 2.8938344 -0.18461441 0 0 0 0 36.926617
0.16707617 2.9422264 -0.20049384 0 0 0 0 36.931564
0.077352136 3.0126464 -0.22032715 0 0 0 0 36.936512
0.27685797 2.896692 -0.17062223 0 0 0 0 36.94146
0.18909125 2.9571011 -0.18947685 0 0 0 0 36.946404
0.10135453 3.0245008 -0.20431764 0 0 0 0 36.951351
0.0086244149 3.0939288 -0.22315343 0 0 0 0 36.956299
0.21303841 2.9559667 -0.17749317 0 0 0 0 36.961246
0.12236719 3.0393834 -0.19530134 0 0 0 0 36.966194
