# .PCD v0.7 - Point Cloud Data file format
VERSION 0.7
FIELDS x y z normal_x normal_y normal_z intensity curvature
SIZE 4 4 4 4 4 4 4 4
TYPE F F F F F F F F
COUNT 1 1 1 1 1 1 1 1
WIDTH 937
HEIGHT 1
VIEWPOINT 0 0 0 1 0 0 0
POINTS 937
DATA ascii
-4.8436942 -5.3478756 -0.73624742 0 0 0 0 56.293793
-4.9672937 -5.3586659 -0.5443843 0 0 0 0 56.298744
-5.0868082 -5.3644609 -0.37250513 0 0 0 0 56.303688
-5.2221332 -5.3815727 -0.19572999 0 0 0 0 56.308632
-4.5990973 -5.3306737 -0.70895863 0 0 0 0 56.313583
-4.7118583 -5.3302674 -0.52504045 0 0 0 0 56.318527
-4.831255 -5.3380966 -0.36115235 0 0 0 0 56.323479
-4.9644952 -5.355206 -0.1933583 0 0 0 0 56.328423
-4.3577561 -5.3015265 -0.68174797 0 0 0 0 56.333374
-4.4723253 -5.306201 -0.50682628 0 0 0 0 56.338318
-4.5886474 -5.3140016 -0.35090962 0 0 0 0 56.343262
-4.7169199 -5.3260407 -0.19109072 0 0 0 0 56.348213
-4.1166096 -5.2633691 -0.6545732 0 0 0 0 56.353157
-4.2398682 -5.2782779 -0.48969239 0 0 0 0 56.358109
-4.3609419 -5.2942185 -0.34178743 0 0 0 0 56.363052
-4.4832263 -5.3021665 -0.18992947 0 0 0 0 56.367996
-3.8990996 -5.2407269 -0.63155538 0 0 0 0 56.372948
-4.0154009 -5.2505183 -0.47363037 0 0 0 0 56.377892
-4.124763 -5.2502332 -0.33168355 0 0 0 0 56.382843
-4.2498417 -5.2642789 -0.18782727 0 0 0 0 56.387787
-3.6925883 -5.2183094 -0.60863858 0 0 0 0 56.392738
-3.8019962 -5.2199841 -0.45768321 0 0 0 0 56.397682
-3.915046 -5.2308168 -0.32372475 0 0 0 0 56.402626
-4.0351977 -5.2387843 -0.18584824 0 0 0 0 56.407578
-3.4920363 -5.1970186 -0.58777058 0 0 0 0 56.412521
-3.6082046 -5.2068725 -0.44384623 0 0 0 0 56.417473
-3.7201879 -5.2177157 -0.31687844 0 0 0 0 56.422417
-3.8353269 -5.2236037 -0.18496335 0 0 0 0 56.427361
-3.3063216 -5.1830425 -0.56801069 0 0 0 0 56.432312
-3.4174464 -5.1918206 -0.43104312 0 0 0 0 56.437256
-3.5284469 -5.199666 -0.3090798 0 0 0 0 56.442207
-3.6454015 -5.2106314 -0.18516137 0 0 0 0 56.447151
-3.1208014 -5.160059 -0.54828817 0 0 0 0 56.452095
-3.226042 -5.1607375 -0.41729969 0 0 0 0 56.457047
-3.3358903 -5.1725917 -0.30230871 0 0 0 0 56.46199
-3.4508741 -5.1795425 -0.18438973 0 0 0 0 56.466942
-2.9364324 -5.1300898 -0.52860349 0 0 0 0 56.471886
-3.0493681 -5.1419692 -0.40464213 0 0 0 0 56.476837
-3.1581593 -5.1538291 -0.29564181 0 0 0 0 56.481781
-3.2632606 -5.1525941 -0.18366335 0 0 0 0 56.486725
-2.7696443 -5.1185079 -0.51200616 0 0 0 0 56.491676
-2.8766534 -5.1242867 -0.39401478 0 0 0 0 56.49662
-2.9815481 -5.1290851 -0.29000834 0 0 0 0 56.501572
-3.0914285 -5.1359787 -0.1830419 0 0 0 0 56.506516
-2.6021469 -5.0938945 -0.49445552 0 0 0 0 56.511459
-2.7080557 -5.1016788 -0.38244554 0 0 0 0 56.516411
-2.8176119 -5.1196089 -0.28442806 0 0 0 0 56.521355
-2.9274778 -5.1245308 -0.18347122 0 0 0 0 56.526306
-2.4472899 -5.083643 -0.48026738 0 0 0 0 56.270798
-2.549382 -5.0803366 -0.37225455 0 0 0 0 56.275742
-2.6558945 -5.0972023 -0.28019843 0 0 0 0 56.280693
-2.7617221 -5.1010342 -0.18419258 0 0 0 0 56.285637
-2.292592 -5.0673518 -0.46482053 0 0 0 0 56.290588
-2.3945425 -5.0680718 -0.36278996 0 0 0 0 56.295532
-2.4943166 -5.0708103 -0.27473098 0 0 0 0 56.300476
-2.6077237 -5.0918355 -0.18472478 0 0 0 0 56.305428
-2.1419058 -5.0501432 -0.45041317 0 0 0 0 56.310371
-2.2418737 -5.0478439 -0.35337758 0 0 0 0 56.315323
-2.3424723 -5.0566249 -0.27030125 0 0 0 0 56.320267
-2.4529605 -5.0716105 -0.18529411 0 0 0 0 56.325218
-1.9885292 -5.0188613 -0.43503767 0 0 0 0 56.330162
-2.0979595 -5.0388017 -0.34499809 0 0 0 0 56.335106
-2.1956487 -5.0415387 -0.26592082 0 0 0 0 56.340057
-2.3011544 -5.0534415 -0.18587987 0 0 0 0 56.345001
-1.8477906 -5.0038552 -0.42171073 0 0 0 0 56.349953
-1.9484719 -5.0106206 -0.33464465 0 0 0 0 56.354897
-2.0489757 -5.0194473 -0.26156917 0 0 0 0 56.35984
-2.1581879 -5.0424604 -0.18751682 0 0 0 0 56.364792
-1.7070529 -4.9888415 -0.40838081 0 0 0 0 56.369736
-1.807815 -4.9896317 -0.32634255 0 0 0 0 56.374687
-1.9052715 -4.9984174 -0.25823867 0 0 0 0 56.379631
-2.0144453 -5.0214486 -0.18818682 0 0 0 0 56.384575
-1.5704007 -4.9699073 -0.39510462 0 0 0 0 56.389526
-1.6719342 -4.978744 -0.31903985 0 0 0 0 56.39447
-1.7693739 -4.9865489 -0.25494099 0 0 0 0 56.399422
-1.8708538 -4.9934316 -0.18888587 0 0 0 0 56.404366
-1.4396002 -4.9571028 -0.38385579 0 0 0 0 56.409317
-1.5381821 -4.9618945 -0.31178093 0 0 0 0 56.414261
-1.6326272 -4.9676542 -0.25166285 0 0 0 0 56.419205
-1.7359611 -4.9795976 -0.18960458 0 0 0 0 56.424156
-1.307875 -4.9412661 -0.37160832 0 0 0 0 56.4291
-1.4064946 -4.9420824 -0.30455226 0 0 0 0 56.434052
-1.5065043 -4.9659891 -0.24940988 0 0 0 0 56.438995
-1.6050369 -4.9668469 -0.19135436 0 0 0 0 56.443939
-1.1811397 -4.9255347 -0.36040628 0 0 0 0 56.448891
-1.2805922 -4.9323897 -0.29733285 0 0 0 0 56.453835
-1.3776925 -4.9502525 -0.24618948 0 0 0 0 56.458786
-1.4713286 -4.9440274 -0.1931183 0 0 0 0 56.46373
-1.0553738 -4.9108229 -0.35020652 0 0 0 0 56.468681
-1.1547019 -4.9216952 -0.29111525 0 0 0 0 56.473625
-1.249032 -4.9275112 -0.24299854 0 0 0 0 56.478569
-1.3482102 -4.940434 -0.19489847 0 0 0 0 56.483521
-0.93263924 -4.895165 -0.33903784 0 0 0 0 56.488464
-1.030898 -4.9070396 -0.2849327 0 0 0 0 56.493416
-1.1250505 -4.9188766 -0.24178879 0 0 0 0 56.49836
-1.2213297 -4.9257507 -0.19668785 0 0 0 0 56.503304
-0.81177813 -4.884552 -0.32986274 0 0 0 0 56.508255
-0.90902978 -4.8954191 -0.27875313 0 0 0 0 56.513199
-1.0031433 -4.9072757 -0.23960963 0 0 0 0 56.51815
-1.0985132 -4.9081488 -0.19852714 0 0 0 0 56.523094
-0.69094908 -4.8729286 -0.31968978 0 0 0 0 56.528038
-0.79106504 -4.8878827 -0.27359119 0 0 0 0 56.53299
-0.88134462 -4.8906698 -0.23745091 0 0 0 0 56.537933
-0.9785459 -4.897603 -0.20036064 0 0 0 0 56.542885
-0.57317477 -4.8583689 -0.31055713 0 0 0 0 56.547829
-0.67141318 -4.8662968 -0.26747197 0 0 0 0 56.55278
-0.76436281 -4.8821688 -0.23630118 0 0 0 0 56.557724
-0.85948265 -4.8910775 -0.20318277 0 0 0 0 56.562668
-0.45831424 -4.847867 -0.30143261 0 0 0 0 56.567619
-0.55460078 -4.8517723 -0.26234707 0 0 0 0 56.572563
-0.64649969 -4.8686366 -0.23416241 0 0 0 0 56.577515
-0.73979706 -4.8675237 -0.20507127 0 0 0 0 56.582458
-0.34345448 -4.8373599 -0.29230568 0 0 0 0 56.587402
-0.43960574 -4.8452873 -0.25820205 0 0 0 0 56.592354
-0.53071338 -4.8511477 -0.23305908 0 0 0 0 56.597298
-0.62566841 -4.8640933 -0.20792305 0 0 0 0 56.602249
-0.22860716 -4.8258519 -0.28418082 0 0 0 0 56.607193
-0.32491225 -4.8257914 -0.25211495 0 0 0 0 56.612137
-0.41571108 -4.8436723 -0.23191668 0 0 0 0 56.617088
-0.50877899 -4.849596 -0.21079411 0 0 0 0 56.622032
-0.11592154 -4.8073783 -0.2751056 0 0 0 0 56.626984
-0.21179964 -4.8243423 -0.24896121 0 0 0 0 56.631927
-0.30181727 -4.831214 -0.23080477 0 0 0 0 56.636879
-0.39580232 -4.8391781 -0.21368314 0 0 0 0 56.641823
-0.0029235699 -4.8029008 -0.26696289 0 0 0 0 56.646767
-0.098945513 -4.8118806 -0.24385619 0 0 0 0 56.651718
-0.18794587 -4.8177505 -0.22969511 0 0 0 0 56.656662
-0.28278264 -4.8307543 -0.21656045 0 0 0 0 56.661613
0.10768379 -4.7804651 -0.258921 0 0 0 0 56.666557
0.012852822 -4.7964411 -0.2397725 0 0 0 0 56.671501
-0.07775005 -4.8183737 -0.23055685 0 0 0 0 56.676453
-0.16898096 -4.8123059 -0.21947211 0 0 0 0 56.681396
0.21750753 -4.7680435 -0.2508401 0 0 0 0 56.686348
0.12369414 -4.7830172 -0.23568691 0 0 0 0 56.691292
0.033893611 -4.7949409 -0.22850853 0 0 0 0 56.696243
-0.057918169 -4.8059139 -0.22235484 0 0 0 0 56.701187
0.32849234 -4.7625971 -0.24371439 0 0 0 0 56.706131
0.23255706 -4.7706308 -0.23161389 0 0 0 0 56.711082
0.1437088 -4.7785535 -0.22844484 0 0 0 0 56.716026
0.052883036 -4.7875204 -0.22529118 0 0 0 0 56.720978
0.43822753 -4.7461653 -0.23564744 0 0 0 0 56.725922
0.34233174 -4.7542186 -0.22754748 0 0 0 0 56.730865
0.25476271 -4.7731357 -0.22831763 0 0 0 0 56.735817
0.16195548 -4.7811661 -0.22918871 0 0 0 0 56.740761
0.55126232 -4.7335443 -0.22726379 0 0 0 0 57.198128
0.45661083 -4.7506456 -0.22313452 0 0 0 0 57.203079
0.36885971 -4.7596297 -0.22697321 0 0 0 0 57.208023
0.27700827 -4.7637105 -0.23187666 0 0 0 0 57.212975
0.66221815 -4.7270188 -0.22010793 0 0 0 0 57.217918
0.56538427 -4.7341876 -0.22004738 0 0 0 0 57.222862
0.47875327 -4.7471633 -0.22685719 0 0 0 0 57.227814
0.38693243 -4.7512598 -0.23476119 0 0 0 0 57.232758
0.77097237 -4.711535 -0.21301317 0 0 0 0 57.237709
0.67614609 -4.7176747 -0.21593787 0 0 0 0 57.242653
0.58870125 -4.7366958 -0.22772914 0 0 0 0 57.247597
0.49679902 -4.7358088 -0.23865776 0 0 0 0 57.252548
0.88068044 -4.6940236 -0.20591573 0 0 0 0 57.257492
0.78619719 -4.7131844 -0.21377808 0 0 0 0 57.262444
0.69969338 -4.7281995 -0.22857897 0 0 0 0 57.267387
0.60568768 -4.7213745 -0.24255732 0 0 0 0 57.272339
0.99057746 -4.6845098 -0.19977731 0 0 0 0 57.277283
0.89614779 -4.7046852 -0.21063532 0 0 0 0 57.282227
0.80842823 -4.7087417 -0.22849984 0 0 0 0 57.287178
0.71685511 -4.7188916 -0.24737631 0 0 0 0 57.292122
1.1026083 -4.680943 -0.19358724 0 0 0 0 57.297073
1.0048058 -4.6832066 -0.20756318 0 0 0 0 57.302017
0.91937423 -4.6982346 -0.22935466 0 0 0 0 57.306961
0.82886469 -4.7093825 -0.25221652 0 0 0 0 57.311913
1.2089893 -4.6494823 -0.18558113 0 0 0 0 57.316856
1.1155297 -4.6646771 -0.20445403 0 0 0 0 57.321808
1.0281627 -4.6807699 -0.2302613 0 0 0 0 57.326752
0.93759423 -4.6879344 -0.25614303 0 0 0 0 57.331703
1.320861 -4.638907 -0.17942029 0 0 0 0 57.336647
1.2230279 -4.6362123 -0.20142159 0 0 0 0 57.341591
1.1355468 -4.646318 -0.22925845 0 0 0 0 57.346542
1.0461094 -4.6574788 -0.25911111 0 0 0 0 57.351486
1.4283168 -4.6104164 -0.17238513 0 0 0 0 57.356438
1.3306602 -4.6137409 -0.19835788 0 0 0 0 57.361382
1.2485679 -4.6387534 -0.23107141 0 0 0 0 57.366325
1.1603301 -4.6569104 -0.26488024 0 0 0 0 57.371277
1.5314333 -4.5670152 -0.1654615 0 0 0 0 57.376221
1.4511442 -4.6279917 -0.19698992 0 0 0 0 57.381172
1.369162 -4.656024 -0.23368904 0 0 0 0 57.386116
1.2787405 -4.664248 -0.2715672 0 0 0 0 57.39106
1.5671551 -4.6213326 -0.19576208 0 0 0 0 57.400955
1.4766085 -4.6235642 -0.2346696 0 0 0 0 57.405907
1.3917027 -4.6526899 -0.27639496 0 0 0 0 57.410851
1.5910052 -4.1073456 -0.13684817 0 0 0 0 57.415802
1.39877 -3.8247139 -0.15712562 0 0 0 0 57.420746
1.275923 -3.6875839 -0.18401483 0 0 0 0 57.42569
1.1527016 -3.5344555 -0.20998314 0 0 0 0 57.430641
1.6895709 -4.0840454 -0.13087612 0 0 0 0 57.435585
1.3058171 -3.504797 -0.17649768 0 0 0 0 57.44548
1.1955936 -3.3944008 -0.20513578 0 0 0 0 57.450424
1.3489676 -3.3767297 -0.17059039 0 0 0 0 57.465271
1.2281536 -3.240571 -0.1994597 0 0 0 0 57.470215
1.5150427 -3.3907616 -0.13376346 0 0 0 0 57.48011
1.3893149 -3.256736 -0.16667497 0 0 0 0 57.485054
1.2590123 -3.099786 -0.19474138 0 0 0 0 57.490005
1.5502322 -3.2648692 -0.12792695 0 0 0 0 57.499901
1.417174 -3.1170053 -0.15998103 0 0 0 0 57.504845
1.2848657 -2.9591136 -0.19007516 0 0 0 0 57.509789
1.5814745 -3.1420605 -0.12111743 0 0 0 0 57.519684
1.4453657 -2.9912786 -0.15521923 0 0 0 0 57.524635
1.3143137 -2.8443689 -0.18625154 0 0 0 0 57.529579
1.7889365 -3.2181315 -0.080564946 0 0 0 0 57.534523
1.6171632 -3.0381629 -0.11617412 0 0 0 0 57.539474
1.4769937 -2.8844814 -0.15133408 0 0 0 0 57.544418
1.3355428 -2.7208035 -0.18155493 0 0 0 0 57.54937
1.8214451 -3.1072893 -0.073684327 0 0 0 0 57.554314
1.6425201 -2.9204917 -0.11040274 0 0 0 0 57.559265
1.4983124 -2.76491 -0.14661607 0 0 0 0 57.564209
1.3632641 -2.6181033 -0.17869416 0 0 0 0 57.569153
1.8469048 -2.9946063 -0.066886023 0 0 0 0 57.574104
1.6743238 -2.821686 -0.10647681 0 0 0 0 57.579048
1.5261134 -2.6661994 -0.1427338 0 0 0 0 57.584
1.3933098 -2.5293567 -0.17674434 0 0 0 0 57.588943
1.8797556 -2.8987615 -0.060932599 0 0 0 0 57.593887
1.7031589 -2.724942 -0.10157234 0 0 0 0 57.598839
1.5478199 -2.5636261 -0.13893349 0 0 0 0 57.603783
1.4098772 -2.4209027 -0.17302743 0 0 0 0 57.608734
1.9064202 -2.7950549 -0.055080742 0 0 0 0 57.613678
1.7269783 -2.6273162 -0.097724698 0 0 0 0 57.618629
1.5717372 -2.4700077 -0.13606876 0 0 0 0 57.623573
1.4318703 -2.3303378 -0.17117085 0 0 0 0 57.628525
1.9405586 -2.7121804 -0.049053583 0 0 0 0 57.633469
1.761225 -2.5484545 -0.093680635 0 0 0 0 57.638412
1.5865046 -2.3705919 -0.13232709 0 0 0 0 57.643364
1.4539968 -2.2457697 -0.16928515 0 0 0 0 57.648308
1.9685446 -2.6224484 -0.044123054 0 0 0 0 57.653259
1.781128 -2.4549167 -0.089855403 0 0 0 0 57.658203
1.618971 -2.3007855 -0.13026214 0 0 0 0 57.663147
1.462781 -2.1474946 -0.16560358 0 0 0 0 57.668098
1.996506 -2.5413287 -0.040010169 0 0 0 0 57.390419
1.8062035 -2.375809 -0.087722868 0 0 0 0 57.39537
1.6328899 -2.2128735 -0.12824988 0 0 0 0 57.400314
1.4851241 -2.0753524 -0.16539726 0 0 0 0 57.405266
2.0227072 -2.4596519 -0.036059033 0 0 0 0 57.41021
1.8252898 -2.2892973 -0.083870523 0 0 0 0 57.415161
1.6490285 -2.1284385 -0.12542121 0 0 0 0 57.420105
1.5024278 -1.9979011 -0.16352673 0 0 0 0 57.425049
2.0458045 -2.3740385 -0.031158378 0 0 0 0 57.43
1.8506975 -2.2166493 -0.080889158 0 0 0 0 57.434944
1.6683662 -2.0529318 -0.1225186 0 0 0 0 57.439896
1.5156734 -1.9185356 -0.16070729 0 0 0 0 57.444839
2.060832 -2.2856069 -0.026354501 0 0 0 0 57.449783
1.8668321 -2.1322081 -0.078058526 0 0 0 0 57.454735
1.686756 -1.9794512 -0.12061679 0 0 0 0 57.459679
1.5259489 -1.8402421 -0.15891416 0 0 0 0 57.46463
2.0800231 -2.2040858 -0.022476088 0 0 0 0 57.469574
1.882099 -2.0537868 -0.075209394 0 0 0 0 57.474518
1.7031655 -1.9070148 -0.11873092 0 0 0 0 57.479469
1.531189 -1.7610577 -0.15617779 0 0 0 0 57.484413
2.1085129 -2.13536 -0.019442381 0 0 0 0 57.489365
1.892285 -1.9724749 -0.07142669 0 0 0 0 57.494308
1.7175949 -1.835623 -0.11686108 0 0 0 0 57.49926
1.5878695 -1.7417492 -0.15963089 0 0 0 0 57.504204
2.1462696 -2.0784242 -0.016257841 0 0 0 0 57.509148
1.9178928 -1.9088249 -0.069402613 0 0 0 0 57.514099
1.7156633 -1.7495904 -0.11322936 0 0 0 0 57.519043
1.6650523 -1.7429899 -0.16577475 0 0 0 0 57.523994
2.1595192 -2.000036 -0.012427146 0 0 0 0 57.528938
1.9384532 -1.8432883 -0.067439802 0 0 0 0 57.533882
1.7620057 -1.7164975 -0.114851 0 0 0 0 57.538834
1.7390435 -1.7362928 -0.170987 0 0 0 0 57.543777
2.1830003 -1.9314202 -0.0094451969 0 0 0 0 57.548729
1.9467986 -1.7690228 -0.064644732 0 0 0 0 57.553673
1.8461313 -1.7165565 -0.11792471 0 0 0 0 57.558624
1.8129991 -1.7275975 -0.17720741 0 0 0 0 57.563568
2.2086143 -1.8687561 -0.0064134505 0 0 0 0 57.568512
1.9603089 -1.701645 -0.062764406 0 0 0 0 57.573463
1.9240305 -1.7067517 -0.12110747 0 0 0 0 57.578407
1.8888978 -1.7168486 -0.1824156 0 0 0 0 57.583359
2.2260346 -1.7982713 -0.0025035553 0 0 0 0 57.588303
2.0401628 -1.6907808 -0.063929826 0 0 0 0 57.593246
2.0060072 -1.6998552 -0.12523255 0 0 0 0 57.598198
1.9667828 -1.7050552 -0.1886065 0 0 0 0 57.603142
2.2221482 -1.7142755 0.00012074662 0 0 0 0 57.608093
2.1240041 -1.679816 -0.064052403 0 0 0 0 57.613037
2.0858135 -1.6859977 -0.12841105 0 0 0 0 57.617989
2.0496993 -1.6941477 -0.19573924 0 0 0 0 57.622932
2.2539437 -1.6594732 0.0022529594 0 0 0 0 57.627884
2.2200229 -1.6755792 -0.066014804 0 0 0 0 57.632828
2.1798189 -1.6798222 -0.13340391 0 0 0 0 57.637772
2.0764265 -1.6354755 -0.19568025 0 0 0 0 57.642723
2.344727 -1.6473246 0.0052012228 0 0 0 0 57.647667
2.3149393 -1.667357 -0.067005239 0 0 0 0 57.652618
2.2707229 -1.6697075 -0.13744552 0 0 0 0 57.657562
2.0838251 -1.5632379 -0.19488689 0 0 0 0 57.662506
2.4506862 -1.641834 0.0063411365 0 0 0 0 57.667458
2.4137957 -1.6560439 -0.068967111 0 0 0 0 57.672401
2.3329716 -1.632231 -0.13991337 0 0 0 0 57.677353
2.0933113 -1.4949528 -0.19405365 0 0 0 0 57.682297
2.5494304 -1.6274972 0.0083663315 0 0 0 0 57.687248
2.5125723 -1.641722 -0.069941804 0 0 0 0 57.692192
2.3270967 -1.5492796 -0.13730684 0 0 0 0 57.697136
2.0682011 -1.4034337 -0.18869217 0 0 0 0 57.702087
2.6643064 -1.6187851 0.010588966 0 0 0 0 57.707031
2.615288 -1.6243083 -0.071887806 0 0 0 0 57.711983
2.3374991 -1.4779608 -0.13547602 0 0 0 0 57.716927
2.156049 -1.3894042 -0.19678412 0 0 0 0 57.72187
2.7831118 -1.6069759 0.012840669 0 0 0 0 57.726822
2.6398346 -1.5586621 -0.07087858 0 0 0 0 57.731766
2.3347871 -1.401943 -0.13380542 0 0 0 0 57.736717
2.2488844 -1.3752501 -0.20382248 0 0 0 0 57.741661
2.8947344 -1.5873247 0.01498249 0 0 0 0 57.746605
2.6420181 -1.4785173 -0.068172514 0 0 0 0 57.751556
2.3767345 -1.3529149 -0.13453951 0 0 0 0 57.7565
2.3558617 -1.3657807 -0.21368842 0 0 0 0 57.761452
2.9950826 -1.5559257 0.016952664 0 0 0 0 57.766396
2.6554461 -1.4081249 -0.067303114 0 0 0 0 57.771347
2.4825299 -1.3374461 -0.14044383 0 0 0 0 57.776291
2.4667678 -1.3532146 -0.22352546 0 0 0 0 57.781235
3.0306311 -1.4910083 0.019084852 0 0 0 0 57.786186
2.647625 -1.3282112 -0.064702593 0 0 0 0 57.79113
2.6156147 -1.3333529 -0.14800511 0 0 0 0 57.796082
2.5755482 -1.3356861 -0.23240595 0 0 0 0 57.801025
3.0115356 -1.3993434 0.021515293 0 0 0 0 57.805969
2.7693586 -1.3113461 -0.067440689 0 0 0 0 57.810921
2.7434587 -1.3193673 -0.15466551 0 0 0 0 57.815865
2.5940359 -1.2671883 -0.2334765 0 0 0 0 57.820816
3.0197849 -1.3220536 0.023300616 0 0 0 0 57.82576
2.9051332 -1.2961495 -0.070020348 0 0 0 0 57.830704
2.8762419 -1.3022649 -0.16228598 0 0 0 0 57.835655
2.5933094 -1.1911187 -0.23178573 0 0 0 0 57.840599
3.0734789 -1.2637128 0.025654644 0 0 0 0 57.845551
3.044801 -1.2758596 -0.073580325 0 0 0 0 57.850494
2.9097898 -1.2364093 -0.16318208 0 0 0 0 57.855446
2.608814 -1.1236891 -0.23288353 0 0 0 0 57.86039
3.2385747 -1.2507617 0.026531477 0 0 0 0 57.609505
3.2098861 -1.2609166 -0.077709526 0 0 0 0 57.614456
2.9173963 -1.1609877 -0.16321373 0 0 0 0 57.6194
2.5963836 -1.0466247 -0.2310836 0 0 0 0 57.624352
3.4142504 -1.2326506 0.02834437 0 0 0 0 57.629295
3.290766 -1.2079833 -0.07904838 0 0 0 0 57.634239
2.922694 -1.0847765 -0.16245355 0 0 0 0 57.639191
2.7250924 -1.0246696 -0.24278648 0 0 0 0 57.644135
3.7248099 -1.2514455 0.030741727 0 0 0 0 57.649086
3.2919033 -1.1248561 -0.078359924 0 0 0 0 57.65403
2.9129136 -1.0059061 -0.16086392 0 0 0 0 57.658974
2.8849473 -1.0070128 -0.25814149 0 0 0 0 57.663925
3.7439065 -1.1668888 0.032615893 0 0 0 0 57.668869
3.3051245 -1.0454519 -0.077528551 0 0 0 0 57.67382
3.0675116 -0.98032582 -0.16930741 0 0 0 0 57.678764
3.0557628 -0.98710066 -0.27438921 0 0 0 0 57.683716
3.761976 -1.0813545 0.034474283 0 0 0 0 57.68866
3.300245 -0.96245801 -0.0759039 0 0 0 0 57.693604
3.2632518 -0.95881093 -0.18129836 0 0 0 0 57.698555
3.1033661 -0.92193872 -0.27813509 0 0 0 0 57.703499
3.7830739 -0.99675459 0.035368212 0 0 0 0 57.70845
3.4816389 -0.9292264 -0.08109577 0 0 0 0 57.713394
3.4547756 -0.92837662 -0.19237135 0 0 0 0 57.718338
3.1136475 -0.84461749 -0.2793287 0 0 0 0 57.723289
3.7498519 -0.89939868 0.036632344 0 0 0 0 57.728233
3.7162092 -0.90276521 -0.086694643 0 0 0 0 57.733185
3.480027 -0.84970009 -0.19341068 0 0 0 0 57.738129
3.1098061 -0.76360595 -0.27768829 0 0 0 0 57.74308
5.0346622 -1.0907201 0.043084331 0 0 0 0 57.748024
3.9273705 -0.85882902 -0.092616796 0 0 0 0 57.752968
3.470057 -0.76282424 -0.19285853 0 0 0 0 57.757919
3.1191263 -0.68830669 -0.27888384 0 0 0 0 57.762863
5.0842266 -0.98341811 0.045183577 0 0 0 0 57.767815
3.9554195 -0.77206743 -0.092660174 0 0 0 0 57.772758
3.4952548 -0.68214673 -0.1939089 0 0 0 0 57.777702
3.3507326 -0.65599287 -0.30154184 0 0 0 0 57.782654
5.0554976 -0.8639279 0.045401935 0 0 0 0 57.787598
3.9834414 -0.68430465 -0.092708871 0 0 0 0 57.792549
3.6089325 -0.61845767 -0.20094879 0 0 0 0 57.797493
3.5127439 -0.6022349 -0.31702834 0 0 0 0 57.802437
5.0658789 -0.74952888 0.047054186 0 0 0 0 57.807388
3.9582467 -0.58876204 -0.091354847 0 0 0 0 57.812332
3.9022877 -0.57666743 -0.21899192 0 0 0 0 57.817284
5.0833321 -0.63797086 0.047793396 0 0 0 0 57.827179
4.4217677 -0.55399543 -0.10456518 0 0 0 0 57.832123
5.0957346 -0.52452874 0.048469555 0 0 0 0 57.846962
4.4394798 -0.45345515 -0.10477975 0 0 0 0 57.851913
5.1051102 -0.41015595 0.049108431 0 0 0 0 57.866753
4.4542217 -0.35398835 -0.10602133 0 0 0 0 57.871696
5.1225467 -0.29859576 0.049844876 0 0 0 0 57.886536
4.48593 -0.25312534 -0.10709091 0 0 0 0 57.891487
5.1449528 -0.18591842 0.050627809 0 0 0 0 57.906326
4.4755793 -0.15123051 -0.10661072 0 0 0 0 57.911278
5.1533222 -0.071571834 0.050253347 0 0 0 0 57.926117
4.4802294 -0.048991114 -0.10697467 0 0 0 0 57.931061
5.1506791 0.042523097 0.05076234 0 0 0 0 57.9459
4.5028791 0.053664099 -0.10815074 0 0 0 0 57.950851
5.1670346 0.1570572 0.05046957 0 0 0 0 57.965691
4.5125284 0.15601651 -0.10946396 0 0 0 0 57.970642
5.1633673 0.2721239 0.049960654 0 0 0 0 57.985481
4.5081668 0.25804657 -0.10992537 0 0 0 0 57.990425
5.1896849 0.38789296 0.049765967 0 0 0 0 58.005264
4.5097613 0.36221159 -0.11133488 0 0 0 0 58.010216
5.1869597 0.50498289 0.049255088 0 0 0 0 58.025055
4.5363541 0.46695805 -0.1134821 0 0 0 0 58.029999
5.2211804 0.62493563 0.048122875 0 0 0 0 58.044846
4.5409145 0.57219392 -0.114867 0 0 0 0 58.049789
5.2294269 0.74327952 0.046720728 0 0 0 0 58.064629
4.533463 0.67715287 -0.11537972 0 0 0 0 58.06958
5.2067375 0.85885483 0.046604738 0 0 0 0 58.236923
4.5599494 0.78772557 -0.11700787 0 0 0 0 58.241875
5.230803 0.98357815 0.04533552 0 0 0 0 58.256714
4.5434818 0.89246458 -0.11862399 0 0 0 0 58.261658
5.2309422 1.1047333 0.043824669 0 0 0 0 58.276497
4.5230579 0.99510837 -0.12027406 0 0 0 0 58.281448
5.2121763 1.2214379 0.042130042 0 0 0 0 58.296288
4.525455 1.1052961 -0.12171587 0 0 0 0 58.301239
3.9797115 1.0147223 -0.24216345 0 0 0 0 58.306183
5.2390914 1.3522278 0.039858919 0 0 0 0 58.316078
4.521883 1.2143365 -0.12421788 0 0 0 0 58.321022
3.9654446 1.1104954 -0.24372213 0 0 0 0 58.325974
3.5233567 1.0274645 -0.34509218 0 0 0 0 58.330917
5.2719393 1.4851664 0.038640782 0 0 0 0 58.335861
4.5232811 1.3244956 -0.12667274 0 0 0 0 58.340813
3.9750199 1.2138281 -0.24706107 0 0 0 0 58.345757
3.5182145 1.1184366 -0.34753469 0 0 0 0 58.350708
5.2520719 1.6058406 0.035910673 0 0 0 0 58.355652
4.5196033 1.4375346 -0.1291979 0 0 0 0 58.360596
3.9726551 1.3138806 -0.24951415 0 0 0 0 58.365547
3.5130677 1.2094084 -0.34997836 0 0 0 0 58.370491
5.243052 1.7327746 0.033265844 0 0 0 0 58.375443
4.5228462 1.5537397 -0.13166471 0 0 0 0 58.380386
3.9632635 1.4147656 -0.25204873 0 0 0 0 58.385338
3.5128303 1.3044933 -0.35339001 0 0 0 0 58.390282
5.2786522 1.8757794 0.031025192 0 0 0 0 58.395226
4.5260944 1.6699398 -0.13513269 0 0 0 0 58.400177
3.9617455 1.5208397 -0.25452453 0 0 0 0 58.405121
3.5046282 1.3973923 -0.35587844 0 0 0 0 58.410072
5.2685723 2.004689 0.028356455 0 0 0 0 58.415016
4.5193062 1.7869054 -0.13771467 0 0 0 0 58.41996
3.9751194 1.6322616 -0.25886589 0 0 0 0 58.424911
3.495374 1.4922663 -0.35838923 0 0 0 0 58.429855
5.2445726 2.1302588 0.024550986 0 0 0 0 58.434807
4.5412607 1.9155524 -0.1420427 0 0 0 0 58.439751
3.9596436 1.736001 -0.26148435 0 0 0 0 58.444702
3.5039394 1.595559 -0.36274868 0 0 0 0 58.449646
5.2898259 2.287497 0.021342237 0 0 0 0 58.45459
4.516562 2.0280876 -0.14480054 0 0 0 0 58.459541
3.9718983 1.8523929 -0.26686451 0 0 0 0 58.464485
3.493639 1.6924031 -0.36628288 0 0 0 0 58.469437
5.2904224 2.4296613 0.017720124 0 0 0 0 58.47438
4.5145741 2.1531651 -0.14837429 0 0 0 0 58.479324
3.9494276 1.9549686 -0.26855612 0 0 0 0 58.484276
3.501086 1.8006656 -0.37168109 0 0 0 0 58.48922
5.2830381 2.5706336 0.01401527 0 0 0 0 58.494171
4.5125561 2.279242 -0.15195465 0 0 0 0 58.499115
3.9387536 2.066819 -0.27216643 0 0 0 0 58.504059
3.4975688 1.9066696 -0.37618887 0 0 0 0 58.50901
4.5045204 2.4061697 -0.15660642 0 0 0 0 58.518906
3.9468255 2.1901128 -0.27762979 0 0 0 0 58.523849
3.4880857 2.0105345 -0.37975243 0 0 0 0 58.528801
4.5141606 2.546526 -0.16113274 0 0 0 0 58.538689
3.9320936 2.3038657 -0.28129658 0 0 0 0 58.54364
3.479512 2.1184168 -0.38432732 0 0 0 0 58.548584
4.5059681 2.679451 -0.16581884 0 0 0 0 58.558479
3.9370108 2.4330854 -0.28682634 0 0 0 0 58.563423
3.4896114 2.2407427 -0.39077055 0 0 0 0 58.568375
4.4809332 2.8049726 -0.16965449 0 0 0 0 58.57827
3.9260976 2.5539315 -0.29048935 0 0 0 0 58.583214
3.4473805 2.3318284 -0.39163369 0 0 0 0 58.588158
4.4883237 2.9552727 -0.17525914 0 0 0 0 58.598053
3.9258947 2.688024 -0.29710218 0 0 0 0 58.603004
3.4454863 2.4528692 -0.39720473 0 0 0 0 58.607948
5.2232389 3.4750736 -0.014710276 0 0 0 0 58.6129
4.4710298 3.0919724 -0.18106893 0 0 0 0 58.617844
3.9069242 2.8106751 -0.30086571 0 0 0 0 58.622787
3.4316761 2.5696256 -0.40188673 0 0 0 0 58.627739
4.465363 3.2439575 -0.18682861 0 0 0 0 58.637634
3.9006033 2.9486256 -0.30656803 0 0 0 0 58.642578
3.4217491 2.6914718 -0.40755299 0 0 0 0 58.647522
4.439023 3.3814425 -0.19174547 0 0 0 0 58.657417
3.8863747 3.0823829 -0.31233811 0 0 0 0 58.662369
3.4067938 2.8141959 -0.41328046 0 0 0 0 58.667313
3.8592789 3.209831 -0.31722033 0 0 0 0 58.682152
3.4133012 2.9604309 -0.42189029 0 0 0 0 58.687103
3.8330069 3.3442998 -0.32213038 0 0 0 0 58.701942
3.3804877 3.0757289 -0.42578089 0 0 0 0 58.706886
3.8088236 3.4883881 -0.32666034 0 0 0 0 59.294357
3.3695168 3.2207875 -0.4312773 0 0 0 0 59.299309
3.8077059 3.6544552 -0.33548033 0 0 0 0 59.314148
3.3481159 3.357337 -0.43817991 0 0 0 0 59.319092
3.7877898 3.8110592 -0.3424674 0 0 0 0 59.333939
3.3246477 3.4958398 -0.44411799 0 0 0 0 59.338882
3.7765601 3.9808733 -0.35142589 0 0 0 0 59.353722
3.2912266 3.632091 -0.45016006 0 0 0 0 59.358673
3.7748287 4.1709261 -0.36138251 0 0 0 0 59.373512
3.2762244 3.7927942 -0.45912048 0 0 0 0 59.378456
3.2571411 3.9563954 -0.46814463 0 0 0 0 59.398247
3.2309656 4.1228232 -0.47626662 0 0 0 0 59.418037
3.2133355 4.3084545 -0.48739296 0 0 0 0 59.43782
3.1818552 4.4867449 -0.49664214 0 0 0 0 59.457611
2.3889222 4.1483173 -0.4198572 0 0 0 0 59.536766
2.4913599 4.5799069 -0.45590118 0 0 0 0 59.556549
2.6393254 4.8123193 -0.35637864 0 0 0 0 59.571388
2.9509954 5.7523675 -0.56870031 0 0 0 0 59.57634
2.8083358 5.4216213 -0.40058571 0 0 0 0 59.591179
3.0891209 6.3998499 -0.62346619 0 0 0 0 59.596123
2.8702037 5.4908981 -0.28520355 0 0 0 0 59.606018
2.8957186 5.930882 -0.43521476 0 0 0 0 59.61097
2.9832978 6.0498433 -0.31779602 0 0 0 0 59.625809
3.1270294 6.8107677 -0.49812478 0 0 0 0 59.630753
3.0855176 6.6425214 -0.35169458 0 0 0 0 59.645599
3.2772446 7.6096196 -0.55355257 0 0 0 0 59.650543
3.1491311 7.2182164 -0.38595539 0 0 0 0 59.665382
3.3262272 8.2519226 -0.5963366 0 0 0 0 59.670334
3.1904964 7.8023496 -0.42052323 0 0 0 0 59.685173
3.3365281 8.8792467 -0.63749629 0 0 0 0 59.690117
3.2665546 8.5593691 -0.46560284 0 0 0 0 59.704964
3.3161302 9.4927912 -0.67794639 0 0 0 0 59.709908
3.3099103 8.510376 -0.31081712 0 0 0 0 59.719803
3.2684822 9.1985016 -0.50392962 0 0 0 0 59.724747
3.2887747 10.184152 -0.72389418 0 0 0 0 59.729698
2.0635514 7.071476 -0.61374837 0 0 0 0 59.734642
3.3084817 9.1224327 -0.34604189 0 0 0 0 59.739586
3.2977746 10.02333 -0.55392343 0 0 0 0 59.744537
3.2517912 10.939269 -0.77329803 0 0 0 0 59.749481
1.8840681 7.077992 -0.6048609 0 0 0 0 59.754433
3.2727325 9.7015152 -0.38063243 0 0 0 0 59.487465
3.2647572 10.746483 -0.59917045 0 0 0 0 59.492409
3.1857827 11.713598 -0.82412285 0 0 0 0 59.49736
3.2153149 10.319144 -0.41849858 0 0 0 0 59.507256
3.2260401 11.579572 -0.65195042 0 0 0 0 59.512199
3.1826315 11.108405 -0.46498227 0 0 0 0 59.527039
3.138063 12.380415 -0.70313901 0 0 0 0 59.53199
1.6082222 8.3915339 -0.69097328 0 0 0 0 59.541885
3.102901 11.858456 -0.51281273 0 0 0 0 59.546829
3.032305 13.251801 -0.75891113 0 0 0 0 59.551773
2.8520103 14.433308 -1.004173 0 0 0 0 59.556725
1.5843161 9.4828739 -0.77395046 0 0 0 0 59.561668
3.0170934 12.731353 -0.56736457 0 0 0 0 59.56662
2.8965001 14.164412 -0.81925684 0 0 0 0 59.571564
1.7245345 9.9001207 -0.67750955 0 0 0 0 59.576515
1.5431796 10.825759 -0.87545353 0 0 0 0 59.581459
2.8869824 13.575108 -0.62328684 0 0 0 0 59.586403
2.6903367 14.927229 -0.8716445 0 0 0 0 59.591354
1.6258274 10.852627 -0.74164075 0 0 0 0 59.596298
1.3045399 10.99679 -0.87812001 0 0 0 0 59.60125
2.7397749 14.54242 -0.68706512 0 0 0 0 59.606194
2.4193492 15.478389 -0.91168618 0 0 0 0 59.611137
1.4962424 11.879338 -0.81152987 0 0 0 0 59.616089
1.2395613 13.143 -1.0401331 0 0 0 0 59.621033
2.5003619 15.194351 -0.73827183 0 0 0 0 59.625984
2.0876954 15.771991 -0.93709213 0 0 0 0 59.630928
1.3154963 12.868752 -0.87782919 0 0 0 0 59.635872
0.96651441 13.653109 -1.0689987 0 0 0 0 59.640823
2.2014513 15.623737 -0.78001297 0 0 0 0 59.645767
1.7438595 16.032261 -0.96147501 0 0 0 0 59.650719
1.0629323 13.564343 -0.92443317 0 0 0 0 59.655663
0.66580796 14.106515 -1.0918986 0 0 0 0 59.660614
1.8748419 16.000391 -0.82080972 0 0 0 0 59.665558
1.3900156 16.292261 -0.98598307 0 0 0 0 59.670502
0.90949589 16.644329 -1.1374248 0 0 0 0 59.675453
0.39465231 16.935432 -1.3009492 0 0 0 0 59.680397
1.7692893 18.949751 -1.0015703 0 0 0 0 59.685349
1.3123552 21.349224 -1.3125094 0 0 0 0 59.690292
0.52612168 16.960594 -1.1565901 0 0 0 0 59.695236
-0.0022913176 17.229389 -1.3091627 0 0 0 0 59.700188
1.3321791 19.02252 -1.0320863 0 0 0 0 59.705132
0.80411333 21.216242 -1.3167871 0 0 0 0 59.710083
0.15921791 21.138073 -1.4458973 0 0 0 0 59.715027
-0.50354332 21.060368 -1.5882221 0 0 0 0 59.719971
0.99145144 21.249779 -1.1848352 0 0 0 0 59.724922
0.30968419 21.172577 -1.328385 0 0 0 0 59.729866
-0.33809826 21.082405 -1.4404725 0 0 0 0 59.734818
-0.99871701 21.153807 -1.5785654 0 0 0 0 59.739761
0.49058068 21.190855 -1.211431 0 0 0 0 59.744713
-0.18210326 21.102959 -1.337826 0 0 0 0 59.749657
-0.82672369 21.039928 -1.4370267 0 0 0 0 59.754601
-1.5012789 21.182037 -1.5646628 0 0 0 0 59.759552
0.0002045818 20.551165 -1.2048516 0 0 0 0 59.764496
-0.67639947 21.054247 -1.3494171 0 0 0 0 59.769447
-1.3282266 21.194086 -1.4477798 0 0 0 0 59.774391
-1.9936917 21.12351 -1.5441955 0 0 0 0 59.779335
-0.49558178 21.091326 -1.2675699 0 0 0 0 59.784286
-1.1747837 21.210398 -1.3751487 0 0 0 0 59.78923
-1.8255424 21.139336 -1.4443932 0 0 0 0 59.794182
-2.4840403 21.063004 -1.5247045 0 0 0 0 59.799126
-0.98891205 21.132511 -1.3026392 0 0 0 0 59.804077
-1.6717851 21.150558 -1.3877351 0 0 0 0 59.809021
-2.3149238 21.087759 -1.4419413 0 0 0 0 59.813965
-2.869133 20.229214 -1.4499036 0 0 0 0 59.818916
-1.4863698 21.178566 -1.3377941 0 0 0 0 59.82386
-2.1652598 21.109785 -1.4013919 0 0 0 0 59.828812
-2.7876697 20.850588 -1.4273232 0 0 0 0 59.833755
-3.3276732 20.098469 -1.4276845 0 0 0 0 59.838699
-1.9793643 21.126701 -1.3683901 0 0 0 0 59.843651
-2.6512706 21.011173 -1.4126657 0 0 0 0 59.848595
-3.1658976 20.112841 -1.3779547 0 0 0 0 59.853546
-3.8059671 20.07819 -1.4132912 0 0 0 0 59.85849
-2.4765217 21.081703 -1.4000818 0 0 0 0 59.863434
-3.0188565 20.135609 -1.3704429 0 0 0 0 59.868385
-3.6427484 20.082502 -1.3794948 0 0 0 0 59.873329
-4.4528475 20.801514 -1.4528289 0 0 0 0 59.878281
-2.8516717 20.196848 -1.3738976 0 0 0 0 59.883224
-3.4935791 20.067234 -1.3847597 0 0 0 0 59.888176
-4.2399364 20.625019 -1.4214977 0 0 0 0 59.89312
-4.9528146 20.76762 -1.4386444 0 0 0 0 59.898064
-3.3255224 20.10041 -1.4010584 0 0 0 0 59.903015
-3.9779708 20.065586 -1.4035544 0 0 0 0 59.907959
-4.7880206 20.802786 -1.438005 0 0 0 0 59.91291
-5.4557939 20.734621 -1.4255112 0 0 0 0 59.917854
-3.7980278 20.030975 -1.4313569 0 0 0 0 59.922798
-4.6412101 20.816261 -1.4774621 0 0 0 0 59.92775
-5.2872581 20.747786 -1.4397146 0 0 0 0 59.932693
-5.960124 20.675566 -1.4102662 0 0 0 0 59.937645
-4.4599342 20.81657 -1.5264428 0 0 0 0 59.942589
-5.1406631 20.737164 -1.4930496 0 0 0 0 59.947533
-5.7977347 20.702469 -1.4426186 0 0 0 0 59.952484
-6.4019957 20.400097 -1.3811449 0 0 0 0 59.957428
-4.963058 20.770811 -1.5604626 0 0 0 0 59.713463
-5.6465387 20.713614 -1.5121338 0 0 0 0 59.718414
-6.2376871 20.432884 -1.4275572 0 0 0 0 59.723358
-6.9016867 20.351231 -1.3658792 0 0 0 0 59.72831
-5.4745836 20.74243 -1.5974057 0 0 0 0 59.733253
-6.1094952 20.493555 -1.5185096 0 0 0 0 59.738197
-6.7396612 20.367887 -1.4302093 0 0 0 0 59.743149
-7.4160442 20.293991 -1.3527232 0 0 0 0 59.748093
-5.9767561 20.660257 -1.6319678 0 0 0 0 59.753044
-6.5937009 20.36492 -1.5326233 0 0 0 0 59.757988
-7.2510133 20.318621 -1.4350641 0 0 0 0 59.762932
-7.9315662 20.243692 -1.3406285 0 0 0 0 59.767883
-6.4303904 20.395317 -1.65201 0 0 0 0 59.772827
-7.1078377 20.314486 -1.5535083 0 0 0 0 59.777779
-7.7732053 20.263046 -1.4400231 0 0 0 0 59.782722
-8.2679262 19.747955 -1.3001037 0 0 0 0 59.787674
-6.9410362 20.33386 -1.6908001 0 0 0 0 59.792618
-7.6318793 20.260763 -1.5755026 0 0 0 0 59.797562
-8.2772474 20.161911 -1.442541 0 0 0 0 59.802513
-8.0254574 17.983057 -1.1741164 0 0 0 0 59.807457
-7.4661722 20.292009 -1.7308741 0 0 0 0 59.812408
-8.1580076 20.21096 -1.5985535 0 0 0 0 59.817352
-8.065918 18.406181 -1.3239596 0 0 0 0 59.822296
-8.4520969 17.821968 -1.1574088 0 0 0 0 59.827248
-7.992496 20.218096 -1.7698035 0 0 0 0 59.832191
-8.0815554 18.733728 -1.5060139 0 0 0 0 59.837143
-8.3046474 17.815845 -1.2907887 0 0 0 0 59.842087
-8.9193573 17.725813 -1.1455281 0 0 0 0 59.847031
-8.0821619 19.111517 -1.7161635 0 0 0 0 59.851982
-8.1901817 17.8237 -1.4576287 0 0 0 0 59.856926
-8.7948656 17.765009 -1.2974201 0 0 0 0 59.861877
-9.4077253 17.674089 -1.1371398 0 0 0 0 59.866821
-8.0400658 17.814371 -1.6409599 0 0 0 0 59.871773
-8.6782246 17.773815 -1.4812437 0 0 0 0 59.876717
-9.2859163 17.708117 -1.3050398 0 0 0 0 59.88166
-9.9070616 17.621059 -1.1288835 0 0 0 0 59.886612
-8.5257139 17.756451 -1.6805078 0 0 0 0 59.891556
-9.1749649 17.711685 -1.5039064 0 0 0 0 59.896507
-9.7776022 17.63718 -1.312603 0 0 0 0 59.901451
-10.41507 17.554783 -1.1196692 0 0 0 0 59.906395
-9.0140228 17.685432 -1.7200278 0 0 0 0 59.911346
-9.6632156 17.630743 -1.5263799 0 0 0 0 59.91629
-10.28733 17.567757 -1.3203964 0 0 0 0 59.921242
-10.930176 17.493288 -1.1125747 0 0 0 0 59.926186
-9.5257053 17.62978 -1.7619145 0 0 0 0 59.931137
-10.187524 17.592831 -1.5545166 0 0 0 0 59.936081
-10.805309 17.509085 -1.3303547 0 0 0 0 59.941025
-11.47368 17.447039 -1.1059059 0 0 0 0 59.945976
-10.041295 17.570995 -1.8048415 0 0 0 0 59.95092
-10.695359 17.496323 -1.5781586 0 0 0 0 59.955872
-11.341422 17.455915 -1.3415668 0 0 0 0 59.960815
-12.005517 17.375057 -1.0989747 0 0 0 0 59.965759
-10.574838 17.511703 -1.8509884 0 0 0 0 59.970711
-11.231113 17.437056 -1.6063386 0 0 0 0 59.975655
-11.889217 17.390413 -1.3528624 0 0 0 0 59.980606
-12.553422 17.305635 -1.0922576 0 0 0 0 59.98555
-11.108144 17.443388 -1.8970957 0 0 0 0 59.990494
-11.790998 17.383135 -1.6358429 0 0 0 0 59.995445
-12.447097 17.328621 -1.3653083 0 0 0 0 60.000389
-13.136763 17.253267 -1.0870609 0 0 0 0 60.005341
-11.661635 17.383509 -1.9464978 0 0 0 0 60.010284
-12.341224 17.304422 -1.6661131 0 0 0 0 60.015236
-13.025876 17.26325 -1.3789936 0 0 0 0 60.02018
-13.273476 16.627426 -1.045544 0 0 0 0 60.025124
-12.231883 17.314163 -1.9960589 0 0 0 0 60.030075
-12.929171 17.254696 -1.6999953 0 0 0 0 60.035019
-13.168467 16.637203 -1.3465433 0 0 0 0 60.03997
-13.92747 16.641171 -1.0465527 0 0 0 0 60.044914
-12.829718 17.270046 -2.0520933 0 0 0 0 60.049858
-13.090685 16.630106 -1.6767746 0 0 0 0 60.05481
-13.825926 15.77347 -0.99092746 0 0 0 0 60.064705
-12.995937 16.638285 -2.0368886 0 0 0 0 60.069649
-13.765663 16.66304 -1.722147 0 0 0 0 60.0746
-13.755448 14.988966 -0.94110423 0 0 0 0 60.084488
-13.66829 15.766208 -1.669405 0 0 0 0 60.094383
-13.671408 14.223812 -0.89321458 0 0 0 0 60.104279
-13.623853 14.987985 -1.6279156 0 0 0 0 60.114174
-12.724505 12.649096 -0.79274076 0 0 0 0 60.124069
-13.511607 14.178548 -1.5804448 0 0 0 0 60.133957
-12.614758 12.599934 -1.1033422 0 0 0 0 60.138908
-12.617705 11.976559 -0.75104499 0 0 0 0 60.143852
-12.519148 12.526289 -1.4329791 0 0 0 0 60.153748
-12.525304 11.94293 -1.0659312 0 0 0 0 60.158699
-12.534471 11.367405 -0.71496075 0 0 0 0 60.163643
-12.415602 12.467703 -1.789603 0 0 0 0 60.168587
-12.443867 11.876914 -1.3967729 0 0 0 0 60.173538
-12.45906 11.334329 -1.0310476 0 0 0 0 60.178482
-12.516359 10.841563 -0.68309098 0 0 0 0 60.183434
-12.377355 11.850421 -1.7588037 0 0 0 0 60.055801
-12.365581 11.254686 -1.3614891 0 0 0 0 60.060745
-12.428908 10.793846 -1.0007851 0 0 0 0 60.065697
-12.555351 10.382298 -0.65609139 0 0 0 0 60.070641
-12.260819 11.188124 -1.7190564 0 0 0 0 60.075584
-12.296029 10.672156 -1.3297205 0 0 0 0 60.080536
-12.55198 10.394288 -0.98627365 0 0 0 0 60.08548
-13.276231 10.477262 -0.6663031 0 0 0 0 60.090431
-12.188864 10.590653 -1.6871749 0 0 0 0 60.095375
-12.485476 10.330821 -1.3283052 0 0 0 0 60.100319
-13.195561 9.9300175 -0.63459241 0 0 0 0 60.110214
-12.411715 10.270384 -1.6982682 0 0 0 0 60.115166
-13.074713 10.301959 -1.3693076 0 0 0 0 60.12011
-13.118661 9.4146709 -0.60609037 0 0 0 0 60.130005
-12.98773 9.7448673 -1.3394605 0 0 0 0 60.1399
-13.015475 9.3291092 -0.95356715 0 0 0 0 60.144844
-13.065625 8.9337111 -0.57904911 0 0 0 0 60.149796
-12.978585 9.2617321 -1.317928 0 0 0 0 60.159683
-13.00474 8.4599552 -0.5529471 0 0 0 0 60.169579
-12.899752 8.7524271 -1.2924206 0 0 0 0 60.179474
-12.988083 8.0350447 -0.53062785 0 0 0 0 60.189369
-12.80925 8.2564392 -1.2658392 0 0 0 0 60.199265
-12.895455 7.5741158 -0.5062055 0 0 0 0 60.20916
-12.783061 7.8137569 -1.246304 0 0 0 0 60.219048
-7.468842 -5.6734266 -0.97359359 0 0 0 0 61.687759
-7.6186533 -5.6826911 -0.65242642 0 0 0 0 61.692711
-7.7444682 -5.6794457 -0.35802898 0 0 0 0 61.697655
-7.9017448 -5.699048 -0.056900702 0 0 0 0 61.702606
-7.0493269 -5.6285954 -0.92652708 0 0 0 0 61.70755
-7.177309 -5.6253285 -0.61915565 0 0 0 0 61.712494
-7.3255062 -5.6378069 -0.33995458 0 0 0 0 61.717445
-7.464951 -5.64499 -0.052672442 0 0 0 0 61.722389
-6.6440196 -5.5761442 -0.88067716 0 0 0 0 61.727341
-6.7786989 -5.577158 -0.5883683 0 0 0 0 61.732285
-6.9246778 -5.5916543 -0.32212901 0 0 0 0 61.737236
-7.0336614 -5.5730586 -0.048608817 0 0 0 0 61.74218
-6.283267 -5.5379596 -0.84030586 0 0 0 0 61.747124
-6.4186711 -5.5430746 -0.56098425 0 0 0 0 61.752075
-6.5488715 -5.5441971 -0.30662251 0 0 0 0 61.757019
-6.6879344 -5.5535288 -0.045326468 0 0 0 0 61.761971
-5.929893 -5.4859653 -0.80110139 0 0 0 0 61.766914
-6.0719066 -5.4993482 -0.53481817 0 0 0 0 61.771858
-6.2057714 -5.5076432 -0.29146329 0 0 0 0 61.77681
-6.3437271 -5.5150232 -0.043166246 0 0 0 0 61.781754
-5.6138916 -5.4550357 -0.76624608 0 0 0 0 61.786705
-5.7489958 -5.4602895 -0.51092333 0 0 0 0 61.791649
-5.8748789 -5.4634199 -0.27749771 0 0 0 0 61.796593
-6.0077834 -5.4677238 -0.040155541 0 0 0 0 61.801544
-5.3072414 -5.4113555 -0.73257792 0 0 0 0 61.806488
-5.4498534 -5.4288988 -0.4892818 0 0 0 0 61.81144
-5.5746679 -5.4300599 -0.26585549 0 0 0 0 61.816383
-5.7063484 -5.4383869 -0.037475746 0 0 0 0 61.821335
-5.0321188 -5.3835716 -0.70221549 0 0 0 0 61.826279
-5.1589909 -5.387723 -0.46779704 0 0 0 0 61.831223
-5.2942533 -5.4042463 -0.25441694 0 0 0 0 61.836174
-5.4170928 -5.4023819 -0.035984691 0 0 0 0 61.841118
-4.7592087 -5.3478403 -0.67292196 0 0 0 0 61.846069
-4.8899097 -5.3541555 -0.44754153 0 0 0 0 61.851013
-5.0211043 -5.3686252 -0.24412286 0 0 0 0 61.855957
-5.1477017 -5.3719187 -0.03371026 0 0 0 0 61.860909
-4.5129685 -5.3228698 -0.6469028 0 0 0 0 61.865852
-4.6424732 -5.3322086 -0.430491 0 0 0 0 61.870804
-4.7658086 -5.3384976 -0.23402043 0 0 0 0 61.875748
-4.8902655 -5.3427868 -0.032576088 0 0 0 0 61.880699
-4.2728968 -5.2920585 -0.62099177 0 0 0 0 61.885643
-4.4041739 -5.3055058 -0.41358042 0 0 0 0 61.890587
-4.5253534 -5.3137841 -0.22507195 0 0 0 0 61.895538
-4.6526237 -5.3212047 -0.031647049 0 0 0 0 61.900482
-4.0379238 -5.2573848 -0.59616381 0 0 0 0 61.905434
-4.1739006 -5.2780175 -0.39677262 0 0 0 0 61.910378
-4.2901359 -5.281198 -0.21523166 0 0 0 0 61.915321
-4.4152212 -5.2916074 -0.02976267 0 0 0 0 61.920273
-3.832252 -5.2465553 -0.5745694 0 0 0 0 61.925217
-3.946841 -5.2426119 -0.3810477 0 0 0 0 61.930168
-4.0687742 -5.2530065 -0.20753945 0 0 0 0 61.935112
-4.1927719 -5.2634292 -0.029057814 0 0 0 0 61.940056
-3.6230626 -5.2186098 -0.55302519 0 0 0 0 61.945007
-3.7423224 -5.2228513 -0.36751735 0 0 0 0 61.949951
-3.8592393 -5.2311411 -0.19995807 0 0 0 0 61.954903
-3.9783492 -5.234467 -0.028456366 0 0 0 0 61.959846
-3.4270895 -5.196537 -0.53280789 0 0 0 0 61.654427
-3.5491743 -5.2028732 -0.354305 0 0 0 0 61.65937
-3.664963 -5.2121401 -0.19270732 0 0 0 0 61.664322
-3.780014 -5.2133651 -0.028147046 0 0 0 0 61.669266
-3.2377427 -5.1732221 -0.51351607 0 0 0 0 61.67421
-3.3567269 -5.18051 -0.34096959 0 0 0 0 61.679161
-3.4743991 -5.1908731 -0.18639101 0 0 0 0 61.684105
-3.5863771 -5.19205 -0.027793182 0 0 0 0 61.689056
-3.0505083 -5.145956 -0.49427012 0 0 0 0 61.694
-3.1722641 -5.1583662 -0.32873076 0 0 0 0 61.698944
-3.2849195 -5.166626 -0.18010168 0 0 0 0 61.703896
-3.399781 -5.1689277 -0.028535554 0 0 0 0 61.708839
-2.876936 -5.1300793 -0.47712868 0 0 0 0 61.713791
-2.9927874 -5.1363597 -0.3175509 0 0 0 0 61.718735
-3.1054368 -5.1426497 -0.17393437 0 0 0 0 61.723686
-3.218168 -5.1469307 -0.028330956 0 0 0 0 61.72863
-2.707531 -5.1083083 -0.46007091 0 0 0 0 61.733574
-2.8251107 -5.1216779 -0.30647549 0 0 0 0 61.738525
-2.9337986 -5.1238933 -0.16883333 0 0 0 0 61.743469
-3.0493264 -5.1332855 -0.02823728 0 0 0 0 61.748421
-2.5477049 -5.1008158 -0.44504938 0 0 0 0 61.753365
-2.656743 -5.0959644 -0.29545164 0 0 0 0 61.758308
-2.767144 -5.1062622 -0.16278572 0 0 0 0 61.76326
-2.8844836 -5.1197453 -0.028190473 0 0 0 0 61.768204
-2.3873131 -5.0782871 -0.42910424 0 0 0 0 61.773155
-2.499023 -5.0825524 -0.28548917 0 0 0 0 61.778099
-2.6036725 -5.0817161 -0.15781552 0 0 0 0 61.783043
-2.7236674 -5.105309 -0.02819683 0 0 0 0 61.787994
-2.2337666 -5.0609517 -0.41421327 0 0 0 0 61.792938
-2.3453734 -5.0662522 -0.27659225 0 0 0 0 61.79789
-2.4489045 -5.0674171 -0.15389392 0 0 0 0 61.802834
-2.5621765 -5.0788484 -0.029261069 0 0 0 0 61.807785
-2.0831506 -5.0456977 -0.40034458 0 0 0 0 61.812729
-2.1929052 -5.0439687 -0.2667419 0 0 0 0 61.817673
-2.300091 -5.0552721 -0.14903267 0 0 0 0 61.822624
-2.4113574 -5.0646782 -0.029387189 0 0 0 0 61.827568
-1.9329422 -5.0164361 -0.38555929 0 0 0 0 61.83252
-2.0490279 -5.0359316 -0.25791571 0 0 0 0 61.837463
-2.1552637 -5.0432386 -0.14521879 0 0 0 0 61.842407
-2.2616098 -5.0475368 -0.030541191 0 0 0 0 61.847359
-1.7923242 -5.0014486 -0.37181097 0 0 0 0 61.852303
-1.9036022 -5.0118375 -0.24916004 0 0 0 0 61.857254
-2.0049589 -5.0130305 -0.14043726 0 0 0 0 61.862198
-2.1187601 -5.0345774 -0.030756149 0 0 0 0 61.867142
-1.6537495 -4.9845176 -0.35909733 0 0 0 0 61.872093
-1.7621759 -4.9878492 -0.24045213 0 0 0 0 61.877037
-1.8689753 -5.0062408 -0.1377003 0 0 0 0 61.881989
-1.9779536 -5.0196738 -0.032005712 0 0 0 0 61.886932
-1.5163727 -4.9606109 -0.34643683 0 0 0 0 61.891884
-1.6273122 -4.9790516 -0.23273709 0 0 0 0 61.896828
-1.730401 -4.9853592 -0.13400923 0 0 0 0 61.901772
-1.834613 -4.9886799 -0.032313511 0 0 0 0 61.906723
-1.3855302 -4.9528947 -0.33476314 0 0 0 0 61.911667
-1.4956322 -4.9633403 -0.22610061 0 0 0 0 61.916618
-1.5938268 -4.9645276 -0.13034067 0 0 0 0 61.921562
-1.7026629 -4.9790154 -0.033640552 0 0 0 0 61.926506
-1.2559417 -4.9362035 -0.32315516 0 0 0 0 61.931458
-1.3632051 -4.9395862 -0.21749851 0 0 0 0 61.936401
-1.4659953 -4.95294 -0.12672788 0 0 0 0 61.941353
-1.5698677 -4.9643126 -0.033983164 0 0 0 0 61.946297
-1.1293528 -4.919591 -0.31158265 0 0 0 0 61.951248
-1.2363271 -4.9310002 -0.21087658 0 0 0 0 61.956192
-1.3381516 -4.9413519 -0.12411226 0 0 0 0 61.961136
-1.4392571 -4.9426684 -0.035391878 0 0 0 0 61.966087
-1.0045251 -4.9110308 -0.30098313 0 0 0 0 61.971031
-1.1124763 -4.921494 -0.20429641 0 0 0 0 61.975983
-1.2105477 -4.9217553 -0.12054377 0 0 0 0 61.980927
-1.3161913 -4.9372382 -0.036800273 0 0 0 0 61.98587
-0.88195157 -4.8935251 -0.2904624 0 0 0 0 61.990822
-0.98693842 -4.9009295 -0.19775656 0 0 0 0 61.995766
-1.0886458 -4.9123244 -0.11798677 0 0 0 0 62.000717
-1.1913815 -4.922749 -0.038236536 0 0 0 0 62.005661
-0.76217949 -4.8830957 -0.27993381 0 0 0 0 62.010605
-0.86708719 -4.8915248 -0.19122212 0 0 0 0 62.015556
-0.96761793 -4.90692 -0.11641488 0 0 0 0 62.0205
-1.0676568 -4.905283 -0.039701637 0 0 0 0 62.025452
-0.64166373 -4.8636355 -0.26944599 0 0 0 0 62.030396
-0.74925107 -4.8811769 -0.18571678 0 0 0 0 62.035347
-0.84697169 -4.8885088 -0.11392158 0 0 0 0 62.040291
-0.94859028 -4.8999486 -0.041153148 0 0 0 0 62.045235
-0.52579331 -4.8563128 -0.25994456 0 0 0 0 62.050186
-0.62968487 -4.861764 -0.17923969 0 0 0 0 62.05513
-0.73006916 -4.8792019 -0.1114207 0 0 0 0 62.060081
-0.8298077 -4.8846126 -0.042664528 0 0 0 0 62.065025
-0.40930614 -4.8359551 -0.24950923 0 0 0 0 62.069969
-0.51479197 -4.8534889 -0.17375521 0 0 0 0 62.074921
-0.61228126 -4.8658628 -0.10892951 0 0 0 0 62.079865
-0.71216738 -4.8643007 -0.044217497 0 0 0 0 62.084816
-0.29431015 -4.832653 -0.24099052 0 0 0 0 62.08976
-0.39904222 -4.8401818 -0.16828674 0 0 0 0 62.094704
-0.49566409 -4.8465486 -0.10648621 0 0 0 0 62.099655
-0.59795755 -4.8640895 -0.04569409 0 0 0 0 62.104599
-0.18061136 -4.8193727 -0.23154478 0 0 0 0 62.10955
-0.28426427 -4.8278971 -0.16282238 0 0 0 0 62.114494
-0.3826915 -4.839344 -0.10501648 0 0 0 0 62.119446
-0.48126128 -4.8457937 -0.047242459 0 0 0 0 62.12439
-0.068028033 -4.8091078 -0.22316651 0 0 0 0 62.099594
-0.17252755 -4.8216758 -0.15743069 0 0 0 0 62.104538
-0.2681033 -4.8260617 -0.10362898 0 0 0 0 62.109482
-0.36856303 -4.83459 -0.049866796 0 0 0 0 62.114433
0.044499494 -4.7898512 -0.21376824 0 0 0 0 62.119377
-0.060948048 -4.8024726 -0.15204562 0 0 0 0 62.124329
-0.15710196 -4.8199067 -0.10217559 0 0 0 0 62.129272
-0.25475237 -4.8203721 -0.051425569 0 0 0 0 62.134216
0.15529616 -4.7796483 -0.20533675 0 0 0 0 62.139168
0.051772211 -4.7882333 -0.14661407 0 0 0 0 62.144112
-0.045443259 -4.801723 -0.10078225 0 0 0 0 62.149063
-0.14375688 -4.8122373 -0.053982701 0 0 0 0 62.154007
0.26485157 -4.7614655 -0.19596605 0 0 0 0 62.158951
0.16261974 -4.7780495 -0.14218064 0 0 0 0 62.163902
0.065287456 -4.7865543 -0.098380722 0 0 0 0 62.168846
-0.032117438 -4.7920675 -0.055600066 0 0 0 0 62.173798
0.37573221 -4.75425 -0.18751103 0 0 0 0 62.178741
0.27158177 -4.7719159 -0.13774537 0 0 0 0 62.183693
0.17605899 -4.7723861 -0.096970484 0 0 0 0 62.188637
0.07799165 -4.7879486 -0.058140188 0 0 0 0 62.193581
0.48548314 -4.7420659 -0.1800978 0 0 0 0 62.198532
0.38107294 -4.7497492 -0.13239565 0 0 0 0 62.203476
0.28590047 -4.7602468 -0.096558094 0 0 0 0 62.208427
0.18763056 -4.7678256 -0.059778672 0 0 0 0 62.213371
0.59624821 -4.7308407 -0.17166321 0 0 0 0 62.218315
0.49103329 -4.7435765 -0.12794285 0 0 0 0 62.223267
0.39707071 -4.7600613 -0.095055044 0 0 0 0 62.22821
0.29751033 -4.7556996 -0.062364414 0 0 0 0 62.233162
0.70601314 -4.7196388 -0.16323911 0 0 0 0 62.238106
0.60182112 -4.7313719 -0.12351258 0 0 0 0 62.243057
0.50444144 -4.7319689 -0.093764678 0 0 0 0 62.248001
0.40858927 -4.7505369 -0.064890817 0 0 0 0 62.252945
0.81470507 -4.7054682 -0.15584441 0 0 0 0 62.257896
0.71043736 -4.7132215 -0.11914363 0 0 0 0 62.26284
0.61662358 -4.7317505 -0.093243808 0 0 0 0 62.267792
0.51861131 -4.7433977 -0.067440286 0 0 0 0 62.272736
0.92318243 -4.6842885 -0.14749172 0 0 0 0 62.277679
0.82042474 -4.7080321 -0.11467741 0 0 0 0 62.282631
0.72536421 -4.7166128 -0.091854043 0 0 0 0 62.287575
0.62706029 -4.7162914 -0.070126645 0 0 0 0 62.292526
1.0351577 -4.680016 -0.13999054 0 0 0 0 62.29747
0.93118179 -4.6948118 -0.11024647 0 0 0 0 62.302414
0.83403111 -4.6984777 -0.091480844 0 0 0 0 62.307365
0.73828149 -4.7161098 -0.072614297 0 0 0 0 62.312309
1.1469759 -4.6707339 -0.13151862 0 0 0 0 62.317261
1.0386813 -4.6726761 -0.10590889 0 0 0 0 62.322205
0.94598275 -4.6902461 -0.091003299 0 0 0 0 62.327156
0.84698701 -4.6979885 -0.075239256 0 0 0 0 62.3321
1.2565491 -4.652514 -0.12412706 0 0 0 0 62.337044
1.1538212 -4.6723294 -0.10233912 0 0 0 0 62.341995
1.0568769 -4.6800389 -0.090548992 0 0 0 0 62.346939
0.95769072 -4.6798038 -0.077836059 0 0 0 0 62.351891
1.3650512 -4.6323118 -0.11575898 0 0 0 0 62.356834
1.2634172 -4.6531305 -0.09895201 0 0 0 0 62.361778
1.1675563 -4.6628232 -0.089136772 0 0 0 0 62.36673
1.0698087 -4.6755853 -0.081328765 0 0 0 0 62.371674
1.477707 -4.616993 -0.108305 0 0 0 0 62.376625
1.3730568 -4.6359186 -0.094550036 0 0 0 0 62.381569
1.2805189 -4.6545525 -0.089639023 0 0 0 0 62.386513
1.1816965 -4.6633649 -0.084869765 0 0 0 0 62.391464
1.5850058 -4.5898123 -0.099989861 0 0 0 0 62.396408
1.4868084 -4.6225839 -0.090068489 0 0 0 0 62.40136
1.39121 -4.637332 -0.089222036 0 0 0 0 62.406303
1.2944548 -4.6471057 -0.087420903 0 0 0 0 62.411255
1.5584456 -4.193265 -0.082641661 0 0 0 0 62.416199
