# .PCD v0.7 - Point Cloud Data file format
VERSION 0.7
FIELDS x y z normal_x normal_y normal_z intensity curvature
SIZE 4 4 4 4 4 4 4 4
TYPE F F F F F F F F
COUNT 1 1 1 1 1 1 1 1
WIDTH 180
HEIGHT 1
VIEWPOINT 0 0 0 1 0 0 0
POINTS 180
DATA ascii
-9.4585772 20.793575 0.68014818 0 0 0 0 40.707825
-10.269809 20.393152 0.081356548 0 0 0 0 40.712772
-11.056632 20.302401 0.14055213 0 0 0 0 40.71772
-11.876436 20.189623 0.1927546 0 0 0 0 40.722668
-10.036655 20.441483 0.022311265 0 0 0 0 40.727615
-10.839451 20.320721 0.07850913 0 0 0 0 40.732563
-11.638284 20.24197 0.15570566 0 0 0 0 40.737507
-11.795012 19.029854 0.21373028 0 0 0 0 40.742455
-10.605304 20.371056 0.0034631987 0 0 0 0 40.747402
-11.421104 20.257294 0.076662116 0 0 0 0 40.75235
-11.836297 19.518927 0.1647547 0 0 0 0 40.757298
-11.646617 17.867146 0.23068793 0 0 0 0 40.762245
-11.194959 20.304623 -0.015382388 0 0 0 0 40.767189
-11.96067 20.099922 0.073800959 0 0 0 0 40.772137
-11.663827 18.269241 0.16870508 0 0 0 0 40.777084
-12.157238 17.741806 0.26081693 0 0 0 0 40.782032
-11.785609 20.232204 -0.036230527 0 0 0 0 40.78698
-11.741073 18.70928 0.067737587 0 0 0 0 40.791927
-11.936101 17.776133 0.17877118 0 0 0 0 40.796871
-12.723929 17.688429 0.29195786 0 0 0 0 40.801819
-11.736253 19.083399 -0.053249937 0 0 0 0 40.806767
-11.754958 17.796417 0.061735388 0 0 0 0 40.811714
-12.507792 17.718752 0.19391277 0 0 0 0 40.816662
-13.290602 17.614065 0.32409585 0 0 0 0 40.821609
-11.588876 17.879684 -0.068295173 0 0 0 0 40.826553
-12.314634 17.718052 0.06087324 0 0 0 0 40.831501
-13.073468 17.643394 0.20805003 0 0 0 0 40.836449
-13.874274 17.535702 0.35723507 0 0 0 0 40.841396
-12.114513 17.755356 -0.088166572 0 0 0 0 40.846344
-12.896328 17.657682 0.059013911 0 0 0 0 40.851288
-13.657139 17.559032 0.22518864 0 0 0 0 40.856236
-14.467945 17.454342 0.39137384 0 0 0 0 40.861183
-12.711219 17.702974 -0.10602283 0 0 0 0 40.866131
-13.480008 17.578325 0.057152011 0 0 0 0 40.871078
-14.259821 17.48567 0.2403291 0 0 0 0 40.876026
-15.072601 17.354992 0.42751202 0 0 0 0 40.88097
-13.296898 17.619621 -0.12588494 0 0 0 0 40.885918
-14.091692 17.502958 0.056293827 0 0 0 0 40.890865
-14.882506 17.413307 0.25647134 0 0 0 0 40.895813
-15.720294 17.293617 0.46265787 0 0 0 0 40.900761
-13.906577 17.53326 -0.14474441 0 0 0 0 40.905708
-14.707368 17.415606 0.055433463 0 0 0 0 40.910652
-15.531189 17.335938 0.27461639 0 0 0 0 40.9156
-16.390984 17.228243 0.5008058 0 0 0 0 40.920547
-14.543277 17.467892 -0.16660024 0 0 0 0 40.925495
-15.364058 17.342234 0.054579664 0 0 0 0 40.930443
-16.177858 17.240585 0.2927576 0 0 0 0 40.93539
-16.71035 16.775181 0.52986413 0 0 0 0 40.940334
-15.192966 17.388531 -0.18745644 0 0 0 0 40.945282
-16.027742 17.259874 0.052724179 0 0 0 0 40.95023
-16.691389 16.976362 0.30986267 0 0 0 0 40.955177
-16.95368 16.264191 0.5549022 0 0 0 0 40.960125
-15.871654 17.305164 -0.20830941 0 0 0 0 40.965069
-16.651373 17.108562 0.050855242 0 0 0 0 40.970016
-16.924702 16.439384 0.3188974 0 0 0 0 40.974964
-16.884796 15.472466 0.56986368 0 0 0 0 40.979912
-16.552332 17.205812 -0.23116547 0 0 0 0 40.984859
-16.827625 16.488634 0.049875025 0 0 0 0 40.989807
-16.896843 15.670625 0.32486802 0 0 0 0 40.994751
-16.778942 14.690767 0.58281624 0 0 0 0 40.999699
-16.69355 16.534912 -0.24415493 0 0 0 0 41.004646
-16.790972 14.859925 0.32981959 0 0 0 0 41.014542
-16.69515 13.962049 0.59477389 0 0 0 0 41.019489
-16.716179 14.1212 0.3327786 0 0 0 0 41.034328
-16.627405 13.272315 0.60773498 0 0 0 0 41.039276
-16.629416 13.396482 0.33773443 0 0 0 0 41.054115
-16.171484 12.319878 0.60560679 0 0 0 0 41.059063
-16.118454 12.385082 0.33259335 0 0 0 0 41.073906
-16.025795 11.646195 0.61355084 0 0 0 0 41.07885
-16.093409 12.422265 0.036585025 0 0 0 0 41.088745
-15.966758 11.692402 0.33453551 0 0 0 0 41.093693
-15.987195 11.071429 0.6255191 0 0 0 0 41.09864
-16.004347 12.436496 -0.28443685 0 0 0 0 41.103588
-15.929702 11.708592 0.034523949 0 0 0 0 41.108532
-15.925155 11.102637 0.33950248 0 0 0 0 41.11348
-15.916614 10.498685 0.63547999 0 0 0 0 41.118427
-15.873654 11.730797 -0.2904911 0 0 0 0 41.123375
-15.877095 11.105834 0.032488011 0 0 0 0 41.128323
-15.871577 10.52988 0.34446663 0 0 0 0 41.13327
-16.198214 10.161687 0.6615178 0 0 0 0 41.138214
-15.820042 11.113039 -0.29752794 0 0 0 0 41.143162
-15.813509 10.511085 0.03144924 0 0 0 0 41.148109
-16.151178 10.187886 0.35450336 0 0 0 0 41.153057
-16.20471 9.6638889 0.67449427 0 0 0 0 41.158005
-15.753452 10.50429 -0.30356795 0 0 0 0 41.162952
-16.133659 9.6601038 0.36047387 0 0 0 0 41.172844
-0.40643474 0.21799821 0.015879976 0 0 0 0 40.936958
-0.40345451 0.24100141 -0.0091159483 0 0 0 0 40.941906
-0.41244072 0.23299374 -0.001109949 0 0 0 0 40.946854
-0.41142255 0.21999449 0.0078937225 0 0 0 0 40.951801
-0.40837389 0.1949973 0.016913434 0 0 0 0 40.976536
-0.36837584 0.19703081 -0.0080909673 0 0 0 0 40.981483
-0.38936833 0.19601347 -0.0010822474 0 0 0 0 40.986431
-0.40535963 0.19400027 0.0079253437 0 0 0 0 40.991375
-0.42532143 0.18098453 0.017950218 0 0 0 0 41.016113
-0.3743189 0.17702588 -0.0090565151 0 0 0 0 41.021057
-0.40131369 0.17900434 -0.001046546 0 0 0 0 41.026005
-0.43931198 0.18597424 0.0089658499 0 0 0 0 41.030952
-0.43426585 0.16197883 0.01898499 0 0 0 0 41.055687
-0.40427145 0.16800286 -0.010016887 0 0 0 0 41.060635
-0.44326836 0.1729729 -0.0010044805 0 0 0 0 41.065582
-0.45325643 0.16696519 0.010001576 0 0 0 0 41.07053
-0.48322055 0.15594377 0.022028159 0 0 0 0 41.095264
-0.45922893 0.1649629 -0.010972292 0 0 0 0 41.100212
-0.47121742 0.15895401 -0.00096589333 0 0 0 0 41.105156
-0.4952085 0.15693633 0.011043044 0 0 0 0 41.110104
-0.39914742 0.10900691 0.019043026 0 0 0 0 41.134838
-0.43516564 0.13298224 -0.010944848 0 0 0 0 41.139786
-0.4251509 0.12198922 -0.00094303081 0 0 0 0 41.144733
-0.40413412 0.10800391 0.0090565179 0 0 0 0 41.149681
-0.38809341 0.08701507 0.019073548 0 0 0 0 41.174416
-0.38410112 0.097018868 -0.0099227019 0 0 0 0 41.179363
-0.39609185 0.093010366 -0.00091633241 0 0 0 0 41.184311
-0.39708099 0.087009393 0.0090878215 0 0 0 0 41.189255
-0.34303829 0.061045337 0.017097453 0 0 0 0 41.213993
-0.38604996 0.078017756 -0.0098895552 0 0 0 0 41.218937
-0.38103887 0.071020752 -0.00088658341 0 0 0 0 41.223885
-0.35902572 0.061034806 0.0091130668 0 0 0 0 41.228832
-0.35999224 0.048033521 0.018133694 0 0 0 0 41.253567
-0.37299851 0.057026282 -0.009859357 0 0 0 0 41.258514
-0.35298645 0.048038565 -0.00085922988 0 0 0 0 41.263462
-0.36297804 0.045031808 0.0091466876 0 0 0 0 41.26841
-0.35994443 0.031033006 0.019166488 0 0 0 0 41.293144
-0.34994799 0.036040165 -0.0088309404 0 0 0 0 41.298092
-0.35993928 0.03203366 0.00017489248 0 0 0 0 41.30304
-0.36593068 0.028029623 0.009179987 0 0 0 0 41.307983
-0.36189833 0.015031355 0.019199612 0 0 0 0 41.332718
-0.35490125 0.019036608 -0.0097972797 0 0 0 0 41.337666
-0.35789257 0.015034375 0.00020725909 0 0 0 0 41.342613
-0.36588398 0.011029277 0.010212672 0 0 0 0 41.347561
-0.35985342 3.2002346e-05 0.020232011 0 0 0 0 41.372295
-0.35985523 0.0020332707 -0.009763726 0 0 0 0 41.377243
-0.35884735 -0.00096667523 0.00024014221 0 0 0 0 41.382191
-0.36983892 -0.0049732276 0.010246023 0 0 0 0 41.387138
-0.36194286 -0.015967954 0.021139067 0 0 0 0 41.262417
-0.35794479 -0.014964283 -0.0098574637 0 0 0 0 41.267365
-0.35793659 -0.017964734 0.00014658888 0 0 0 0 41.272312
-0.36192846 -0.020967681 0.010151375 0 0 0 0 41.27726
-0.35689768 -0.031965353 0.021170856 0 0 0 0 41.301994
-0.35489887 -0.03196295 -0.0098253349 0 0 0 0 41.306942
-0.35489088 -0.034963429 0.00017870696 0 0 0 0 41.311886
-0.36088273 -0.037967533 0.011183826 0 0 0 0 41.316833
-0.36185256 -0.048968855 0.022204351 0 0 0 0 41.341568
-0.35885328 -0.049965814 -0.0097920578 0 0 0 0 41.346516
-0.36384547 -0.052969165 0.00021285146 0 0 0 0 41.351463
-0.36783752 -0.055971965 0.011217579 0 0 0 0 41.356411
-0.36480832 -0.065970995 0.023237394 0 0 0 0 41.381145
-0.36180809 -0.068967916 -0.0097590983 0 0 0 0 41.386093
-0.36280099 -0.070968963 0.00024513804 0 0 0 0 41.391041
-0.3647936 -0.072970636 0.012249543 0 0 0 0 41.395988
-0.36176574 -0.081969775 0.023269387 0 0 0 0 41.420723
-0.36876354 -0.088971913 -0.010725619 0 0 0 0 41.425667
-0.37375575 -0.0919751 0.0012792209 0 0 0 0 41.430614
-0.3877475 -0.095982924 0.013285503 0 0 0 0 41.435562
-0.37872064 -0.10397883 0.025304319 0 0 0 0 41.460297
-0.38771737 -0.11398155 -0.010690562 0 0 0 0 41.465244
-0.38371179 -0.11298013 0.0013129683 0 0 0 0 41.470192
-0.38770473 -0.11498266 0.013317651 0 0 0 0 41.47514
-0.3536824 -0.11496691 0.024332896 0 0 0 0 41.499874
-0.35068041 -0.12196387 -0.0096637839 0 0 0 0 41.504822
-0.35667363 -0.12396731 0.0013412113 0 0 0 0 41.509769
-0.35966718 -0.12496939 0.013345775 0 0 0 0 41.514713
-0.39563414 -0.14798661 0.028370859 0 0 0 0 41.539448
-0.39763084 -0.15998538 -0.010625343 0 0 0 0 41.544395
-0.38962618 -0.15698248 0.0023777012 0 0 0 0 41.549343
-0.39961886 -0.15998749 0.015383193 0 0 0 0 41.554291
-0.41059047 -0.17499259 0.030404599 0 0 0 0 41.579025
-0.39758939 -0.18298481 -0.010593678 0 0 0 0 41.583973
-0.42857769 -0.19699833 0.0024142931 0 0 0 0 41.588921
-0.45656693 -0.20801057 0.018421942 0 0 0 0 41.593868
-0.43754494 -0.2100026 0.033439413 0 0 0 0 41.618603
-0.36055604 -0.18796979 -0.0095664673 0 0 0 0 41.62355
-0.39554405 -0.20398419 0.0034418236 0 0 0 0 41.628494
-0.43253151 -0.22099926 0.018450303 0 0 0 0 41.633442
-0.43350634 -0.23199965 0.034470212 0 0 0 0 41.658176
-0.3585169 -0.20996948 -0.009535009 0 0 0 0 41.663124
-0.3865062 -0.22398046 0.0034722304 0 0 0 0 41.668072
-0.42849264 -0.24499644 0.019480981 0 0 0 0 41.673019
-0.45146352 -0.26900458 0.037503086 0 0 0 0 41.697754
-8.6076622 -5.405735 0.73830867 0 0 0 0 41.717541
