# .PCD v0.7 - Point Cloud Data file format
VERSION 0.7
FIELDS x y z normal_x normal_y normal_z intensity curvature
SIZE 4 4 4 4 4 4 4 4
TYPE F F F F F F F F
COUNT 1 1 1 1 1 1 1 1
WIDTH 973
HEIGHT 1
VIEWPOINT 0 0 0 1 0 0 0
POINTS 973
DATA ascii
-0.53572053 -0.01745034 0.39626804 0 0 0 0 20.963718
-0.52361721 0.017874835 0.49392968 0 0 0 0 20.978561
-0.52076662 -0.017976779 0.41735855 0 0 0 0 20.988453
-0.51905715 -0.0065801446 0.44924143 0 0 0 0 20.993401
-0.53345954 0.0068154554 0.50304252 0 0 0 0 20.998348
-0.54631531 -0.043514919 0.40657184 0 0 0 0 21.003296
-0.54332173 -0.0032325138 0.51314348 0 0 0 0 21.018135
-0.56712836 -0.058642738 0.42469022 0 0 0 0 21.023083
-0.53840274 -0.043072861 0.43462485 0 0 0 0 21.02803
-0.53170997 -0.029644256 0.46250293 0 0 0 0 21.032978
-0.54112506 -0.014228189 0.51129949 0 0 0 0 21.037922
-0.57523829 -0.060281422 0.46770814 0 0 0 0 21.047817
-0.54192376 -0.026236696 0.51245582 0 0 0 0 21.057713
-0.59970266 -0.090823874 0.45498195 0 0 0 0 21.06266
-0.59704703 -0.076390438 0.48883402 0 0 0 0 21.067604
-0.55635631 -0.055770997 0.48675463 0 0 0 0 21.072552
-0.53872424 -0.037228085 0.50961483 0 0 0 0 21.077499
-0.63747603 -0.11204633 0.48810741 0 0 0 0 21.082447
-0.60082656 -0.090410329 0.49300182 0 0 0 0 21.087395
-0.57117516 -0.069839098 0.50188267 0 0 0 0 21.092342
-0.54755259 -0.049271185 0.51874167 0 0 0 0 21.097286
-5.4342775 -1.1697109 4.3976383 0 0 0 0 21.102234
-0.61959749 -0.10849424 0.51216102 0 0 0 0 21.107182
-0.58096433 -0.084873848 0.51303989 0 0 0 0 21.112129
-0.55937999 -0.062315546 0.53186882 0 0 0 0 21.117077
-5.3842897 -1.2920532 4.3862514 0 0 0 0 21.122025
-5.1206894 -1.0919418 4.466958 0 0 0 0 21.126968
-0.61877221 -0.10503982 0.55115324 0 0 0 0 21.131916
-0.5651862 -0.075333945 0.53901744 0 0 0 0 21.136864
-5.3563108 -1.4185253 4.3938284 0 0 0 0 21.141811
-5.0888433 -1.2074728 4.4644241 0 0 0 0 21.146759
-4.8302779 -0.99875808 4.5180125 0 0 0 0 21.151703
-4.5668859 -0.78086621 4.5805163 0 0 0 0 21.156651
-5.3143706 -1.5408707 4.3934059 0 0 0 0 21.161598
-5.0490341 -1.3199252 4.4578815 0 0 0 0 21.166546
-4.8005738 -1.1043741 4.5113554 0 0 0 0 21.171494
-4.5523047 -0.87966728 4.5787268 0 0 0 0 21.176441
-5.2664557 -1.6611575 4.3899789 0 0 0 0 21.181385
-5.023232 -1.4354385 4.4653196 0 0 0 0 21.186333
-4.7768908 -1.2109822 4.5136852 0 0 0 0 21.19128
-4.5317359 -0.97739762 4.5749445 0 0 0 0 21.196228
-5.2684393 -1.7987146 4.4315629 0 0 0 0 21.201176
-4.9914389 -1.549893 4.4697647 0 0 0 0 21.206123
-4.7442131 -1.3155416 4.5080214 0 0 0 0 21.211067
-4.5191712 -1.0771512 4.5801535 0 0 0 0 21.216015
-5.2654276 -1.9361944 4.4731617 0 0 0 0 21.220963
-4.9426813 -1.6592313 4.4612103 0 0 0 0 21.22591
-4.7135696 -1.4190879 4.5063362 0 0 0 0 21.230858
-4.4976091 -1.1748669 4.5763698 0 0 0 0 21.235806
-5.2275081 -2.0614479 4.4867449 0 0 0 0 21.240749
-4.9129214 -1.77364 4.4726415 0 0 0 0 21.245697
-4.6839132 -1.5246052 4.508667 0 0 0 0 21.250645
-4.4719019 -1.2716287 4.5727134 0 0 0 0 21.255592
-5.1625471 -2.1765819 4.4814191 0 0 0 0 21.26054
-4.931879 -1.9083606 4.532238 0 0 0 0 21.265488
-4.6491284 -1.6281794 4.5081077 0 0 0 0 21.270432
-4.4523621 -1.3702875 4.5769229 0 0 0 0 21.275379
-5.114706 -2.2967198 4.4919658 0 0 0 0 21.280327
-4.9060984 -2.0267336 4.5526872 0 0 0 0 21.285275
-4.6205029 -1.7336479 4.5164227 0 0 0 0 21.290222
-4.4278107 -1.4689144 4.5771475 0 0 0 0 21.295166
-5.0290098 -2.4006202 4.4714622 0 0 0 0 21.300114
-4.8583679 -2.1379695 4.5551314 0 0 0 0 21.305061
-4.5868821 -1.8380853 4.520741 0 0 0 0 21.310009
-4.394289 -1.5644699 4.5713668 0 0 0 0 21.314957
-5.0170269 -2.5389023 4.5190792 0 0 0 0 21.319904
-4.8096638 -2.2481694 4.5595646 0 0 0 0 21.324848
-4.6140709 -1.9697468 4.5891466 0 0 0 0 21.329796
-4.3677521 -1.6630448 4.5735922 0 0 0 0 21.334743
-4.7530046 -2.3543148 4.5579772 0 0 0 0 21.344639
-4.5814204 -2.0781224 4.6005006 0 0 0 0 21.349586
-4.3332481 -1.7585533 4.5708098 0 0 0 0 21.35453
-4.5468087 -2.1844316 4.6109052 0 0 0 0 21.474834
-4.3046927 -1.8580358 4.5761333 0 0 0 0 21.479782
-4.491282 -2.2816617 4.6042013 0 0 0 0 21.494625
-4.3260236 -1.979705 4.6364331 0 0 0 0 21.499569
-4.7542443 -2.9874861 4.5451264 0 0 0 0 21.504517
-4.5841656 -2.6725218 4.5712295 0 0 0 0 21.509464
-4.4506798 -2.3879337 4.614543 0 0 0 0 21.514412
-4.3034701 -2.0841796 4.6536937 0 0 0 0 21.51936
-4.6538086 -3.0761895 4.5234761 0 0 0 0 21.524307
-4.5295691 -2.7785881 4.5806141 0 0 0 0 21.529251
-4.3802528 -2.4760828 4.5947847 0 0 0 0 21.534199
-4.2679391 -2.1845896 4.6589513 0 0 0 0 21.539146
-4.5762634 -3.177969 4.5268884 0 0 0 0 21.544094
-4.4719801 -2.8845992 4.5910048 0 0 0 0 21.549042
-4.4053192 -2.6215315 4.6803265 0 0 0 0 21.553989
-4.2344265 -2.2849874 4.6681991 0 0 0 0 21.558933
-4.498713 -3.2807286 4.5323081 0 0 0 0 21.563881
-4.4094343 -2.9875588 4.5993762 0 0 0 0 21.568829
-4.3219609 -2.7035856 4.6515398 0 0 0 0 21.573776
-4.1939116 -2.3843462 4.6714568 0 0 0 0 21.578724
-4.4271522 -3.3864827 4.5467372 0 0 0 0 21.583672
-4.3419237 -3.0874887 4.6037283 0 0 0 0 21.588615
-4.2475739 -2.7906349 4.6357756 0 0 0 0 21.593563
-4.1365013 -2.4736137 4.6596594 0 0 0 0 21.598511
-4.3585534 -3.496218 4.5671968 0 0 0 0 21.603458
-4.2744422 -3.186388 4.6110654 0 0 0 0 21.608406
-4.1910791 -2.8897269 4.6410785 0 0 0 0 21.61335
-4.0910392 -2.5698991 4.6628952 0 0 0 0 21.618298
-4.277101 -3.5938923 4.5755644 0 0 0 0 21.623245
-4.1910768 -3.274224 4.6023335 0 0 0 0 21.628193
-4.1345987 -2.9887877 4.6493783 0 0 0 0 21.633141
-4.1081676 -2.7103119 4.7413988 0 0 0 0 21.638088
-4.1926713 -3.6905131 4.5849285 0 0 0 0 21.643032
-4.11766 -3.3690484 4.6086407 0 0 0 0 21.64798
-4.0751452 -3.0858274 4.655664 0 0 0 0 21.652927
-4.0229378 -2.7824471 4.7035007 0 0 0 0 21.657875
-4.0983582 -3.7771072 4.5832119 0 0 0 0 21.662823
-4.0591259 -3.4759033 4.6330261 0 0 0 0 21.66777
-4.0087309 -3.1797962 4.658937 0 0 0 0 21.672714
-3.9575715 -2.8695996 4.6916966 0 0 0 0 21.677662
-4.0298009 -3.8877218 4.6156688 0 0 0 0 21.68261
-3.9817309 -3.5696721 4.6393299 0 0 0 0 21.687557
-3.9373751 -3.2687578 4.6561685 0 0 0 0 21.692505
-3.9021502 -2.9637506 4.6939325 0 0 0 0 21.697453
-3.9365039 -3.9752603 4.6209531 0 0 0 0 21.702396
-3.9093215 -3.666431 4.6536465 0 0 0 0 21.707344
-3.8719723 -3.3636804 4.6654425 0 0 0 0 21.712292
-3.843744 -3.0568693 4.6951647 0 0 0 0 21.717239
-3.845212 -4.063777 4.6312394 0 0 0 0 21.722187
-3.8270094 -3.7551301 4.6599054 0 0 0 0 21.727131
-3.8026013 -3.4555995 4.6696944 0 0 0 0 21.732079
-3.7922845 -3.1559851 4.7064366 0 0 0 0 21.737026
-3.7549217 -4.1532683 4.6455293 0 0 0 0 21.741974
-3.7427425 -3.8408129 4.6651349 0 0 0 0 21.746922
-3.7461243 -3.5594859 4.6950307 0 0 0 0 21.751869
-3.7308958 -3.2490294 4.7106729 0 0 0 0 21.756813
-3.6597118 -4.2367315 4.655767 0 0 0 0 21.761761
-3.675281 -3.9445124 4.692502 0 0 0 0 21.766708
-3.6708169 -3.6473308 4.6982532 0 0 0 0 21.771656
-3.6566215 -3.3310556 4.6988297 0 0 0 0 21.776604
-3.5664649 -4.3241625 4.6720386 0 0 0 0 21.781551
-3.586081 -4.0261264 4.6976986 0 0 0 0 21.786495
-3.5945082 -3.73613 4.7044859 0 0 0 0 21.791443
-3.6061344 -3.4350715 4.7211432 0 0 0 0 21.796391
-3.4673212 -4.403573 4.6822405 0 0 0 0 21.801338
-3.4958837 -4.107728 4.7028952 0 0 0 0 21.806286
-3.521178 -3.8279111 4.7167387 0 0 0 0 21.811234
-3.5407619 -3.5280395 4.7273846 0 0 0 0 21.816177
-3.3544354 -4.4619761 4.6742554 0 0 0 0 21.821125
-3.4116213 -4.1963024 4.7191458 0 0 0 0 21.826073
-3.4428976 -3.915664 4.7249618 0 0 0 0 21.83102
-3.4783685 -3.6239893 4.739645 0 0 0 0 21.835968
-3.2031698 -4.4673824 4.6128201 0 0 0 0 21.840916
-3.3224537 -4.2778492 4.7313328 0 0 0 0 21.84586
-3.3665955 -4.0063834 4.7392077 0 0 0 0 21.850807
-3.4139583 -3.7218781 4.754931 0 0 0 0 21.855755
-3.0618553 -4.4788103 4.5634146 0 0 0 0 21.860703
-3.2362077 -4.3663664 4.7505836 0 0 0 0 21.86565
-3.2834046 -4.0880895 4.7453756 0 0 0 0 21.870594
-3.339668 -3.8097291 4.7601385 0 0 0 0 21.875542
-2.923552 -4.4902544 4.5169973 0 0 0 0 21.880489
-3.1421144 -4.4428673 4.7607269 0 0 0 0 21.885437
-3.1991704 -4.1737385 4.7555876 0 0 0 0 21.890385
-3.2545102 -3.8855827 4.7502489 0 0 0 0 21.895332
-2.7902396 -4.5037122 4.4765835 0 0 0 0 21.900276
-3.0273452 -4.4913759 4.7416329 0 0 0 0 21.905224
-3.1159527 -4.2593627 4.7697935 0 0 0 0 21.910172
-3.1900573 -3.9893584 4.7765913 0 0 0 0 21.915119
-2.6619334 -4.5181823 4.442162 0 0 0 0 21.920067
-2.8920093 -4.5039263 4.6902151 0 0 0 0 21.925014
-3.031738 -4.344975 4.7839994 0 0 0 0 21.929958
-3.1157403 -4.0811405 4.7888327 0 0 0 0 21.934906
-2.5346758 -4.5292034 4.4050841 0 0 0 0 22.413483
-2.7459161 -4.4930453 4.6159973 0 0 0 0 22.41843
-2.9435127 -4.4250369 4.7936187 0 0 0 0 22.423378
-3.0352807 -4.1693068 4.7966032 0 0 0 0 22.428326
-2.4104083 -4.542738 4.3746171 0 0 0 0 22.43327
-2.6234989 -4.5156603 4.5806212 0 0 0 0 22.438217
-2.8504367 -4.5026159 4.8027287 0 0 0 0 22.443165
-2.9580073 -4.2620311 4.8138237 0 0 0 0 22.448112
-2.2823045 -4.5433044 4.3360243 0 0 0 0 22.45306
-2.4991748 -4.5312819 4.5421758 0 0 0 0 22.458004
-2.7328255 -4.5392723 4.770484 0 0 0 0 22.462952
-2.8718352 -4.3457346 4.8209748 0 0 0 0 22.467899
-2.1621063 -4.5528727 4.3084993 0 0 0 0 22.472847
-2.373929 -4.5409245 4.500669 0 0 0 0 22.477795
-2.5966415 -4.5390186 4.7039084 0 0 0 0 22.482742
-2.7876055 -4.4353848 4.8361797 0 0 0 0 22.487686
-2.0458732 -4.5664291 4.288002 0 0 0 0 22.492634
-2.2507081 -4.5495682 4.4621429 0 0 0 0 22.497581
-2.4624717 -4.5387554 4.641325 0 0 0 0 22.502529
-2.6974943 -4.5150471 4.8422956 0 0 0 0 22.507477
-1.9296923 -4.5760098 4.2654614 0 0 0 0 22.512424
-2.1275651 -4.552247 4.4205527 0 0 0 0 22.517368
-2.3381915 -4.5494809 4.5938239 0 0 0 0 22.522316
-2.5808315 -4.5547566 4.807075 0 0 0 0 22.527264
-1.8164769 -4.5895638 4.2499514 0 0 0 0 22.532211
-2.0132608 -4.5698795 4.3960896 0 0 0 0 22.537159
-2.2149446 -4.5582132 4.5472965 0 0 0 0 22.542107
-2.4436703 -4.5506129 4.7294583 0 0 0 0 22.54705
-1.7062352 -4.6061115 4.2394619 0 0 0 0 22.551998
-1.8970602 -4.5795293 4.367548 0 0 0 0 22.556946
-2.093668 -4.5699358 4.5047936 0 0 0 0 22.561893
-2.3173356 -4.5633974 4.6739836 0 0 0 0 22.566841
-1.5941155 -4.6127086 4.2218728 0 0 0 0 22.571785
-1.782863 -4.5892005 4.3399982 0 0 0 0 22.576733
-1.9763972 -4.5826559 4.468286 0 0 0 0 22.58168
-2.194989 -4.5781908 4.6235147 0 0 0 0 22.586628
-1.4820396 -4.6163096 4.2042508 0 0 0 0 22.591576
-1.6716207 -4.6038337 4.3204894 0 0 0 0 22.596523
-1.8591706 -4.59238 4.431746 0 0 0 0 22.601467
-2.0687907 -4.5810137 4.5649319 0 0 0 0 22.606415
-1.3777441 -4.6398072 4.2078104 0 0 0 0 22.611362
-1.5623852 -4.6184783 4.3029728 0 0 0 0 22.61631
-1.7449175 -4.6050973 4.4002261 0 0 0 0 22.621258
-1.9465469 -4.5888133 4.5143867 0 0 0 0 22.626205
-1.2686819 -4.6434169 4.1941762 0 0 0 0 22.631149
-1.4512417 -4.6261301 4.2823887 0 0 0 0 22.636097
-1.6306829 -4.6168079 4.3696942 0 0 0 0 22.641045
-1.8292468 -4.6025934 4.472887 0 0 0 0 22.645992
-1.1625597 -4.652988 4.1885939 0 0 0 0 22.65094
-1.3430572 -4.6377749 4.2668343 0 0 0 0 22.655888
-1.5155654 -4.6195498 4.3350701 0 0 0 0 22.660831
-1.7061352 -4.6004276 4.4182386 0 0 0 0 22.665779
-1.0583777 -4.6685081 4.1910663 0 0 0 0 22.670727
-1.2358576 -4.6513958 4.2552972 0 0 0 0 22.675674
-1.406307 -4.6352334 4.3145614 0 0 0 0 22.680622
-1.5928227 -4.6171761 4.3857541 0 0 0 0 22.685566
-0.95615196 -4.6880174 4.1975722 0 0 0 0 22.690514
-1.1277492 -4.6580377 4.2406883 0 0 0 0 22.695461
-1.2970669 -4.6499104 4.2950406 0 0 0 0 22.700409
-1.4766064 -4.6259489 4.3471947 0 0 0 0 22.705357
-0.85013479 -4.6905904 4.1929131 0 0 0 0 22.710304
-1.0225526 -4.6726418 4.2341518 0 0 0 0 22.715248
-1.188845 -4.6635942 4.276505 0 0 0 0 22.720196
-1.3633703 -4.6376939 4.3156557 0 0 0 0 22.725143
-0.7469849 -4.7050829 4.2003675 0 0 0 0 22.730091
-0.91545814 -4.6792631 4.2235374 0 0 0 0 22.735039
-1.0767919 -4.6633296 4.2478347 0 0 0 0 22.739986
-1.2511669 -4.6474471 4.2850909 0 0 0 0 22.74493
-0.64484191 -4.719573 4.2098169 0 0 0 0 22.749878
-0.81132615 -4.689868 4.2189541 0 0 0 0 22.754826
-0.96860194 -4.6759677 4.2342858 0 0 0 0 22.759773
-1.138931 -4.660171 4.257556 0 0 0 0 22.764721
-0.54179406 -4.7261157 4.2131863 0 0 0 0 22.769669
-0.70803696 -4.714354 4.2275105 0 0 0 0 22.774612
-0.86239344 -4.6906071 4.2237496 0 0 0 0 22.77956
-1.0258113 -4.6639261 4.2259297 0 0 0 0 22.784508
-0.43967593 -4.7395821 4.2256227 0 0 0 0 22.789455
-0.60296315 -4.720952 4.2228856 0 0 0 0 22.794403
-0.75429457 -4.6962843 4.2071257 0 0 0 0 22.799347
-0.91751879 -4.6835785 4.2114515 0 0 0 0 22.804295
-0.33762282 -4.7480741 4.2360063 0 0 0 0 22.809242
-0.49787089 -4.7295222 4.2212806 0 0 0 0 22.81419
-0.6471476 -4.7069063 4.1975484 0 0 0 0 22.819138
-0.80538785 -4.6893024 4.1848402 0 0 0 0 22.824085
-0.23543489 -4.7684541 4.2575126 0 0 0 0 22.829029
-0.39473358 -4.7430415 4.2277193 0 0 0 0 22.833977
-0.53997463 -4.720479 4.1930013 0 0 0 0 22.838924
-0.69522631 -4.6989751 4.1662621 0 0 0 0 22.843872
-0.13246454 -4.7709503 4.2668352 0 0 0 0 22.84882
-0.28957498 -4.7585144 4.2361832 0 0 0 0 22.853767
-0.4338524 -4.7300911 4.186408 0 0 0 0 22.858711
-0.58598077 -4.7165713 4.1567616 0 0 0 0 22.863659
-0.030232299 -4.7962546 4.2963901 0 0 0 0 22.868607
-0.18455033 -4.7630653 4.2375326 0 0 0 0 22.873554
-0.32663211 -4.7485981 4.1889091 0 0 0 0 22.878502
-0.47582233 -4.7271991 4.1431913 0 0 0 0 22.88345
0.072298713 -4.7979536 4.3092093 0 0 0 0 22.645649
-0.079813361 -4.7797503 4.2525024 0 0 0 0 22.650597
-0.21892469 -4.7604103 4.1908269 0 0 0 0 22.655544
-0.36415821 -4.7321768 4.1270385 0 0 0 0 22.660492
0.17652795 -4.8241501 4.3447871 0 0 0 0 22.66544
0.025293723 -4.792181 4.2639394 0 0 0 0 22.670383
-0.11087678 -4.7649732 4.1851912 0 0 0 0 22.675331
-0.25393015 -4.7496858 4.1235461 0 0 0 0 22.680279
0.28162488 -4.8394203 4.372252 0 0 0 0 22.685226
0.12936528 -4.8026094 4.2773509 0 0 0 0 22.690174
-0.0036221112 -4.7883434 4.1997485 0 0 0 0 22.695118
-0.1437933 -4.7602305 4.1169796 0 0 0 0 22.700066
0.38456491 -4.8418198 4.3905745 0 0 0 0 22.705013
0.2375721 -4.8248687 4.3018985 0 0 0 0 22.709961
0.10347838 -4.7988229 4.2041698 0 0 0 0 22.714909
-0.031693514 -4.7677708 4.108386 0 0 0 0 22.719856
0.49064824 -4.8570428 4.42204 0 0 0 0 22.7248
0.34466928 -4.8382092 4.3203473 0 0 0 0 22.729748
0.2135496 -4.8072643 4.2085776 0 0 0 0 22.734695
0.078582712 -4.7911754 4.1159511 0 0 0 0 22.739643
0.59772468 -4.8722353 4.4555073 0 0 0 0 22.744591
0.45169792 -4.8465657 4.3377433 0 0 0 0 22.749538
0.32377166 -4.8295512 4.2281294 0 0 0 0 22.754482
0.19169821 -4.8016253 4.1153893 0 0 0 0 22.75943
0.70474702 -4.8834429 4.4879313 0 0 0 0 22.764378
0.56180322 -4.8618088 4.3622198 0 0 0 0 22.769325
0.43586192 -4.840898 4.239572 0 0 0 0 22.774273
0.30472314 -4.8051114 4.1117535 0 0 0 0 22.779221
0.81601429 -4.9163771 4.541594 0 0 0 0 22.784164
0.67187637 -4.8750467 4.3876739 0 0 0 0 22.789112
0.54685092 -4.844306 4.2469273 0 0 0 0 22.79406
0.42097414 -4.8283691 4.1263328 0 0 0 0 22.799007
0.92604804 -4.9294996 4.5790448 0 0 0 0 22.803955
0.78294599 -4.8882642 4.4141297 0 0 0 0 22.808899
0.65993863 -4.856595 4.2633805 0 0 0 0 22.813847
0.53609395 -4.8407292 4.1327934 0 0 0 0 22.818794
1.0380794 -4.9435453 4.6215115 0 0 0 0 22.823742
0.89606029 -4.9063745 4.4486418 0 0 0 0 22.82869
0.77507418 -4.8737869 4.28689 0 0 0 0 22.833637
0.65317816 -4.8510451 4.1412377 0 0 0 0 22.838581
1.1500746 -4.954618 4.6619449 0 0 0 0 22.843529
1.0111018 -4.9185028 4.4790969 0 0 0 0 22.848476
0.89219934 -4.8909235 4.3134041 0 0 0 0 22.853424
0.77233541 -4.8682532 4.1577592 0 0 0 0 22.858372
1.2651647 -4.9745474 4.7124791 0 0 0 0 22.863319
1.1261114 -4.9286256 4.51053 0 0 0 0 22.868263
1.011335 -4.9090261 4.3409328 0 0 0 0 22.873211
0.89344943 -4.8824377 4.1742544 0 0 0 0 22.878159
1.3821868 -4.9894652 4.7619667 0 0 0 0 22.883106
1.2431941 -4.9456415 4.5500398 0 0 0 0 22.888054
1.1303774 -4.9201546 4.3663883 0 0 0 0 22.893002
1.0155346 -4.8946123 4.1907306 0 0 0 0 22.897945
1.4981192 -4.9974341 4.8083773 0 0 0 0 22.902893
1.3694584 -4.9793468 4.6077495 0 0 0 0 22.907841
1.2535067 -4.9391475 4.3999367 0 0 0 0 22.912788
1.1396533 -4.9106908 4.2142525 0 0 0 0 22.917736
1.622273 -5.0250964 4.8740168 0 0 0 0 22.92268
1.4915239 -4.9962506 4.6522713 0 0 0 0 22.927628
1.3785865 -4.9550977 4.4354582 0 0 0 0 22.932575
1.267779 -4.9276962 4.2397952 0 0 0 0 22.937523
1.7421813 -5.0319881 4.9234262 0 0 0 0 22.942471
1.6165464 -5.0101175 4.6967697 0 0 0 0 22.947418
1.5036269 -4.9680629 4.4699478 0 0 0 0 22.952362
1.3969163 -4.9466419 4.2703595 0 0 0 0 22.95731
1.8713473 -5.0624986 4.9981079 0 0 0 0 22.962257
1.7446461 -5.0318336 4.7523575 0 0 0 0 22.967205
1.6326822 -4.9829359 4.5084686 0 0 0 0 22.972153
1.5290215 -4.9635391 4.3019109 0 0 0 0 22.9771
1.9983152 -5.076179 5.059608 0 0 0 0 22.982044
1.872602 -5.0416389 4.7998204 0 0 0 0 22.986992
1.7698855 -5.0115452 4.5621552 0 0 0 0 22.99194
1.6672281 -4.9902339 4.3455811 0 0 0 0 22.996887
2.1282949 -5.0917716 5.1261353 0 0 0 0 23.001835
2.0087311 -5.0671706 4.8634701 0 0 0 0 23.006783
1.9080397 -5.0371265 4.6178122 0 0 0 0 23.011726
1.8053049 -5.0060167 4.3811374 0 0 0 0 23.016674
2.2674379 -5.1230469 5.2118516 0 0 0 0 23.021622
2.1478176 -5.0896673 4.9270964 0 0 0 0 23.026569
2.0429995 -5.0459018 4.6592846 0 0 0 0 23.031517
1.9494333 -5.0276179 4.4267707 0 0 0 0 23.036461
2.4033873 -5.137516 5.2833834 0 0 0 0 23.041409
2.2899013 -5.1130762 4.9957399 0 0 0 0 23.046356
2.1901469 -5.0723066 4.7209749 0 0 0 0 23.051304
2.0945084 -5.0452218 4.4713645 0 0 0 0 23.056252
2.5443523 -5.1548395 5.3629594 0 0 0 0 23.061199
2.4369762 -5.1373501 5.0714064 0 0 0 0 23.066143
2.3382304 -5.0937257 4.7806158 0 0 0 0 23.071091
2.2435656 -5.0617652 4.5169587 0 0 0 0 23.076038
2.6954761 -5.1868644 5.4587169 0 0 0 0 23.080986
2.5849826 -5.1556687 5.1420135 0 0 0 0 23.085934
2.4913292 -5.1179986 4.8483 0 0 0 0 23.090881
2.3956246 -5.0801916 4.57058 0 0 0 0 23.095825
2.8454719 -5.2089524 5.5503669 0 0 0 0 23.100773
2.7349651 -5.172935 5.2156143 0 0 0 0 23.105721
2.651458 -5.1460981 4.9240441 0 0 0 0 23.110668
2.5597982 -5.1093326 4.6363478 0 0 0 0 23.115616
2.9980338 -5.2263412 5.6437612 0 0 0 0 22.865982
2.8987 -5.2012587 5.3071446 0 0 0 0 22.87093
2.811105 -5.1627679 4.9934306 0 0 0 0 22.875877
2.7214468 -5.1231484 4.6946993 0 0 0 0 22.880825
3.1712496 -5.2707376 5.7677264 0 0 0 0 22.885769
3.0617173 -5.2241554 5.3958545 0 0 0 0 22.890717
2.9771097 -5.1817617 5.06811 0 0 0 0 22.895664
2.8966417 -5.1559873 4.7715516 0 0 0 0 22.900612
3.3117981 -5.2552228 5.8309646 0 0 0 0 22.90556
3.2306988 -5.2449546 5.4865608 0 0 0 0 22.910507
3.1552455 -5.2134266 5.158958 0 0 0 0 22.915451
3.0777836 -5.1857185 4.8513889 0 0 0 0 22.920399
3.4390759 -5.2151589 5.868906 0 0 0 0 22.925346
3.4169137 -5.2882295 5.6055522 0 0 0 0 22.930294
3.3342853 -5.2380972 5.248734 0 0 0 0 22.935242
3.2587891 -5.2045217 4.9251113 0 0 0 0 22.940189
3.5561504 -5.1573987 5.8916316 0 0 0 0 22.945133
3.6039672 -5.3185735 5.7174106 0 0 0 0 22.950081
3.5233655 -5.2675409 5.34759 0 0 0 0 22.955029
3.4539294 -5.236937 5.0180173 0 0 0 0 22.959976
3.6803041 -5.1074305 5.9254613 0 0 0 0 22.964924
3.7939713 -5.3458638 5.8312449 0 0 0 0 22.969872
3.7265337 -5.3066301 5.4625888 0 0 0 0 22.974815
3.6601102 -5.2741132 5.1200056 0 0 0 0 22.979763
3.7933187 -5.0447564 5.9461241 0 0 0 0 22.984711
3.9828291 -5.3612509 5.9379516 0 0 0 0 22.989658
3.9335914 -5.3376842 5.5765142 0 0 0 0 22.994606
3.871213 -5.3062086 5.2239547 0 0 0 0 22.999554
3.9153986 -4.9888473 5.9778867 0 0 0 0 23.004498
4.1452298 -5.3354383 6.0031476 0 0 0 0 23.009445
4.1476259 -5.368578 5.6974587 0 0 0 0 23.014393
4.0942998 -5.3390522 5.3369479 0 0 0 0 23.019341
4.0334024 -4.9270201 6.0075755 0 0 0 0 23.024288
4.2811837 -5.2694035 6.0288458 0 0 0 0 23.029232
4.386878 -5.4208403 5.8467007 0 0 0 0 23.03418
4.3304448 -5.3785992 5.4620495 0 0 0 0 23.039127
4.1463261 -4.8573613 6.0281682 0 0 0 0 23.044075
4.4231801 -5.2081976 6.0636134 0 0 0 0 23.049023
4.6259193 -5.4562092 5.9867654 0 0 0 0 23.05397
4.5724874 -5.4110637 5.5880942 0 0 0 0 23.058914
4.2562022 -4.7837701 6.0467119 0 0 0 0 23.063862
4.5519896 -5.1303344 6.083169 0 0 0 0 23.06881
4.8526607 -5.4659653 6.1065269 0 0 0 0 23.073757
4.849812 -5.4716573 5.7525368 0 0 0 0 23.078705
4.3741403 -4.7169471 6.077352 0 0 0 0 23.083652
4.690897 -5.062192 6.1168566 0 0 0 0 23.088596
4.932611 -5.3096213 6.0441198 0 0 0 0 23.093544
4.981226 -5.3590784 5.7407417 0 0 0 0 23.098492
4.477931 -4.6364698 6.0938072 0 0 0 0 23.103439
4.8257103 -4.9861636 6.1454515 0 0 0 0 23.108387
4.9731536 -5.1152472 5.9402027 0 0 0 0 23.113335
5.0155578 -5.1469202 5.6236238 0 0 0 0 23.118279
4.5927968 -4.5637193 6.1223788 0 0 0 0 23.123226
4.9392838 -4.8876805 6.1497507 0 0 0 0 23.128174
5.0107598 -4.9258728 5.8403316 0 0 0 0 23.133121
5.0620823 -4.9523869 5.5267291 0 0 0 0 23.138069
4.7056375 -4.4890018 6.1509237 0 0 0 0 23.143013
5.0023479 -4.7395267 6.0923848 0 0 0 0 23.147961
5.0555048 -4.7492461 5.7556167 0 0 0 0 23.152908
5.105691 -4.7648325 5.4359002 0 0 0 0 23.157856
4.8164072 -4.4083476 6.176403 0 0 0 0 23.162804
5.0351725 -4.5680795 6.0066881 0 0 0 0 23.167751
5.0922232 -4.5697608 5.6678519 0 0 0 0 23.172695
5.1453271 -4.5793133 5.347084 0 0 0 0 23.177643
4.9281807 -4.3286433 6.2058969 0 0 0 0 23.18259
5.0700707 -4.4025521 5.9260626 0 0 0 0 23.187538
5.1270037 -4.3952618 5.5841355 0 0 0 0 23.192486
5.1860304 -4.3997078 5.2653346 0 0 0 0 23.197433
4.8302422 -4.071455 5.976922 0 0 0 0 23.202377
4.8983326 -4.071198 5.6161013 0 0 0 0 23.207325
4.9571404 -4.057744 5.2871203 0 0 0 0 23.212273
5.0059352 -4.0462971 4.971128 0 0 0 0 23.21722
4.8594112 -3.9278524 5.9115105 0 0 0 0 23.222168
4.9354453 -3.9244409 5.5546832 0 0 0 0 23.227116
4.9901114 -3.8991218 5.2175698 0 0 0 0 23.232059
5.040822 -3.8816447 4.9015236 0 0 0 0 23.237007
4.8966894 -3.7949858 5.8612361 0 0 0 0 23.241955
4.9685764 -3.7787387 5.4932666 0 0 0 0 23.246902
5.0190983 -3.7415442 5.1490207 0 0 0 0 23.25185
5.085824 -3.7277203 4.8450632 0 0 0 0 23.256794
4.9259491 -3.6592908 5.8049107 0 0 0 0 23.261742
4.9846058 -3.6224148 5.4176917 0 0 0 0 23.266689
5.0582075 -3.5956748 5.0956254 0 0 0 0 23.271637
5.1177711 -3.5680478 4.7815065 0 0 0 0 23.276585
4.9481912 -3.5207534 5.7425375 0 0 0 0 23.281532
5.0168071 -3.4826543 5.3633389 0 0 0 0 23.286476
5.0882826 -3.4459805 5.0371666 0 0 0 0 23.291424
5.1517668 -3.4132659 4.7260098 0 0 0 0 23.296371
4.9463186 -3.3687804 5.6569562 0 0 0 0 23.301319
4.9816074 -3.2995007 5.2413392 0 0 0 0 23.306267
5.0378942 -3.247134 4.9049621 0 0 0 0 23.311214
5.1193962 -3.2199652 4.6139188 0 0 0 0 23.316158
4.9605865 -3.2313614 5.5935755 0 0 0 0 23.321106
5.0531158 -3.1917026 5.2364392 0 0 0 0 23.326054
5.1525645 -3.1583843 4.9353909 0 0 0 0 23.331001
5.2530713 -3.1338401 4.6554351 0 0 0 0 23.335949
4.9809456 -3.1015518 5.5423455 0 0 0 0 23.318192
5.0622883 -3.0451982 5.1700058 0 0 0 0 23.323139
5.1988282 -3.0260053 4.9052181 0 0 0 0 23.328087
5.3062701 -2.9973352 4.628243 0 0 0 0 23.333035
5.0063381 -2.9767873 5.4981318 0 0 0 0 23.337978
5.1348181 -2.9403069 5.1731429 0 0 0 0 23.342926
5.2209797 -2.8823507 4.853806 0 0 0 0 23.347874
5.2780752 -2.8197947 4.5343332 0 0 0 0 23.352821
5.0759673 -2.8798909 5.5063415 0 0 0 0 23.357769
5.1952667 -2.8267055 5.164156 0 0 0 0 23.362717
5.2491975 -2.7455015 4.8134851 0 0 0 0 23.367661
5.3222566 -2.6826122 4.5050607 0 0 0 0 23.372608
5.147593 -2.7829492 5.5165582 0 0 0 0 23.377556
5.2215681 -2.6958768 5.1248913 0 0 0 0 23.382504
5.3205895 -2.6296475 4.8145146 0 0 0 0 23.387451
5.3735037 -2.552223 4.4868813 0 0 0 0 23.392395
5.1800346 -2.66395 5.486433 0 0 0 0 23.397343
5.274003 -2.5804083 5.1138649 0 0 0 0 23.40229
5.4020333 -2.5195475 4.8266349 0 0 0 0 23.407238
5.5481887 -2.4750972 4.5736256 0 0 0 0 23.412186
5.2676992 -2.5735922 5.5167704 0 0 0 0 23.417133
5.4137354 -2.5039022 5.1875062 0 0 0 0 23.422077
6.1317916 -1.5968261 4.7045074 0 0 0 0 23.550701
5.9443321 -1.6405408 5.740346 0 0 0 0 23.595222
6.2509861 0.14299817 5.2443595 0 0 0 0 24.365589
6.6074848 1.9065956 4.9569893 0 0 0 0 24.533787
6.5217133 1.9176857 5.227675 0 0 0 0 24.568417
6.4026771 1.9728789 5.8289113 0 0 0 0 24.657463
6.1493382 2.9099698 4.8855877 0 0 0 0 24.672302
6.0806313 3.0509191 4.883132 0 0 0 0 24.692093
6.098958 2.8963809 5.1426268 0 0 0 0 24.706932
6.0486016 3.2106485 4.9146132 0 0 0 0 24.71188
6.0372682 3.0364184 5.1402025 0 0 0 0 24.726719
6.0423222 3.3859153 4.9690304 0 0 0 0 24.731667
6.101603 2.8757014 5.4268799 0 0 0 0 24.741562
5.9973931 3.1869361 5.1597486 0 0 0 0 24.74651
6.0567555 3.5796537 5.0463433 0 0 0 0 24.751457
6.01123 2.9980636 5.3905377 0 0 0 0 24.761349
5.9981236 3.3613157 5.2171974 0 0 0 0 24.766296
5.9939151 3.7288549 5.0628462 0 0 0 0 24.771244
5.9486389 3.1320455 5.383173 0 0 0 0 24.781139
6.0077 3.5459151 5.2865834 0 0 0 0 24.786083
6.015183 3.9338048 5.1540856 0 0 0 0 24.791031
5.9818983 2.8998713 5.6440902 0 0 0 0 24.556274
5.9562163 3.3096805 5.442235 0 0 0 0 24.561222
5.9051166 3.6693666 5.262774 0 0 0 0 24.56617
6.0389934 4.1520195 5.2547154 0 0 0 0 24.571117
5.9342003 3.0400486 5.638689 0 0 0 0 24.576061
5.9628544 3.4881861 5.5046444 0 0 0 0 24.581009
5.9432201 3.8816581 5.3659687 0 0 0 0 24.585957
6.0530834 4.3669548 5.3528237 0 0 0 0 24.590904
5.9172006 3.1969438 5.6682272 0 0 0 0 24.595852
5.8625102 3.6074245 5.4702954 0 0 0 0 24.6008
5.9842162 4.1010656 5.4781117 0 0 0 0 24.605743
6.0423627 4.5714035 5.4329624 0 0 0 0 24.610691
5.9150095 3.3661666 5.7126985 0 0 0 0 24.615639
5.8888268 3.8064308 5.5595818 0 0 0 0 24.620586
5.996398 4.3109078 5.5692649 0 0 0 0 24.625534
5.984127 4.745903 5.4762449 0 0 0 0 24.630478
5.8771267 3.5176654 5.7282338 0 0 0 0 24.635426
5.9367986 4.0279408 5.6737294 0 0 0 0 24.640373
5.9986091 4.5195918 5.6574054 0 0 0 0 24.645321
6.1331668 5.0938902 5.7185364 0 0 0 0 24.650269
5.8312888 3.6670177 5.738771 0 0 0 0 24.655216
5.9322634 4.2203717 5.7439976 0 0 0 0 24.66016
5.9483857 4.6932101 5.7027225 0 0 0 0 24.665108
6.1378956 5.3358688 5.835393 0 0 0 0 24.670055
5.881351 3.8825212 5.8499818 0 0 0 0 24.675003
5.9553509 4.4364476 5.8461332 0 0 0 0 24.679951
6.0323462 4.9827681 5.8813682 0 0 0 0 24.684898
6.8544807 6.2333555 6.6503005 0 0 0 0 24.689842
5.8996553 4.0853591 5.9332228 0 0 0 0 24.69479
5.919003 4.6192861 5.8964086 0 0 0 0 24.699738
6.1111751 5.28231 6.0659151 0 0 0 0 24.704685
5.9089756 4.2880535 6.0134444 0 0 0 0 24.714581
5.9240766 4.8390646 5.9914703 0 0 0 0 24.719524
6.8445983 6.1863532 6.9228244 0 0 0 0 24.724472
5.9053245 4.4905167 6.0866361 0 0 0 0 24.734367
6.026701 5.1510935 6.1969762 0 0 0 0 24.739315
6.09723 6.3521895 6.3232727 0 0 0 0 24.749207
5.886776 4.6876888 6.148839 0 0 0 0 24.754154
5.9584846 5.3283868 6.2322273 0 0 0 0 24.759102
6.0863032 6.0206432 6.4083123 0 0 0 0 24.76405
6.124814 6.6740746 6.5085006 0 0 0 0 24.768997
5.8819575 4.9022346 6.2329288 0 0 0 0 24.773941
6.1494546 5.7505264 6.5469971 0 0 0 0 24.778889
6.0285211 6.2354493 6.4852681 0 0 0 0 24.783836
6.1580272 7.0222073 6.7135148 0 0 0 0 24.788784
5.9174628 5.1607447 6.3667388 0 0 0 0 24.793732
6.0159817 5.8814883 6.5274968 0 0 0 0 24.798679
6.0808153 6.5768318 6.6913948 0 0 0 0 24.803623
6.126193 7.3079658 6.8589187 0 0 0 0 24.808571
5.9843707 5.4590201 6.5412846 0 0 0 0 24.813519
6.0075068 6.1423354 6.6501784 0 0 0 0 24.818466
6.1161227 6.9189568 6.8934751 0 0 0 0 24.823414
6.1647811 7.7004757 7.0985637 0 0 0 0 24.828362
6.0076947 5.7324128 6.6799397 0 0 0 0 24.833305
6.0224943 6.4397845 6.8066025 0 0 0 0 24.838253
6.1158185 7.2373543 7.0656776 0 0 0 0 24.843201
6.0236149 7.876895 7.1396637 0 0 0 0 24.848148
5.9717379 5.9615183 6.7598338 0 0 0 0 24.853096
6.1110201 6.8340549 7.0613675 0 0 0 0 24.858044
5.9984398 7.4291296 7.1127019 0 0 0 0 24.862988
5.7961144 7.9413319 7.0825362 0 0 0 0 24.867935
5.989799 6.2549472 6.9103069 0 0 0 0 24.872883
5.9918461 7.0136185 7.0874925 0 0 0 0 24.877831
5.8093448 7.5352898 7.0813017 0 0 0 0 24.882778
5.5970764 8.0414619 7.0611711 0 0 0 0 24.887722
6.0047016 6.5603957 7.0676699 0 0 0 0 24.89267
5.8245473 7.1350827 7.0590119 0 0 0 0 24.897617
5.6183333 7.6354146 7.047955 0 0 0 0 24.902565
5.3726511 8.0990095 7.0101228 0 0 0 0 24.907513
5.869957 6.7134333 7.0569916 0 0 0 0 24.91246
5.6611648 7.2616835 7.0395007 0 0 0 0 24.917404
5.4244456 7.7264833 7.0116863 0 0 0 0 24.922352
5.1727681 8.1871433 6.9888716 0 0 0 0 24.927299
5.7096529 6.8369212 7.0205121 0 0 0 0 24.932247
5.4840627 7.3689919 7.0061288 0 0 0 0 24.937195
5.2256818 7.8084712 6.9724894 0 0 0 0 24.942142
4.9640851 8.2611027 6.9597278 0 0 0 0 24.947086
5.5689745 6.9849129 7.0118728 0 0 0 0 24.952034
5.2951722 7.4620514 6.9608564 0 0 0 0 24.956982
5.0426192 7.9098701 6.9561667 0 0 0 0 24.961929
4.7506437 8.3179197 6.9207277 0 0 0 0 24.966877
5.3988175 7.0982437 6.9704666 0 0 0 0 24.971825
5.134737 7.5908337 6.9553475 0 0 0 0 24.976768
4.8487802 7.9960332 6.9279547 0 0 0 0 24.981716
4.5304203 8.3586044 6.8758569 0 0 0 0 24.986664
5.2374797 7.2228441 6.9459891 0 0 0 0 24.991611
4.9459014 7.6789522 6.9151287 0 0 0 0 24.996559
4.64815 8.0670547 6.8928633 0 0 0 0 25.001503
4.3229508 8.4156113 6.8478789 0 0 0 0 25.006451
5.1789494 7.4950089 7.0624852 0 0 0 0 25.011398
4.7570972 7.7641053 6.8779402 0 0 0 0 25.016346
4.4495435 8.1361189 6.8587985 0 0 0 0 25.021294
4.1038437 8.4473181 6.8020973 0 0 0 0 25.026241
5.0004268 7.6098351 7.0298386 0 0 0 0 24.761066
4.5707331 7.8617516 6.8493605 0 0 0 0 24.766014
4.2465701 8.1984053 6.8214164 0 0 0 0 24.770962
3.8852632 8.4752436 6.7559137 0 0 0 0 24.775909
4.7676301 7.6296921 6.9170918 0 0 0 0 24.780853
4.3907123 7.9591541 6.8310676 0 0 0 0 24.785801
4.0431395 8.2533445 6.7844491 0 0 0 0 24.790749
3.6770499 8.5121756 6.724102 0 0 0 0 24.795696
4.5651379 7.6953526 6.8490195 0 0 0 0 24.800644
4.2009606 8.038312 6.7989159 0 0 0 0 24.805592
3.8368747 8.2962093 6.7425861 0 0 0 0 24.810535
3.4650023 8.5370197 6.6873918 0 0 0 0 24.815483
4.3909459 7.8068171 6.8286166 0 0 0 0 24.820431
4.0121417 8.1215525 6.7737341 0 0 0 0 24.825378
3.6384361 8.3502989 6.7136469 0 0 0 0 24.830326
3.2454166 8.5295849 6.6299539 0 0 0 0 24.83527
4.2109027 7.9081497 6.8012934 0 0 0 0 24.840218
3.812712 8.1775122 6.7317724 0 0 0 0 24.845165
3.4332409 8.3872194 6.6748466 0 0 0 0 24.850113
3.0422852 8.5586672 6.6052361 0 0 0 0 24.855061
4.0269418 8.0034304 6.7730179 0 0 0 0 24.860008
3.6200564 8.2486916 6.7036967 0 0 0 0 24.864952
3.2320352 8.4242353 6.6400599 0 0 0 0 24.8699
2.8325336 8.5615005 6.5617375 0 0 0 0 24.874847
3.8429842 8.0977554 6.748755 0 0 0 0 24.879795
3.4226105 8.3047543 6.6687469 0 0 0 0 24.884743
3.02701 8.4481554 6.5993834 0 0 0 0 24.88969
2.6219375 8.5523129 6.5163474 0 0 0 0 24.894634
3.6502738 8.1748762 6.7136273 0 0 0 0 24.899582
3.2194197 8.34266 6.6239476 0 0 0 0 24.90453
2.8220904 8.4640665 6.5567808 0 0 0 0 24.909477
2.4210832 8.560401 6.4868317 0 0 0 0 24.914425
3.459471 8.2580919 6.6854539 0 0 0 0 24.919373
3.0239391 8.3998442 6.598 0 0 0 0 24.924316
2.6229548 8.4941931 6.5290704 0 0 0 0 24.929264
2.2155576 8.5453005 6.4425125 0 0 0 0 24.934212
3.2571137 8.309988 6.6375327 0 0 0 0 24.939159
2.8266239 8.4449663 6.5671592 0 0 0 0 24.944107
2.4182062 8.4970942 6.4835906 0 0 0 0 24.949051
2.0130169 8.5302916 6.4032025 0 0 0 0 24.953999
3.0624223 8.3841877 6.6114368 0 0 0 0 24.958946
2.6244082 8.4829979 6.5323706 0 0 0 0 24.963894
2.2173879 8.5041151 6.445087 0 0 0 0 24.968842
1.8153634 8.5224333 6.3728442 0 0 0 0 24.973789
2.8648438 8.4503222 6.5814095 0 0 0 0 24.978733
2.4223816 8.5069952 6.4927115 0 0 0 0 24.983681
2.0165586 8.511179 6.4105849 0 0 0 0 24.988628
1.6160488 8.4904251 6.3276982 0 0 0 0 24.993576
2.6634583 8.5023613 6.5455003 0 0 0 0 24.998524
2.2204049 8.5269995 6.4530902 0 0 0 0 25.003471
1.816892 8.5062208 6.3711958 0 0 0 0 25.008415
1.4197215 8.458497 6.286561 0 0 0 0 25.013363
2.4611182 8.550416 6.5116277 0 0 0 0 25.018311
2.0184176 8.5470476 6.4174714 0 0 0 0 25.023258
1.6192287 8.5003223 6.3348227 0 0 0 0 25.028206
1.225372 8.4276285 6.2484207 0 0 0 0 25.033154
2.2549474 8.5863657 6.4708552 0 0 0 0 25.038097
1.8155832 8.5560389 6.3759508 0 0 0 0 25.043045
1.4216694 8.486413 6.2965226 0 0 0 0 25.047993
1.0359548 8.4008827 6.2162585 0 0 0 0 25.05294
2.0497117 8.6263895 6.4360523 0 0 0 0 25.057888
1.6137902 8.5610771 6.337471 0 0 0 0 25.062832
1.2251639 8.4685068 6.2562623 0 0 0 0 25.06778
0.84586853 8.3500195 6.1713099 0 0 0 0 25.072727
1.8426908 8.6503439 6.3953905 0 0 0 0 25.077675
1.4139364 8.5701838 6.3029623 0 0 0 0 25.082623
1.0317289 8.4446554 6.2170649 0 0 0 0 25.08757
0.65880728 8.2971907 6.1253877 0 0 0 0 25.092514
1.6375898 8.6793938 6.3616915 0 0 0 0 25.097462
1.2132087 8.5692778 6.2675424 0 0 0 0 25.102409
0.83740485 8.412755 6.1729374 0 0 0 0 25.107357
0.47644269 8.2646065 6.0992994 0 0 0 0 25.112305
1.4267838 8.6872625 6.3151665 0 0 0 0 25.117252
1.0136323 8.5573387 6.2262254 0 0 0 0 25.122196
0.64606279 8.3809528 6.134819 0 0 0 0 25.127144
0.29452753 8.1998482 6.0524983 0 0 0 0 25.132092
1.2198641 8.7022781 6.2785921 0 0 0 0 25.137039
0.81223154 8.5323315 6.1790195 0 0 0 0 25.141987
0.45776567 8.3452034 6.0977445 0 0 0 0 25.146935
0.11534502 8.1532717 6.0215435 0 0 0 0 25.151878
1.0121303 8.7032471 6.2371411 0 0 0 0 25.156826
0.61471337 8.5144787 6.1427636 0 0 0 0 25.161774
0.27042189 8.312501 6.0636468 0 0 0 0 25.166721
-0.059601262 8.0896568 5.9797516 0 0 0 0 25.171669
0.8033458 8.7072544 6.2006631 0 0 0 0 25.176617
0.41824597 8.4926367 6.1055465 0 0 0 0 25.181561
0.085135199 8.2748394 6.0305991 0 0 0 0 25.186508
-0.23256101 8.0261087 5.9419646 0 0 0 0 25.191456
0.59673375 8.6982508 6.159308 0 0 0 0 25.196404
0.22199781 8.4547243 6.059473 0 0 0 0 25.201351
-0.096891031 8.2181263 5.9867287 0 0 0 0 25.206295
-0.40258858 7.9666567 5.9101496 0 0 0 0 25.211243
0.38919461 8.6832447 6.1180043 0 0 0 0 25.21619
0.028647369 8.422945 6.023355 0 0 0 0 25.221138
-0.27799684 8.1664848 5.9488163 0 0 0 0 25.226086
-0.5694409 7.894187 5.8714571 0 0 0 0 25.231033
0.18343413 8.661911 6.0752354 0 0 0 0 25.310398
-0.16206923 8.3939257 5.9916868 0 0 0 0 25.315346
-0.45535347 8.1075954 5.9104366 0 0 0 0 25.320293
-0.73359823 7.8174696 5.8312593 0 0 0 0 25.325241
-0.021989988 8.6369696 6.0350308 0 0 0 0 25.330189
-0.35320282 8.3451481 5.9497271 0 0 0 0 25.335136
-0.63138562 8.0490522 5.8736005 0 0 0 0 25.34008
-0.89445776 7.7441249 5.7955899 0 0 0 0 25.345028
-0.22643553 8.6130753 5.9978209 0 0 0 0 25.349976
-0.54124856 8.2893972 5.9058361 0 0 0 0 25.354923
-0.80528843 7.9805055 5.8328571 0 0 0 0 25.359871
-1.0521469 7.6577721 5.7540417 0 0 0 0 25.364819
-0.42848879 8.5600758 5.9448719 0 0 0 0 25.369762
-0.7284441 8.2437525 5.871861 0 0 0 0 25.37471
-0.97511631 7.9059978 5.7901754 0 0 0 0 25.379658
-0.92478722 5.7888951 4.3637042 0 0 0 0 25.384605
-0.62982172 8.5262518 5.9097595 0 0 0 0 25.389553
-0.91239774 8.1800661 5.8280511 0 0 0 0 25.394497
-1.1861279 8.1299715 5.9698 0 0 0 0 25.399445
-1.0506316 5.7824702 4.3805237 0 0 0 0 25.404392
-0.82872915 8.4612885 5.8549237 0 0 0 0 25.40934
-1.1110737 8.2390318 5.8771415 0 0 0 0 25.414288
-1.3557172 8.0374069 5.9192796 0 0 0 0 25.419235
-1.5621102 7.6732488 5.8489237 0 0 0 0 25.424179
-1.033723 8.4737768 5.8584032 0 0 0 0 25.429127
-1.3180834 8.3220606 5.944005 0 0 0 0 25.434074
-1.5255623 7.9620047 5.8866096 0 0 0 0 25.439022
-1.7147894 7.5840406 5.8144145 0 0 0 0 25.44397
-1.2660784 8.6560345 5.9853473 0 0 0 0 25.448917
-1.5041268 8.2624989 5.9151592 0 0 0 0 25.453861
-1.6901866 7.8705668 5.8420911 0 0 0 0 25.458809
-1.8645481 7.4999256 5.7858691 0 0 0 0 25.463757
-1.4680187 8.5911608 5.9425087 0 0 0 0 25.468704
-1.679548 8.157793 5.8547297 0 0 0 0 25.473652
-1.852881 7.7832193 5.8045425 0 0 0 0 25.4786
-2.0101864 7.4068141 5.751411 0 0 0 0 25.483543
-1.6638045 8.5143251 5.8947897 0 0 0 0 25.488491
-1.8614984 8.0902863 5.8249631 0 0 0 0 25.493439
-2.0125573 7.6939225 5.7680178 0 0 0 0 25.498386
-2.151722 7.3057222 5.7130318 0 0 0 0 25.503334
-1.8596333 8.4395494 5.8530526 0 0 0 0 25.508278
-2.0340717 7.99475 5.7784615 0 0 0 0 25.513226
-2.1722953 7.6086669 5.7354579 0 0 0 0 25.518173
-1.8916461 5.9467402 4.6834974 0 0 0 0 25.523121
-2.0501559 8.3417311 5.7985277 0 0 0 0 25.528069
-2.2057652 7.9073014 5.7398925 0 0 0 0 25.533016
-1.8284724 5.9016457 4.4731183 0 0 0 0 25.53796
-2.4310336 7.1187658 5.6551485 0 0 0 0 25.542908
-2.2399008 8.2590599 5.7588749 0 0 0 0 25.547855
-1.7885643 5.8744392 4.2815242 0 0 0 0 25.552803
-1.993286 5.9633198 4.5512629 0 0 0 0 25.557751
-2.4307559 8.1834612 5.728158 0 0 0 0 25.567642
-1.9396387 5.8838825 4.3141518 0 0 0 0 25.57259
-2.6250248 7.3131571 5.627183 0 0 0 0 25.577538
-2.6372759 8.1559839 5.7319894 0 0 0 0 25.587433
-2.7086854 7.6282096 5.6323571 0 0 0 0 25.592381
-2.7788632 7.2321253 5.6095996 0 0 0 0 25.597324
-2.8205655 6.8030887 5.5531945 0 0 0 0 25.602272
-2.7927232 7.9762344 5.6342545 0 0 0 0 25.60722
-2.8702171 7.5259166 5.5949388 0 0 0 0 25.612167
-2.9265707 7.14112 5.5861168 0 0 0 0 25.617115
-2.9482131 6.7063327 5.5308075 0 0 0 0 25.622063
-2.9671073 7.8637147 5.5878944 0 0 0 0 25.627007
-3.0287609 7.4236917 5.5605273 0 0 0 0 25.631954
-2.623884 6.0143485 4.7446141 0 0 0 0 25.636902
-3.0696988 6.5975785 5.4995375 0 0 0 0 25.64185
-2.5934594 5.9555387 4.4942646 0 0 0 0 25.651741
-3.1902466 6.4928746 5.4722333 0 0 0 0 25.661636
-3.576875 7.7259631 5.8878021 0 0 0 0 25.671532
-3.3180454 6.4052429 5.4627647 0 0 0 0 25.681423
-3.5782995 7.7436557 5.6217365 0 0 0 0 25.686371
-3.8020675 7.7408571 5.9562311 0 0 0 0 25.691319
-3.451977 6.6683645 5.4272666 0 0 0 0 25.696266
-3.4294813 6.2916131 5.4305577 0 0 0 0 25.701214
-3.8113925 7.7523675 5.6791983 0 0 0 0 25.706161
-3.5835242 6.5625696 5.4029446 0 0 0 0 25.716053
-3.545053 6.1870246 5.4082613 0 0 0 0 25.721001
-3.1590664 6.0505838 4.4714012 0 0 0 0 25.725948
-3.7069304 6.4458241 5.372735 0 0 0 0 25.735844
-3.3012872 5.4881492 4.8609023 0 0 0 0 25.740788
-4.0084567 7.2477064 5.4152269 0 0 0 0 25.745735
-3.9153454 6.7452927 5.3617516 0 0 0 0 25.750683
-3.8324122 6.3341022 5.3474755 0 0 0 0 25.75563
-3.4040678 5.3977981 4.847507 0 0 0 0 25.760578
-4.0373316 6.5973868 5.3098106 0 0 0 0 25.77047
-3.5785997 5.6264744 4.8142028 0 0 0 0 25.775417
-3.5518281 5.3764825 4.8994145 0 0 0 0 25.780365
-4.1788964 6.4953547 5.3025661 0 0 0 0 26.47443
-3.6889105 5.532732 4.80446 0 0 0 0 26.479378
-3.9470532 5.7147927 5.2934303 0 0 0 0 26.484325
-4.4108558 6.7783933 5.2538357 0 0 0 0 26.489269
-4.2980609 6.3526497 5.2585425 0 0 0 0 26.494217
-3.8047602 5.4423537 4.7960124 0 0 0 0 26.499165
-4.0486336 5.603467 5.2721872 0 0 0 0 26.504112
-4.546988 6.6325216 5.2118011 0 0 0 0 26.50906
-3.9975078 5.6216168 4.7211981 0 0 0 0 26.514008
-3.9898534 5.4449139 4.87466 0 0 0 0 26.518951
-4.1421423 5.4862037 5.2470083 0 0 0 0 26.523899
-4.6872621 6.4966965 5.1806746 0 0 0 0 26.528847
-4.1243052 5.5261335 4.7137671 0 0 0 0 26.533794
-4.3814325 5.7091622 5.1977415 0 0 0 0 26.538742
-4.2275391 5.3599777 5.2149181 0 0 0 0 26.543686
-4.827549 6.3609014 5.1525459 0 0 0 0 26.548634
-4.2277055 5.3997221 4.6826358 0 0 0 0 26.553581
-4.4950109 5.5957651 5.1824865 0 0 0 0 26.558529
-4.325182 5.2517633 5.200654 0 0 0 0 26.563477
-4.9841466 6.2481065 5.146194 0 0 0 0 26.568424
-4.3443413 5.2903128 4.6693363 0 0 0 0 26.573368
-4.5974517 5.4714313 5.1593418 0 0 0 0 26.578316
-4.4116702 5.1315885 5.175509 0 0 0 0 26.583263
-5.0859084 6.0705094 5.0884833 0 0 0 0 26.588211
-4.4559436 5.177947 4.6540704 0 0 0 0 26.593159
-4.6897531 5.3361344 5.1263065 0 0 0 0 26.598106
-4.4992123 5.014462 5.1573353 0 0 0 0 26.60305
-5.2191777 5.9308476 5.0653958 0 0 0 0 26.607998
-4.563489 5.0606146 4.6368518 0 0 0 0 26.612946
-4.7871861 5.2098804 5.105185 0 0 0 0 26.617893
-4.5807009 4.8933573 5.1332054 0 0 0 0 26.622841
-5.3586011 5.8022189 5.054204 0 0 0 0 26.627789
-4.6558619 4.9293742 4.6097765 0 0 0 0 26.632732
-4.884624 5.0836301 5.0840611 0 0 0 0 26.63768
-4.6510892 4.7643232 5.1021614 0 0 0 0 26.642628
-5.4645524 5.6367254 5.0133796 0 0 0 0 26.647575
-4.7381244 4.7891932 4.5757933 0 0 0 0 26.652523
-4.9648757 4.9424858 5.0520926 0 0 0 0 26.657467
-4.7255559 4.6403108 5.0790663 0 0 0 0 26.662415
-5.5877914 5.4922209 4.9943466 0 0 0 0 26.667362
-4.8113127 4.6430688 4.5358753 0 0 0 0 26.67231
-5.0532904 4.8133421 5.0310082 0 0 0 0 26.677258
-4.8030801 4.5202999 5.0599298 0 0 0 0 26.682205
-5.6837158 5.3228636 4.9555697 0 0 0 0 26.687149
-4.8896031 4.5039625 4.5048871 0 0 0 0 26.692097
-5.0860443 4.6344109 4.9594417 0 0 0 0 26.697044
-4.8715429 4.3953519 5.035851 0 0 0 0 26.701992
-5.7604494 5.1386099 4.9029517 0 0 0 0 26.70694
-4.9699831 4.3709006 4.4818444 0 0 0 0 26.711887
-4.7555695 4.1427126 4.5421638 0 0 0 0 26.716831
-4.9460831 4.2754035 5.0197172 0 0 0 0 26.721779
-5.8777347 4.9952474 4.8919153 0 0 0 0 26.726727
-5.5934749 4.692729 4.9409804 0 0 0 0 26.731674
-4.7957406 3.9949019 4.4953227 0 0 0 0 26.736622
-4.5513287 3.7699034 4.5386796 0 0 0 0 26.74157
-5.9757833 4.8329816 4.8660688 0 0 0 0 26.746513
-5.6615143 4.5316925 4.9031887 0 0 0 0 26.751461
-4.8561707 3.8660295 4.4682827 0 0 0 0 26.756409
-4.5887361 3.6411846 4.4996877 0 0 0 0 26.761356
-6.0688539 4.6717896 4.8422232 0 0 0 0 26.766304
-5.7497945 4.3876119 4.8872137 0 0 0 0 26.771252
-5.4421091 4.1392365 4.9228954 0 0 0 0 26.776196
-5.1537266 3.9147818 4.9753437 0 0 0 0 26.781143
-6.1558814 4.5066524 4.8164182 0 0 0 0 26.786091
-5.8189044 4.2306256 4.8563814 0 0 0 0 26.791039
-5.5074148 3.998342 4.898941 0 0 0 0 26.795986
-5.1920033 3.7740598 4.9364448 0 0 0 0 26.80093
-6.2318411 4.3356075 4.7866821 0 0 0 0 26.805878
-5.8981476 4.082634 4.8384523 0 0 0 0 26.810825
-5.5757804 3.8614564 4.8799458 0 0 0 0 26.815773
-5.2596025 3.6562557 4.9272985 0 0 0 0 26.820721
-6.305809 4.1645956 4.7579465 0 0 0 0 26.825668
-5.9643145 3.9287329 4.8135962 0 0 0 0 26.830612
-5.6462097 3.7286057 4.8679118 0 0 0 0 26.83556
-5.3120604 3.5275252 4.9062691 0 0 0 0 26.840508
-6.3677068 3.987679 4.7242808 0 0 0 0 26.845455
-6.034512 3.7758381 4.7947202 0 0 0 0 26.850403
-5.6893868 3.5768743 4.8330836 0 0 0 0 26.85535
-5.3686028 3.4048073 4.8921804 0 0 0 0 26.860294
-6.3863006 3.7880173 4.6628861 0 0 0 0 26.865242
-6.0936708 3.6200266 4.7708883 0 0 0 0 26.87019
-5.7528 3.4420893 4.8190746 0 0 0 0 26.875137
-5.4160714 3.2761433 4.8721566 0 0 0 0 26.880085
-6.3928862 3.5874724 4.5995212 0 0 0 0 26.885033
-6.158884 3.467207 4.7540169 0 0 0 0 26.889977
-5.8061442 3.3013852 4.8011322 0 0 0 0 26.894924
-5.4655838 3.1504827 4.8551021 0 0 0 0 26.899872
-6.4035578 3.3929322 4.5420952 0 0 0 0 26.904819
-6.2170892 3.3134582 4.7361655 0 0 0 0 26.909767
-5.8544631 3.1587062 4.779213 0 0 0 0 26.914711
-5.5120921 3.0238645 4.8390594 0 0 0 0 26.919659
-6.4213428 3.2063866 4.4935875 0 0 0 0 26.924606
-6.2581892 3.1518111 4.7074099 0 0 0 0 26.929554
-5.8987813 3.0150886 4.7593074 0 0 0 0 26.934502
-5.5505662 2.8943117 4.8200545 0 0 0 0 26.939449
-6.4584641 3.0321951 4.4607506 0 0 0 0 26.675858
-6.3206153 3.0005834 4.696352 0 0 0 0 26.680805
-5.9533343 2.8780236 4.7471981 0 0 0 0 26.685753
-5.5901666 2.7654233 4.7989554 0 0 0 0 26.690701
-6.5014739 2.863569 4.4380651 0 0 0 0 26.695644
-6.3556952 2.839016 4.6706271 0 0 0 0 26.700592
-5.9926286 2.7344513 4.7273192 0 0 0 0 26.70554
-5.6427407 2.6438255 4.7948689 0 0 0 0 26.710487
-6.5263906 2.6880648 4.4054718 0 0 0 0 26.715435
-6.4018674 2.6833999 4.6538272 0 0 0 0 26.720379
-6.0379786 2.5938778 4.7153993 0 0 0 0 26.725327
-5.676198 2.5143211 4.7758865 0 0 0 0 26.730274
-6.5604258 2.5205491 4.383791 0 0 0 0 26.735222
-6.4561243 2.532784 4.6479659 0 0 0 0 26.74017
-6.0722857 2.4503715 4.6965246 0 0 0 0 26.745117
-5.7066617 2.3848591 4.7579079 0 0 0 0 26.750061
-6.6055217 2.3559926 4.3720574 0 0 0 0 26.755009
-6.4922857 2.3752813 4.631197 0 0 0 0 26.759956
-6.0905204 2.3019645 4.6677222 0 0 0 0 26.764904
-5.7411661 2.2574012 4.7459011 0 0 0 0 26.769852
-6.6355758 2.1885476 4.3533769 0 0 0 0 26.774799
-6.5153933 2.2138684 4.6074848 0 0 0 0 26.779743
-6.1419692 2.1664317 4.6687398 0 0 0 0 26.784691
-5.7766881 2.1309419 4.7348814 0 0 0 0 26.789639
-6.6556182 2.02019 4.3317237 0 0 0 0 26.794586
-6.5325069 2.0525222 4.5837822 0 0 0 0 26.799534
-6.1733265 2.0250099 4.6558466 0 0 0 0 26.804482
-5.8041835 2.0025403 4.719893 0 0 0 0 26.809425
-6.6917477 1.8567522 4.321991 0 0 0 0 26.814373
-6.5677462 1.8990972 4.5749731 0 0 0 0 26.819321
-6.1936407 1.8806551 4.6359978 0 0 0 0 26.824268
-5.8337054 1.875157 4.7098885 0 0 0 0 26.829216
-6.7138419 1.6904374 4.3083091 0 0 0 0 26.834164
-6.5859041 1.7397813 4.5562449 0 0 0 0 26.839108
-6.2220149 1.7392919 4.6261044 0 0 0 0 26.844055
-5.8602166 1.7467921 4.697896 0 0 0 0 26.849003
-6.7289243 1.5231768 4.2916465 0 0 0 0 26.853951
-6.6141357 1.584443 4.5484591 0 0 0 0 26.858898
-6.2463679 1.5959581 4.6142321 0 0 0 0 26.863842
-5.8867474 1.6194439 4.6878924 0 0 0 0 26.86879
-6.7520628 1.3588918 4.282939 0 0 0 0 26.873737
-6.6343522 1.4281617 4.5366955 0 0 0 0 26.878685
-6.2526822 1.4507433 4.592412 0 0 0 0 26.883633
-5.9092617 1.4901403 4.6779108 0 0 0 0 26.88858
-6.7561684 1.1927521 4.2662845 0 0 0 0 26.893524
-6.6405377 1.269979 4.5179749 0 0 0 0 26.898472
-6.2790909 1.3104361 4.5865049 0 0 0 0 26.903419
-5.9308038 1.3628561 4.6689119 0 0 0 0 26.908367
-6.7623096 1.0286222 4.2536063 0 0 0 0 26.913315
-6.6577883 1.1147707 4.5112023 0 0 0 0 26.918262
-6.2934747 1.168229 4.5766363 0 0 0 0 26.923206
-5.9403009 1.2326412 4.6519604 0 0 0 0 26.928154
-6.7754683 0.86445564 4.2459087 0 0 0 0 26.933102
-6.2857957 1.0231369 4.5508366 0 0 0 0 26.942997
-5.9658675 1.1053697 4.6499472 0 0 0 0 26.947945
-0.56499177 0.07131733 0.36406478 0 0 0 0 26.957836
-0.57570523 0.050035786 0.34322089 0 0 0 0 26.972679
-0.55882227 0.058332767 0.35820138 0 0 0 0 26.977623
-0.53793263 0.066649504 0.37019068 0 0 0 0 26.982571
-0.56751502 0.035073336 0.33737692 0 0 0 0 26.992466
-0.55666202 0.045335874 0.35632876 0 0 0 0 26.997414
-0.51792735 0.065943174 0.38126993 0 0 0 0 27.007305
-0.57036412 0.02205383 0.33949289 0 0 0 0 27.012253
-0.5575065 0.032322083 0.35644922 0 0 0 0 27.0172
-0.53863794 0.042616174 0.36841872 0 0 0 0 27.022148
-0.51363736 0.042939462 0.37650064 0 0 0 0 27.046883
-0.56103981 -0.0039085825 0.33275682 0 0 0 0 27.05183
-0.55320126 0.0073357825 0.35369459 0 0 0 0 27.056778
-0.54336435 0.019570684 0.37062913 0 0 0 0 27.061726
-0.5233919 0.021862317 0.38168433 0 0 0 0 27.08646
-0.56173688 -0.029909391 0.33499745 0 0 0 0 27.091404
-0.55490398 -0.017691821 0.35392559 0 0 0 0 27.096352
-0.54308581 -0.0034441233 0.36984932 0 0 0 0 27.101299
-0.52513927 0.00084032386 0.38288441 0 0 0 0 27.126034
-0.57843578 -0.058004346 0.34721741 0 0 0 0 27.130981
-0.56761944 -0.043760262 0.36413911 0 0 0 0 27.135929
-0.55080271 -0.028490635 0.37606624 0 0 0 0 27.140877
-6.6412683 -0.90084553 4.1807814 0 0 0 0 26.897274
-0.53407025 -0.022154193 0.38880676 0 0 0 0 26.912117
-6.5975618 -1.0544206 4.1701078 0 0 0 0 26.917065
-0.60349911 -0.074901678 0.39006743 0 0 0 0 26.922009
-0.57372016 -0.054556761 0.39298329 0 0 0 0 26.926956
-6.563869 -1.2090353 4.1684155 0 0 0 0 26.936852
-0.64333266 -0.095111907 0.41915512 0 0 0 0 26.941799
-0.54780334 -0.046235975 0.39900479 0 0 0 0 26.951691
-6.5172143 -1.3595498 4.1617169 0 0 0 0 26.956638
-6.2558088 -1.1340624 4.2445827 0 0 0 0 26.961586
-0.61441439 -0.086765818 0.42418292 0 0 0 0 26.966534
-0.56366652 -0.060311913 0.412099 0 0 0 0 26.971481
-6.4815521 -1.5131145 4.1640129 0 0 0 0 26.976425
-6.2162476 -1.2756753 4.235796 0 0 0 0 26.981373
-0.63624394 -0.10487435 0.44129452 0 0 0 0 26.98632
-0.60053271 -0.077490307 0.44116989 0 0 0 0 26.991268
-6.5158162 -1.684063 4.2142825 0 0 0 0 26.996216
-6.1797152 -1.4162756 4.2329917 0 0 0 0 27.001163
-5.946393 -1.1782577 4.2956991 0 0 0 0 27.006107
-0.60937494 -0.092528783 0.44928685 0 0 0 0 27.011055
-6.5031228 -1.8457226 4.2365813 0 0 0 0 27.016003
-6.1441941 -1.5568649 4.233181 0 0 0 0 27.02095
-5.9219537 -1.3109704 4.2958045 0 0 0 0 27.025898
-0.62424195 -0.10856437 0.46137491 0 0 0 0 27.030846
-6.4557719 -1.9967977 4.2396336 0 0 0 0 27.035789
-6.1818223 -1.718498 4.2851372 0 0 0 0 27.040737
-5.8857641 -1.4412878 4.2886996 0 0 0 0 27.045685
-5.6747093 -1.177487 4.3571739 0 0 0 0 27.050632
-6.4011774 -2.146189 4.2389231 0 0 0 0 27.05558
-6.1712728 -1.8681872 4.3073311 0 0 0 0 27.060524
