# .PCD v0.7 - Point Cloud Data file format
VERSION 0.7
FIELDS x y z normal_x normal_y normal_z intensity curvature
SIZE 4 4 4 4 4 4 4 4
TYPE F F F F F F F F
COUNT 1 1 1 1 1 1 1 1
WIDTH 960
HEIGHT 1
VIEWPOINT 0 0 0 1 0 0 0
POINTS 960
DATA ascii
-0.34294349 0.094076402 0.078014679 0 0 0 0 88.355766
-0.30818501 0.072724491 0.092780694 0 0 0 0 88.365662
-0.29698303 0.068893127 0.083954439 0 0 0 0 88.380501
-0.30861148 0.056917876 0.10123182 0 0 0 0 88.390396
-0.30192184 0.068495415 0.075953454 0 0 0 0 88.395348
-0.30751765 0.055742063 0.093282893 0 0 0 0 88.405235
-0.30435169 0.052641876 0.085396163 0 0 0 0 88.420082
-0.30498216 0.041045122 0.10172025 0 0 0 0 88.42997
-0.30521443 0.050366487 0.076466203 0 0 0 0 88.434921
-0.30584997 0.03879654 0.093790032 0 0 0 0 88.444817
-0.29700786 0.035889685 0.084594406 0 0 0 0 88.171494
-0.30668062 0.025013169 0.10285205 0 0 0 0 88.181389
-0.30183694 0.032496754 0.076674044 0 0 0 0 88.186333
-0.30651301 0.021803526 0.094952606 0 0 0 0 88.196228
-0.29634184 0.018907296 0.085095644 0 0 0 0 88.211067
-0.31001663 0.0079107787 0.10433652 0 0 0 0 88.220963
-0.30216989 0.015477376 0.077171311 0 0 0 0 88.225914
-0.31488186 0.005516442 0.096389644 0 0 0 0 88.235802
-0.30567309 0.0015845388 0.086555541 0 0 0 0 88.250648
-0.30642959 -0.0069368188 0.10579731 0 0 0 0 88.260536
-0.30853435 -0.00076333951 0.077617452 0 0 0 0 88.265488
-0.30825484 -0.010246866 0.096890293 0 0 0 0 88.275383
-0.30604094 -0.014435782 0.087027222 0 0 0 0 88.290222
-0.30279991 -0.022809777 0.10628597 0 0 0 0 88.300117
-0.30782938 -0.018745132 0.078147143 0 0 0 0 88.305061
-0.30458823 -0.027118998 0.097405985 0 0 0 0 88.314957
-0.30137467 -0.031271253 0.087547325 0 0 0 0 88.329796
-0.31213403 -0.040106155 0.10874712 0 0 0 0 88.339691
-0.30116412 -0.035507243 0.078675836 0 0 0 0 88.344635
-0.3099196 -0.044295263 0.098884441 0 0 0 0 88.35453
-0.30367109 -0.049336266 0.089065425 0 0 0 0 88.36937
-0.31743324 -0.058254741 0.11125255 0 0 0 0 88.379265
-0.30341831 -0.05459813 0.079221427 0 0 0 0 88.384216
-0.30925408 -0.061250903 0.10038871 0 0 0 0 88.394112
-0.303 -0.066318639 0.089570336 0 0 0 0 88.408951
-0.30683699 -0.072897516 0.11074612 0 0 0 0 88.418846
-0.3106364 -0.074845545 0.080773421 0 0 0 0 88.42379
-0.32343554 -0.082728215 0.10293815 0 0 0 0 88.433685
-0.32310864 -0.089988448 0.093148395 0 0 0 0 88.448524
-0.32598794 -0.095504545 0.11530132 0 0 0 0 88.45842
-0.32869878 -0.099494703 0.082387842 0 0 0 0 88.463364
-0.31973323 -0.10057242 0.10448341 0 0 0 0 88.473259
-0.31244227 -0.10660242 0.093696736 0 0 0 0 88.488098
-0.29858011 -0.10455169 0.11373328 0 0 0 0 88.497993
-0.30222157 -0.1105506 0.081869245 0 0 0 0 88.502945
-0.3051374 -0.11506709 0.10399549 0 0 0 0 88.512833
-0.34328324 -0.13767225 0.097419068 0 0 0 0 88.527679
-0.34329003 -0.13999969 0.12250302 0 0 0 0 88.537575
-0.35075521 -0.15027702 0.08573211 0 0 0 0 88.542519
-0.34191537 -0.14827614 0.11074603 0 0 0 0 88.552414
-0.33654326 -0.15640497 0.099005952 0 0 0 0 88.567253
-0.34447595 -0.16099852 0.12511007 0 0 0 0 88.577148
-0.34001222 -0.16888912 0.086336561 0 0 0 0 88.582092
-0.33713657 -0.16808127 0.11235201 0 0 0 0 88.591988
-0.38482618 -0.20307331 0.10505901 0 0 0 0 88.606827
-0.38099831 -0.20117569 0.13305104 0 0 0 0 88.616722
-0.3842549 -0.21643618 0.091434374 0 0 0 0 88.621674
-0.37554106 -0.21135652 0.11936643 0 0 0 0 88.631561
-0.36945349 -0.22049142 0.10533309 0 0 0 0 88.394409
-0.38529614 -0.2282445 0.13648258 0 0 0 0 88.404305
-0.37862065 -0.2412136 0.09185344 0 0 0 0 88.409248
-0.36905795 -0.23207912 0.12068229 0 0 0 0 88.419144
-0.35864228 -0.24107607 0.10699077 0 0 0 0 88.433983
-0.40001002 -0.26266652 0.14237997 0 0 0 0 88.443878
-0.3579939 -0.25646207 0.092419416 0 0 0 0 88.44883
-6.078671 -3.9761519 0.77254528 0 0 0 0 88.453773
-6.1198149 -3.9698715 0.98825753 0 0 0 0 88.458725
-6.1647401 -3.970516 1.2121385 0 0 0 0 88.463669
-5.736804 -3.9920189 0.53669143 0 0 0 0 88.468613
-5.7917857 -3.9910867 0.75847757 0 0 0 0 88.473564
-5.8477421 -3.9895127 0.96823692 0 0 0 0 88.478508
-5.9152689 -4.0010729 1.1892921 0 0 0 0 88.483459
-5.4658751 -4.0093222 0.53060901 0 0 0 0 88.488403
-5.5190744 -4.0015349 0.74421799 0 0 0 0 88.493347
-5.6004877 -4.014957 0.95224637 0 0 0 0 88.498299
-5.6544189 -4.0142512 1.1640403 0 0 0 0 88.503242
-5.2140427 -4.0243211 0.52436745 0 0 0 0 88.508194
-5.2838421 -4.027256 0.7341761 0 0 0 0 88.513138
-5.3526645 -4.0284224 0.93393868 0 0 0 0 88.518082
-5.4155326 -4.0291533 1.1417235 0 0 0 0 88.523033
-4.986793 -4.051198 0.51931852 0 0 0 0 88.527977
-5.0558252 -4.047235 0.7239446 0 0 0 0 88.532928
-5.1256948 -4.0465722 0.91865104 0 0 0 0 88.537872
-5.190567 -4.0465364 1.1204027 0 0 0 0 88.542824
-4.7580647 -4.063982 0.51490158 0 0 0 0 88.547768
-4.8330302 -4.0613713 0.7145313 0 0 0 0 88.552711
-4.9058352 -4.0619507 0.90425396 0 0 0 0 88.557663
-4.9766779 -4.0622687 1.1009823 0 0 0 0 88.562607
-4.5462503 -4.0793853 0.51046842 0 0 0 0 88.567558
-4.628932 -4.084168 0.7062549 0 0 0 0 88.572502
-4.6931176 -4.073586 0.88972074 0 0 0 0 88.577446
-4.7678633 -4.0761547 1.0824878 0 0 0 0 88.582397
-4.3434343 -4.095088 0.50699824 0 0 0 0 88.587341
-4.4232764 -4.0948977 0.69766426 0 0 0 0 88.592293
-4.4943266 -4.0876765 0.87718314 0 0 0 0 88.597237
-4.5779033 -4.0946527 1.0670215 0 0 0 0 88.60218
-4.1457667 -4.1069469 0.50439984 0 0 0 0 88.607132
-4.2199144 -4.0977039 0.68885022 0 0 0 0 88.612076
-4.3073893 -4.1061478 0.86670339 0 0 0 0 88.617027
-4.3813057 -4.102951 1.0493164 0 0 0 0 88.621971
-3.9561672 -4.1170983 0.50171489 0 0 0 0 88.626923
-4.044847 -4.1204762 0.68342733 0 0 0 0 88.631866
-4.1266322 -4.1198406 0.8560645 0 0 0 0 88.63681
-4.1967468 -4.1106348 1.033534 0 0 0 0 88.641762
-3.7803049 -4.134728 0.50016069 0 0 0 0 88.646706
-3.8700738 -4.1352525 0.67778951 0 0 0 0 88.651657
-3.9499137 -4.1326504 0.84638238 0 0 0 0 88.656601
-4.0307841 -4.1299248 1.0209688 0 0 0 0 88.661545
-3.6057734 -4.1433992 0.49836019 0 0 0 0 88.666496
-3.696521 -4.1440663 0.6719861 0 0 0 0 88.67144
-3.7754836 -4.1375647 0.83547699 0 0 0 0 88.676392
-3.8611882 -4.1390996 1.0071516 0 0 0 0 88.681335
-3.4363117 -4.1502519 0.49648541 0 0 0 0 88.686287
-3.5308938 -4.1551423 0.66720378 0 0 0 0 88.691231
-3.617651 -4.1540117 0.82779717 0 0 0 0 88.696175
-3.6937375 -4.1443472 0.99321848 0 0 0 0 88.701126
-3.2795877 -4.1645474 0.49574572 0 0 0 0 88.70607
-3.3742228 -4.1675467 0.66241151 0 0 0 0 88.711021
-3.4551854 -4.160306 0.81886917 0 0 0 0 88.715965
-3.5467017 -4.1662445 0.98362935 0 0 0 0 88.720909
-3.1269026 -4.1779604 0.49596268 0 0 0 0 88.725861
-3.2139609 -4.1688094 0.6573391 0 0 0 0 88.730804
-3.3054621 -4.174017 0.81207603 0 0 0 0 88.735756
-3.3922467 -4.1719389 0.97064286 0 0 0 0 88.7407
-2.9744704 -4.1844029 0.49499139 0 0 0 0 88.745644
-3.0662935 -4.1814842 0.65450984 0 0 0 0 88.750595
-3.150213 -4.1745682 0.80295765 0 0 0 0 88.755539
-3.2475784 -4.1839128 0.96077639 0 0 0 0 88.76049
-2.826966 -4.1929979 0.49505353 0 0 0 0 88.765434
-2.9218035 -4.1892982 0.65053368 0 0 0 0 88.770386
-3.0105245 -4.1876154 0.79709649 0 0 0 0 88.77533
-3.0973153 -4.1846981 0.94963831 0 0 0 0 88.780273
-2.6883492 -4.2048926 0.49615949 0 0 0 0 88.785225
-2.7812099 -4.2001991 0.64862192 0 0 0 0 88.790169
-2.8700211 -4.1956267 0.79110491 0 0 0 0 88.79512
-2.9578965 -4.1898832 0.93856287 0 0 0 0 88.800064
-2.5499489 -4.2108159 0.49610394 0 0 0 0 88.805008
-2.6466434 -4.2103472 0.64565897 0 0 0 0 88.809959
-2.7364388 -4.2058916 0.78513861 0 0 0 0 88.814903
-2.8243036 -4.200201 0.93059731 0 0 0 0 88.819855
-2.4164021 -4.22089 0.49713606 0 0 0 0 88.824799
-2.5131919 -4.217504 0.64361072 0 0 0 0 88.82975
-2.6020098 -4.2120929 0.78006852 0 0 0 0 88.834694
-2.6956334 -4.2126994 0.92266566 0 0 0 0 88.839638
-2.2868574 -4.2310815 0.49915168 0 0 0 0 88.844589
-2.3828127 -4.2227712 0.64149624 0 0 0 0 88.849533
-2.4735024 -4.2205114 0.77502799 0 0 0 0 88.854485
-2.5690351 -4.2232699 0.91467202 0 0 0 0 88.859428
-2.1591251 -4.2394419 0.50030231 0 0 0 0 88.923668
-2.2597394 -4.240334 0.64186972 0 0 0 0 88.928619
-2.3534496 -4.237267 0.77236205 0 0 0 0 88.933563
-2.4404826 -4.2258396 0.90666491 0 0 0 0 88.938515
-2.0373936 -4.2548852 0.5034222 0 0 0 0 88.943459
-2.140023 -4.2549605 0.64095539 0 0 0 0 88.94841
-2.2270937 -4.241724 0.76820636 0 0 0 0 88.953354
-2.3236694 -4.2426829 0.90179342 0 0 0 0 88.958298
-1.9139916 -4.2612872 0.5053069 0 0 0 0 88.963249
-2.0119431 -4.2522664 0.6396175 0 0 0 0 88.968193
-2.1076212 -4.2494349 0.76410335 0 0 0 0 88.973145
-2.1994395 -4.2433228 0.8935225 0 0 0 0 88.978088
-1.7954799 -4.2708416 0.50825238 0 0 0 0 88.983032
-1.8990459 -4.2720871 0.64081025 0 0 0 0 88.987984
-1.9920075 -4.2612338 0.76209211 0 0 0 0 88.992928
-2.0819871 -4.2501864 0.88638544 0 0 0 0 88.997879
-1.6743311 -4.2703452 0.5089398 0 0 0 0 89.002823
-1.7807784 -4.2747259 0.64056683 0 0 0 0 89.007767
-1.8745754 -4.2679858 0.75895435 0 0 0 0 89.012718
-1.973991 -4.272296 0.88361347 0 0 0 0 89.017662
-1.5606722 -4.2840471 0.5129739 0 0 0 0 89.022614
-1.6626543 -4.2733932 0.63921547 0 0 0 0 89.027557
-1.7638141 -4.2839327 0.75803179 0 0 0 0 89.032509
-1.8576912 -4.2751675 0.8773641 0 0 0 0 89.037453
-1.4472306 -4.2917795 0.5158456 0 0 0 0 89.042397
-1.5537581 -4.2933254 0.64139307 0 0 0 0 89.047348
-1.6496025 -4.2847972 0.75471914 0 0 0 0 89.052292
-1.7435013 -4.2751136 0.87102515 0 0 0 0 89.057243
-1.3347189 -4.3015161 0.51976788 0 0 0 0 89.062187
-1.4404869 -4.2961407 0.64113021 0 0 0 0 89.067131
-1.5363209 -4.2876658 0.75245684 0 0 0 0 89.072083
-1.6368008 -4.289259 0.86803311 0 0 0 0 89.077026
-1.2224675 -4.3042569 0.52349997 0 0 0 0 89.081978
-1.3282943 -4.2969646 0.64180869 0 0 0 0 89.086922
-1.4287746 -4.2977481 0.75036037 0 0 0 0 89.091866
-1.5274262 -4.2943535 0.86280996 0 0 0 0 89.096817
-1.1121401 -4.3090672 0.5272786 0 0 0 0 89.101761
-1.2198064 -4.3058991 0.6436885 0 0 0 0 89.106712
-1.3213449 -4.3048038 0.74918246 0 0 0 0 89.111656
-1.4190934 -4.2984557 0.85855538 0 0 0 0 89.116608
-1.0038431 -4.3129768 0.53002238 0 0 0 0 89.121552
-1.113354 -4.3139067 0.64553314 0 0 0 0 89.126495
-1.2121397 -4.3057876 0.74784982 0 0 0 0 89.131447
-1.3146459 -4.3057008 0.85436624 0 0 0 0 89.136391
-0.89722514 -4.3258672 0.5360027 0 0 0 0 89.141342
-1.0053022 -4.3109016 0.64508742 0 0 0 0 89.146286
-1.107601 -4.315918 0.7477417 0 0 0 0 89.15123
-1.2083166 -4.3098445 0.85110384 0 0 0 0 89.156181
-0.79078788 -4.333786 0.54084754 0 0 0 0 89.161125
-0.90059781 -4.3259153 0.64911503 0 0 0 0 89.166077
-1.0023556 -4.3180442 0.74642044 0 0 0 0 89.171021
-1.1031249 -4.310081 0.84572917 0 0 0 0 89.175972
-0.68446225 -4.3387055 0.54561108 0 0 0 0 89.180916
-0.79784906 -4.3420267 0.65216255 0 0 0 0 89.18586
-0.89885825 -4.3271799 0.74728155 0 0 0 0 89.190811
-1.0033162 -4.3274121 0.84479249 0 0 0 0 89.195755
-0.57902384 -4.3466558 0.55045283 0 0 0 0 89.200706
-0.69191778 -4.3360362 0.65362698 0 0 0 0 89.20565
-0.7972101 -4.3403831 0.74824411 0 0 0 0 89.210594
-0.90002668 -4.3306336 0.84249121 0 0 0 0 89.215546
-0.47473904 -4.3506174 0.55618119 0 0 0 0 89.22049
-0.5884676 -4.3441129 0.65646136 0 0 0 0 89.225441
-0.69385612 -4.3455448 0.74799752 0 0 0 0 89.230385
-0.79691315 -4.3289108 0.83805448 0 0 0 0 89.235329
-0.37104821 -4.3655744 0.56320626 0 0 0 0 89.24028
-0.48690906 -4.3552303 0.66036946 0 0 0 0 89.245224
-0.59250581 -4.3507504 0.74874252 0 0 0 0 89.250175
-0.69732738 -4.3402395 0.83695561 0 0 0 0 89.255119
-0.26657641 -4.3745241 0.56907248 0 0 0 0 89.260071
-0.38446292 -4.3633108 0.66420031 0 0 0 0 89.265015
-0.49186119 -4.363955 0.75070232 0 0 0 0 89.269958
-0.59685397 -4.3485312 0.83577943 0 0 0 0 89.27491
-0.16247787 -4.3734808 0.57466567 0 0 0 0 89.279854
-0.28198448 -4.3723598 0.6690588 0 0 0 0 89.284805
-0.39062256 -4.3661575 0.75136632 0 0 0 0 89.289749
-0.49645501 -4.3548222 0.83454913 0 0 0 0 89.294693
-0.05974799 -4.3894644 0.58171576 0 0 0 0 89.299644
-0.17961265 -4.3784356 0.67283607 0 0 0 0 89.304588
-0.28827775 -4.3712902 0.75311679 0 0 0 0 89.30954
-0.39797971 -4.363183 0.83336562 0 0 0 0 89.314484
0.044713955 -4.3983502 0.58958298 0 0 0 0 89.319427
-0.076246575 -4.3844442 0.67761779 0 0 0 0 89.324379
-0.18770707 -4.3824873 0.75502354 0 0 0 0 89.329323
-0.29654893 -4.3704023 0.83316767 0 0 0 0 89.334274
0.14881277 -4.3972979 0.59517759 0 0 0 0 89.339218
0.025088917 -4.3895526 0.68136448 0 0 0 0 89.34417
-0.08544194 -4.3855882 0.75771993 0 0 0 0 89.349113
-0.19715396 -4.3766942 0.83293432 0 0 0 0 89.354057
0.2534194 -4.4101453 0.60415524 0 0 0 0 89.359009
0.12756291 -4.398562 0.68722475 0 0 0 0 89.363953
0.014829965 -4.3887882 0.75940859 0 0 0 0 89.368904
-0.097683944 -4.3849816 0.8327564 0 0 0 0 89.373848
0.35791937 -4.4200201 0.61205161 0 0 0 0 89.378792
0.22996762 -4.4055977 0.69203126 0 0 0 0 89.383743
0.11657725 -4.4048796 0.76345778 0 0 0 0 89.388687
0.0018612201 -4.3952637 0.83263385 0 0 0 0 89.393639
0.46560812 -4.4203701 0.62180448 0 0 0 0 89.969963
0.33695436 -4.4140348 0.70099008 0 0 0 0 89.974907
0.22035594 -4.4075742 0.76823205 0 0 0 0 89.979858
0.1054583 -4.3930755 0.83426076 0 0 0 0 89.984802
0.57228953 -4.4350543 0.63185757 0 0 0 0 89.989754
0.44013414 -4.4149866 0.70564336 0 0 0 0 89.994698
0.32273644 -4.4136152 0.77102035 0 0 0 0 89.999649
0.20714766 -4.4071727 0.83626705 0 0 0 0 90.004593
0.67948866 -4.4367666 0.63955551 0 0 0 0 90.009537
0.54468155 -4.4258318 0.7125783 0 0 0 0 90.014488
0.42614886 -4.4205861 0.77484095 0 0 0 0 90.019432
0.30739403 -4.4093742 0.83593708 0 0 0 0 90.024384
0.78575897 -4.440484 0.64830476 0 0 0 0 90.029327
0.65233529 -4.439528 0.72060978 0 0 0 0 90.034271
0.52956146 -4.4275532 0.77866203 0 0 0 0 90.039223
0.40985578 -4.4174347 0.8377822 0 0 0 0 90.044167
0.89635712 -4.4529805 0.65932113 0 0 0 0 90.049118
0.75750864 -4.4403672 0.72627282 0 0 0 0 90.054062
0.63500541 -4.4354129 0.78351974 0 0 0 0 90.059006
0.51235574 -4.4264913 0.83965564 0 0 0 0 90.063957
1.0068796 -4.4634757 0.67028248 0 0 0 0 90.068901
0.86501122 -4.4500613 0.7341944 0 0 0 0 90.073853
0.74037898 -4.4412994 0.78732276 0 0 0 0 90.078796
0.61570877 -4.4315386 0.84042317 0 0 0 0 90.083748
1.1195474 -4.4778595 0.68236411 0 0 0 0 90.088692
0.97799313 -4.4724922 0.74449891 0 0 0 0 90.093636
0.84681726 -4.4490862 0.79318547 0 0 0 0 90.098587
0.72101712 -4.4354796 0.84217161 0 0 0 0 90.103531
1.2352567 -4.4931512 0.69348758 0 0 0 0 90.108482
1.0862299 -4.4751496 0.75223142 0 0 0 0 90.113426
0.95644337 -4.461751 0.79920089 0 0 0 0 90.11837
0.82761788 -4.4473157 0.84614676 0 0 0 0 90.123322
1.3472469 -4.4895754 0.70406997 0 0 0 0 90.128265
1.1964654 -4.4777274 0.75997299 0 0 0 0 90.133217
1.0671397 -4.4763436 0.80627668 0 0 0 0 90.138161
0.93644559 -4.4650655 0.85029823 0 0 0 0 90.143105
1.4636086 -4.4958043 0.71594816 0 0 0 0 90.148056
1.3120663 -4.4900441 0.77001429 0 0 0 0 90.153
1.1795689 -4.4838648 0.81316686 0 0 0 0 90.157951
1.044747 -4.4688554 0.85306102 0 0 0 0 90.162895
1.5842988 -4.5108118 0.73009408 0 0 0 0 90.167847
1.4263315 -4.493433 0.77880174 0 0 0 0 90.172791
1.2896683 -4.4825234 0.81779897 0 0 0 0 90.177734
1.157339 -4.4804244 0.8580637 0 0 0 0 90.182686
1.7035394 -4.5138941 0.74290246 0 0 0 0 90.18763
1.5448114 -4.5026045 0.7897734 0 0 0 0 90.192581
1.4063938 -4.4978485 0.82593012 0 0 0 0 90.197525
1.2666019 -4.4831705 0.86080396 0 0 0 0 90.202469
1.8248165 -4.5178952 0.75574797 0 0 0 0 90.20742
1.6677015 -4.5225782 0.80206937 0 0 0 0 90.212364
1.5241135 -4.5131035 0.83506596 0 0 0 0 90.217316
1.3832296 -4.4955792 0.86585307 0 0 0 0 90.22226
1.949271 -4.5267172 0.77074558 0 0 0 0 90.227211
1.7879575 -4.5257001 0.81188416 0 0 0 0 90.232155
1.6411593 -4.5104308 0.84170127 0 0 0 0 90.237099
1.4998575 -4.5079842 0.87090296 0 0 0 0 90.24205
2.0776846 -4.5343833 0.78573328 0 0 0 0 90.246994
1.9102393 -4.5296845 0.82373524 0 0 0 0 90.251945
1.7627624 -4.5225291 0.85077214 0 0 0 0 90.256889
1.6170281 -4.5083613 0.87562293 0 0 0 0 90.261833
2.2069778 -4.5389833 0.80164188 0 0 0 0 90.266785
2.0376699 -4.5374694 0.83572018 0 0 0 0 90.271729
1.8862554 -4.5315781 0.85876906 0 0 0 0 90.27668
1.734166 -4.5077634 0.87931585 0 0 0 0 90.281624
2.3435655 -4.5512743 0.81880432 0 0 0 0 90.286568
2.1671319 -4.546145 0.84874201 0 0 0 0 90.291519
2.0103996 -4.5315676 0.86751914 0 0 0 0 90.296463
1.8621515 -4.5296426 0.88769341 0 0 0 0 90.301414
2.4842596 -4.5663767 0.83706838 0 0 0 0 90.306358
2.2994394 -4.5507064 0.86166579 0 0 0 0 90.31131
2.1409914 -4.5432825 0.87763059 0 0 0 0 90.316254
1.9874635 -4.5336699 0.89356107 0 0 0 0 90.321198
2.6204667 -4.5686698 0.853953 0 0 0 0 90.326149
2.4359293 -4.5600772 0.87574679 0 0 0 0 90.331093
2.2734241 -4.5508933 0.88863933 0 0 0 0 90.336044
2.1136985 -4.5356579 0.8993777 0 0 0 0 90.340988
2.7701819 -4.5843616 0.8742848 0 0 0 0 90.345932
2.5785947 -4.5741525 0.89199364 0 0 0 0 90.350883
2.4077084 -4.5544558 0.89854592 0 0 0 0 90.355827
2.2462292 -4.5453753 0.90644425 0 0 0 0 90.360779
2.924921 -4.600801 0.89666635 0 0 0 0 90.365723
2.7209992 -4.5812588 0.90704584 0 0 0 0 90.370667
2.5514657 -4.5705709 0.91185462 0 0 0 0 90.375618
2.3859348 -4.5597591 0.91568094 0 0 0 0 90.380562
3.0772915 -4.6073785 0.91676122 0 0 0 0 90.385513
2.8779442 -4.6026964 0.92657769 0 0 0 0 90.390457
2.6928868 -4.5777965 0.92390412 0 0 0 0 90.395409
2.5211146 -4.5603356 0.92350978 0 0 0 0 90.400352
3.2377212 -4.6155863 0.93894672 0 0 0 0 90.405296
3.033514 -4.6142058 0.94482666 0 0 0 0 90.410248
2.8477025 -4.5954237 0.93931741 0 0 0 0 90.415192
2.6710372 -4.5802932 0.93395895 0 0 0 0 90.420143
3.4096673 -4.6372967 0.96357197 0 0 0 0 90.425087
3.1857095 -4.6158648 0.96178395 0 0 0 0 90.430031
3.0065103 -4.6128645 0.95574874 0 0 0 0 90.434982
2.8237236 -4.5941095 0.94525379 0 0 0 0 90.439926
3.5724831 -4.6382923 0.98538071 0 0 0 0 90.158966
3.3594398 -4.6404347 0.98331392 0 0 0 0 90.16391
3.1594627 -4.6164055 0.96858788 0 0 0 0 90.168854
2.9749248 -4.6037645 0.95526034 0 0 0 0 90.173805
3.7604685 -4.6613078 1.0141231 0 0 0 0 90.178749
3.5289114 -4.6493778 1.0035634 0 0 0 0 90.183701
3.3228891 -4.6237206 0.98375714 0 0 0 0 90.188644
3.1313779 -4.6114602 0.9664005 0 0 0 0 90.193596
3.9407859 -4.6666598 1.0403354 0 0 0 0 90.19854
3.7042973 -4.6560607 1.0247835 0 0 0 0 90.203484
3.4966347 -4.6395564 1.0022202 0 0 0 0 90.208435
3.3053405 -4.6324306 0.98000449 0 0 0 0 90.213379
4.1301947 -4.6745768 1.06967 0 0 0 0 90.21833
3.8888941 -4.6683326 1.0482099 0 0 0 0 90.223274
3.6742308 -4.6512651 1.0195903 0 0 0 0 90.228218
3.4758873 -4.6425228 0.99328983 0 0 0 0 90.23317
4.3411045 -4.6955853 1.1024855 0 0 0 0 90.238113
4.0846624 -4.6851172 1.0738236 0 0 0 0 90.243065
3.859767 -4.661581 1.0399669 0 0 0 0 90.248009
3.6534235 -4.6523137 1.0076059 0 0 0 0 90.252953
4.5506735 -4.7076359 1.1350471 0 0 0 0 90.257904
4.2800508 -4.6919069 1.0991592 0 0 0 0 90.262848
4.0618138 -4.6852083 1.0628037 0 0 0 0 90.267799
3.8358042 -4.6579127 1.0218329 0 0 0 0 90.272743
4.7744446 -4.7250543 1.1708364 0 0 0 0 90.277695
4.4989285 -4.7116566 1.1299844 0 0 0 0 90.282639
4.2581902 -4.6910954 1.0831183 0 0 0 0 90.287582
4.0336528 -4.6758351 1.0394876 0 0 0 0 90.292534
5.0174136 -4.7476487 1.2098758 0 0 0 0 90.297478
4.7185445 -4.7243958 1.1596199 0 0 0 0 90.302429
4.4687691 -4.7023511 1.106661 0 0 0 0 90.307373
4.2383442 -4.6894879 1.057062 0 0 0 0 90.312317
5.2589655 -4.759285 1.248605 0 0 0 0 90.317268
4.9605856 -4.7481894 1.1926861 0 0 0 0 90.322212
4.6945491 -4.718936 1.1334361 0 0 0 0 90.327164
4.4572001 -4.707509 1.0778368 0 0 0 0 90.332108
5.5156422 -4.7742519 1.290511 0 0 0 0 90.337059
5.2021208 -4.758935 1.2273895 0 0 0 0 90.342003
4.934505 -4.7399445 1.1614125 0 0 0 0 90.346947
4.6746483 -4.7146292 1.0963016 0 0 0 0 90.351898
5.7975793 -4.7961049 1.3377483 0 0 0 0 90.356842
5.4742994 -4.7863913 1.266726 0 0 0 0 90.361794
5.1821823 -4.7536187 1.1902288 0 0 0 0 90.366737
4.9249187 -4.7433248 1.1215471 0 0 0 0 90.371681
6.0934958 -4.8173571 1.3870471 0 0 0 0 90.376633
5.7408381 -4.7970781 1.3045672 0 0 0 0 90.381577
5.4429874 -4.7706995 1.2222135 0 0 0 0 90.386528
5.1715918 -4.7562013 1.1443343 0 0 0 0 90.391472
6.405417 -4.8388739 1.4404433 0 0 0 0 90.396416
6.042892 -4.8212304 1.3489789 0 0 0 0 90.401367
5.7311325 -4.7966142 1.2585951 0 0 0 0 90.406311
5.4363117 -4.7702937 1.1702557 0 0 0 0 90.411263
6.6077108 -4.7651401 1.4695903 0 0 0 0 90.416206
6.3424563 -4.8324924 1.3920201 0 0 0 0 90.421158
6.0228229 -4.8104072 1.29366 0 0 0 0 90.426102
5.729557 -4.7981486 1.201718 0 0 0 0 90.431046
6.6176052 -4.5497403 1.457738 0 0 0 0 90.435997
6.6002927 -4.7985268 1.4265755 0 0 0 0 90.440941
6.3377361 -4.8301616 1.3340204 0 0 0 0 90.445892
6.0376396 -4.8214226 1.2331351 0 0 0 0 90.450836
6.6391182 -4.3508162 1.449404 0 0 0 0 90.45578
6.6202683 -4.584825 1.4118214 0 0 0 0 90.460732
6.6160374 -4.8075213 1.3650006 0 0 0 0 90.465675
6.351368 -4.8354392 1.2653275 0 0 0 0 90.470627
6.6586599 -4.1529398 1.4420848 0 0 0 0 90.475571
6.6406207 -4.3811121 1.3973432 0 0 0 0 90.480515
6.6297402 -4.5862265 1.3439959 0 0 0 0 90.485466
6.6356974 -4.8127303 1.2903366 0 0 0 0 90.49041
6.6713214 -3.9583559 1.4338154 0 0 0 0 90.495361
6.6558886 -4.1755652 1.3837823 0 0 0 0 90.500305
6.6560626 -4.3813686 1.3265142 0 0 0 0 90.505257
6.6451588 -4.5847373 1.2641174 0 0 0 0 90.510201
6.6862049 -3.7696881 1.4257188 0 0 0 0 90.515144
6.6694202 -3.9770875 1.3704047 0 0 0 0 90.520096
6.669241 -4.1730423 1.3078598 0 0 0 0 90.52504
6.6641216 -4.3702712 1.2423235 0 0 0 0 90.529991
6.4398193 -3.4433067 1.3663424 0 0 0 0 90.534935
6.6974492 -3.7919443 1.361475 0 0 0 0 90.539879
6.6846685 -3.9715745 1.2914053 0 0 0 0 90.54483
6.6925635 -4.1684165 1.2219288 0 0 0 0 90.549774
6.4501476 -3.2667937 1.3595505 0 0 0 0 90.554726
6.444778 -3.4579198 1.2978449 0 0 0 0 90.559669
6.7053056 -3.7758524 1.277136 0 0 0 0 90.564621
6.7005982 -3.9563706 1.2001343 0 0 0 0 90.569565
6.471868 -3.1007614 1.3561103 0 0 0 0 90.574509
6.4610386 -3.2792628 1.2880219 0 0 0 0 90.57946
6.4648051 -3.4463396 1.2146926 0 0 0 0 90.584404
6.7232194 -3.7597132 1.1808448 0 0 0 0 90.589355
6.4946151 -2.9356611 1.3536987 0 0 0 0 90.594299
6.4765248 -3.106637 1.2783593 0 0 0 0 90.599243
6.4778514 -3.261889 1.2016867 0 0 0 0 90.604195
6.4835863 -3.4271152 1.1203156 0 0 0 0 90.609138
6.4921303 -2.7646418 1.3469797 0 0 0 0 90.61409
6.4889588 -2.9330716 1.2706511 0 0 0 0 90.619034
6.4983082 -3.088156 1.1890166 0 0 0 0 90.623978
6.4924288 -3.2369654 1.1021229 0 0 0 0 90.628929
6.5215163 -2.6116717 1.3460704 0 0 0 0 90.380836
6.4977612 -2.7650976 1.2611887 0 0 0 0 90.385788
6.5108647 -2.9141099 1.1763846 0 0 0 0 90.390732
6.5077844 -3.0579093 1.0853463 0 0 0 0 90.395676
6.4755502 -2.4275103 1.3317643 0 0 0 0 90.400627
6.5196638 -2.603147 1.2548715 0 0 0 0 90.405571
6.4989204 -2.7296741 1.1612567 0 0 0 0 90.410522
6.5311928 -2.8820939 1.0716509 0 0 0 0 90.415466
6.4856629 -2.2719011 1.3295563 0 0 0 0 90.420418
6.4756327 -2.4169967 1.2375166 0 0 0 0 90.425362
6.5308561 -2.5683677 1.1540086 0 0 0 0 90.430305
6.5222535 -2.6976001 1.054534 0 0 0 0 90.435257
6.5342779 -2.1296227 1.3349273 0 0 0 0 90.440201
6.5017743 -2.2618015 1.2344042 0 0 0 0 90.445152
6.4927845 -2.3810179 1.1356492 0 0 0 0 90.450096
6.5357351 -2.5241661 1.0408435 0 0 0 0 90.45504
6.6627808 -2.010864 1.3563889 0 0 0 0 90.459991
6.5653863 -2.1190031 1.2378393 0 0 0 0 90.464935
6.5015907 -2.2166817 1.1251832 0 0 0 0 90.469887
6.5178738 -2.3420441 1.0227361 0 0 0 0 90.474831
6.7800698 -1.8865857 1.3756334 0 0 0 0 90.479774
6.6836643 -1.9938288 1.2520627 0 0 0 0 90.484726
6.6217809 -2.0885751 1.1343338 0 0 0 0 90.48967
6.5417042 -2.1781316 1.0123607 0 0 0 0 90.494621
6.8179874 -1.8699505 1.2694083 0 0 0 0 90.504517
6.741847 -1.9574401 1.1443977 0 0 0 0 90.50946
6.6971331 -2.055671 1.0218581 0 0 0 0 90.514404
6.8231044 -1.9214461 1.0268643 0 0 0 0 90.534195
7.3478513 -1.0413094 1.4775324 0 0 0 0 90.598503
7.3986673 -0.99294508 1.3424695 0 0 0 0 90.623238
7.3866043 -1.0785978 1.1957494 0 0 0 0 90.628189
7.5498309 -0.92651337 1.2144493 0 0 0 0 90.64798
7.5364814 -0.57676476 1.2006979 0 0 0 0 90.687553
7.5497179 -0.3999812 1.1988735 0 0 0 0 90.707344
7.5446439 0.73164403 1.5475295 0 0 0 0 90.816177
7.5459547 0.78646624 0.99783486 0 0 0 0 90.8508
7.7349348 2.4956701 1.4502605 0 0 0 0 91.027794
7.7419615 2.5190041 1.2385591 0 0 0 0 91.032745
7.7518139 2.5473347 1.0227309 0 0 0 0 91.037689
7.1649508 3.2837865 1.1888821 0 0 0 0 91.131683
7.1892114 3.3528209 0.97698283 0 0 0 0 91.136635
7.1034927 3.3478653 1.6229194 0 0 0 0 91.141579
7.1193843 3.4013412 1.4034092 0 0 0 0 91.146523
7.0895271 3.447119 1.1868656 0 0 0 0 91.151474
7.0770745 3.5085778 0.96997488 0 0 0 0 91.156418
7.0021272 3.4840114 1.6155233 0 0 0 0 91.161369
7.0520167 3.5630441 1.4034811 0 0 0 0 91.166313
7.076704 3.646239 1.1961843 0 0 0 0 91.171257
7.0767422 3.7211583 0.97798049 0 0 0 0 91.176208
6.9585004 3.6518681 1.6235528 0 0 0 0 91.181152
7.0052133 3.735692 1.4083552 0 0 0 0 91.186104
7.0001493 3.8125541 1.1950697 0 0 0 0 91.191048
7.1389084 3.9724419 0.99423617 0 0 0 0 91.195992
6.9334826 3.8295658 1.6354047 0 0 0 0 91.200943
6.9758596 3.9221654 1.4179331 0 0 0 0 91.205887
7.0967083 4.0785546 1.2241013 0 0 0 0 91.210838
7.1204214 4.1883183 1.0020393 0 0 0 0 91.215782
7.0295219 4.0818591 1.6758238 0 0 0 0 91.220734
7.0176864 4.1548834 1.4425987 0 0 0 0 91.225677
7.0344377 4.2626014 1.2285583 0 0 0 0 91.230621
7.0704737 4.3898783 1.0070678 0 0 0 0 91.235573
6.9873948 4.2618637 1.6865073 0 0 0 0 91.240517
7.0406103 4.3848085 1.4652333 0 0 0 0 91.245468
7.0110769 4.4744015 1.2404441 0 0 0 0 91.250412
7.067235 4.6244965 1.0194179 0 0 0 0 91.255356
6.9354358 4.4374261 1.6952575 0 0 0 0 91.260307
6.9921808 4.5725112 1.4736578 0 0 0 0 91.265251
7.0149288 4.7063828 1.2559061 0 0 0 0 91.270203
7.0900145 4.8842535 1.0351968 0 0 0 0 91.275146
6.9525256 4.6622391 1.721999 0 0 0 0 91.280098
7.0009465 4.8058867 1.4961076 0 0 0 0 91.285042
7.0554461 4.9720922 1.2806152 0 0 0 0 91.289986
7.1036325 5.1476836 1.0518162 0 0 0 0 91.294937
6.9635468 4.8887596 1.746653 0 0 0 0 91.299881
7.0163007 5.0495815 1.5202973 0 0 0 0 91.304832
7.1236897 5.2700968 1.3115606 0 0 0 0 91.309776
7.1761136 5.4657454 1.078213 0 0 0 0 91.31472
6.9877672 5.1350322 1.7788193 0 0 0 0 91.319672
7.092494 5.3480992 1.5582719 0 0 0 0 91.324615
7.1175652 5.5258436 1.3312809 0 0 0 0 91.329567
7.1559072 5.7237997 1.0927856 0 0 0 0 91.334511
7.0297203 5.4092083 1.8156309 0 0 0 0 92.106422
7.083168 5.6018023 1.5812933 0 0 0 0 92.111366
7.0970297 5.7828803 1.3490644 0 0 0 0 92.116318
8.1351185 6.846477 1.2562854 0 0 0 0 92.121262
7.0521398 5.6715102 1.8492166 0 0 0 0 92.126213
7.0583663 5.8448472 1.6021593 0 0 0 0 92.131157
8.0541945 6.8839583 1.5508577 0 0 0 0 92.136101
7.0323863 5.9128728 1.8741584 0 0 0 0 92.145996
7.948575 6.8899312 1.8281889 0 0 0 0 92.150948
7.8719721 6.9187307 2.128036 0 0 0 0 92.165787
8.1757812 8.7443533 1.4037939 0 0 0 0 92.2202
8.0748386 8.7027187 1.7245252 0 0 0 0 92.235046
8.0300579 8.7091913 2.0391848 0 0 0 0 92.249886
7.9849873 8.7203264 2.3767183 0 0 0 0 92.264725
6.8358865 8.4438381 1.2817054 0 0 0 0 92.279564
6.8191695 8.4509811 1.581497 0 0 0 0 92.294411
8.1281633 10.573582 1.9277625 0 0 0 0 92.314194
8.6331406 12.38429 2.1753225 0 0 0 0 92.353775
7.6950002 11.624561 1.6367027 0 0 0 0 92.358719
7.7030773 11.602859 2.0114753 0 0 0 0 92.373558
7.4840298 11.915223 1.6550456 0 0 0 0 92.37851
7.7044644 11.57534 2.3673706 0 0 0 0 92.388397
7.4408875 11.798981 2.0162513 0 0 0 0 92.393349
7.5441751 12.678066 1.7373015 0 0 0 0 92.398293
8.190115 12.258266 2.9075587 0 0 0 0 92.403244
7.419888 11.707053 2.3568726 0 0 0 0 92.408188
7.4488339 12.4405 2.0947111 0 0 0 0 92.413132
7.6017871 13.503098 1.8267332 0 0 0 0 92.418083
7.4405813 11.670686 2.7261376 0 0 0 0 92.423027
7.4453773 12.358687 2.449141 0 0 0 0 92.427979
7.5230212 13.249599 2.1986995 0 0 0 0 92.432922
7.3225336 12.061962 2.7720969 0 0 0 0 92.442818
7.3523979 12.847434 2.5074205 0 0 0 0 92.447762
7.3560224 12.736426 2.8807416 0 0 0 0 92.462608
7.4236565 13.676985 2.6297896 0 0 0 0 92.467552
8.719389 18.47098 2.4102969 0 0 0 0 92.477448
7.4107065 13.504329 3.0057962 0 0 0 0 92.482391
8.5550919 16.658886 3.1500394 0 0 0 0 92.487343
8.802186 18.389421 2.9292359 0 0 0 0 92.492287
7.9759974 17.991817 2.3347707 0 0 0 0 92.497231
8.0675154 17.895756 2.8251703 0 0 0 0 92.512077
7.6930099 18.524914 2.3876102 0 0 0 0 92.517021
7.7551503 18.338329 2.8694575 0 0 0 0 92.53186
7.1895213 18.546789 2.3779657 0 0 0 0 92.536812
8.6018209 18.491247 3.9312091 0 0 0 0 92.541756
7.7704048 18.054148 3.2958453 0 0 0 0 92.546707
7.3452096 18.54668 2.8779502 0 0 0 0 92.551651
6.7003102 18.586399 2.3738875 0 0 0 0 92.556595
7.8657732 17.914516 3.7625217 0 0 0 0 92.561546
7.4930229 18.546453 3.3498826 0 0 0 0 92.56649
6.8651657 18.583368 2.8640037 0 0 0 0 92.571442
6.2221622 18.624466 2.3709142 0 0 0 0 92.576385
7.6180429 18.437704 3.8282385 0 0 0 0 92.274048
7.0248475 18.561722 3.3220668 0 0 0 0 92.278992
6.3930731 18.595068 2.849304 0 0 0 0 92.283943
5.7463379 18.652733 2.3727536 0 0 0 0 92.288887
7.1904726 18.540384 3.8047047 0 0 0 0 92.293831
6.5608416 18.598913 3.3002133 0 0 0 0 92.298782
5.9496732 18.690695 2.8468878 0 0 0 0 92.303726
5.279335 18.687382 2.3719604 0 0 0 0 92.308678
6.7364807 18.578659 3.7718713 0 0 0 0 92.313622
6.1202188 18.6763 3.2863326 0 0 0 0 92.318573
5.4768577 18.696728 2.8338811 0 0 0 0 92.323517
4.8144774 18.718159 2.3732889 0 0 0 0 92.328461
6.2917233 18.611254 3.7382503 0 0 0 0 92.333412
5.6538277 18.673208 3.2606196 0 0 0 0 92.338356
5.0206285 18.73768 2.8289616 0 0 0 0 92.343307
4.3549056 18.766314 2.3801455 0 0 0 0 92.348251
5.8450298 18.641844 3.707675 0 0 0 0 92.353195
5.2021432 18.701962 3.243072 0 0 0 0 92.358147
4.5689273 18.765707 2.8214364 0 0 0 0 92.363091
3.8924124 18.7873 2.3867664 0 0 0 0 92.368042
5.4064417 18.669775 3.6782196 0 0 0 0 92.372986
4.7680101 18.766647 3.2325864 0 0 0 0 92.37793
4.119628 18.808025 2.8205121 0 0 0 0 92.382881
3.4503162 18.873341 2.3996239 0 0 0 0 92.387825
4.97297 18.719133 3.6561751 0 0 0 0 92.392776
4.3265429 18.789835 3.217252 0 0 0 0 92.39772
3.6738527 18.83741 2.8179779 0 0 0 0 92.402672
2.9864669 18.853146 2.4044201 0 0 0 0 92.407616
4.5431128 18.753502 3.630579 0 0 0 0 92.41256
3.8883231 18.831324 3.2074075 0 0 0 0 92.417511
3.2336915 18.876123 2.8192046 0 0 0 0 92.422455
2.8523357 21.271812 2.7127278 0 0 0 0 92.427406
4.1095238 18.780764 3.6071656 0 0 0 0 92.43235
3.4518328 18.854773 3.1950898 0 0 0 0 92.437294
2.78985 18.906673 2.8206437 0 0 0 0 92.442245
2.349484 21.299322 2.7248988 0 0 0 0 92.447189
3.6820431 18.805283 3.5848637 0 0 0 0 92.452141
3.0159104 18.888411 3.1884804 0 0 0 0 92.457085
2.6365216 21.29871 3.1685834 0 0 0 0 92.462029
1.8455416 21.353075 2.7463057 0 0 0 0 92.46698
3.2591436 18.840063 3.56529 0 0 0 0 92.471924
2.5777159 18.903877 3.1803806 0 0 0 0 92.476875
2.1395321 21.330296 3.1756639 0 0 0 0 92.481819
1.338339 21.363522 2.763942 0 0 0 0 92.486771
2.8321896 18.875757 3.548665 0 0 0 0 92.491714
2.4115272 21.311491 3.5647666 0 0 0 0 92.496658
1.6457603 21.381123 3.1862047 0 0 0 0 92.50161
0.83874309 21.408443 2.786623 0 0 0 0 92.506554
2.4116149 18.951029 3.5419321 0 0 0 0 92.511505
1.9275424 21.344296 3.5618787 0 0 0 0 92.516449
1.1518921 21.384737 3.192106 0 0 0 0 92.521393
0.33391181 21.434107 2.8088286 0 0 0 0 92.526344
2.2256916 21.321663 3.9552433 0 0 0 0 92.531288
1.4383284 21.357811 3.5575151 0 0 0 0 92.53624
0.66082692 21.417665 3.2041748 0 0 0 0 92.541183
-0.16762827 21.477039 2.8355513 0 0 0 0 92.546135
1.7462639 21.342196 3.937727 0 0 0 0 92.551079
0.95599943 21.398771 3.5583959 0 0 0 0 92.556023
0.16327816 21.437344 3.2175879 0 0 0 0 92.560974
-0.67565781 21.506752 2.8646183 0 0 0 0 92.565918
1.2704461 21.372009 3.9249609 0 0 0 0 92.570869
0.46706143 21.42951 3.561533 0 0 0 0 92.575813
-0.3292543 21.481335 3.234324 0 0 0 0 92.580757
-1.1780839 21.52161 2.892144 0 0 0 0 92.585709
0.78878039 21.397629 3.9142816 0 0 0 0 92.590652
-0.01856125 21.452362 3.5649145 0 0 0 0 92.595604
-0.82848084 21.517126 3.2542574 0 0 0 0 92.600548
-1.6374773 20.920111 2.8407483 0 0 0 0 92.605492
0.30731651 21.442455 3.9100466 0 0 0 0 92.610443
-0.51126093 21.501162 3.5755043 0 0 0 0 92.615387
-1.3257027 21.478666 3.2663496 0 0 0 0 92.620338
-2.1351326 20.94031 2.87415 0 0 0 0 92.625282
-0.17139046 21.493382 3.9056468 0 0 0 0 92.630234
-1.0024478 21.512787 3.5801744 0 0 0 0 92.635178
-1.7743403 20.935286 3.2023327 0 0 0 0 92.640121
-2.7194548 21.639608 3.0013924 0 0 0 0 92.645073
-0.65841359 21.526951 3.9017003 0 0 0 0 92.650017
-1.4620481 21.093164 3.5175083 0 0 0 0 92.654968
-2.2661047 20.959419 3.2256463 0 0 0 0 92.659912
-3.2390668 21.68214 3.042011 0 0 0 0 92.664856
-1.1430805 21.551598 3.8980234 0 0 0 0 92.669807
-1.9342651 20.933668 3.5002446 0 0 0 0 92.674751
-2.8482087 21.652796 3.3530574 0 0 0 0 92.679703
-3.767776 21.726412 3.0865259 0 0 0 0 92.684647
-1.5810971 20.949091 3.7837739 0 0 0 0 92.68959
-2.4181857 20.962841 3.5144498 0 0 0 0 92.694542
-3.3614919 21.688276 3.3839095 0 0 0 0 92.699486
-4.2995753 21.772604 3.1329648 0 0 0 0 92.704437
-2.0582273 20.935909 3.7782388 0 0 0 0 92.709381
-3.0015759 21.663099 3.6396365 0 0 0 0 92.714333
-3.8898087 21.748383 3.4219601 0 0 0 0 92.719276
-4.8386383 21.824636 3.1841915 0 0 0 0 92.72422
-2.5478787 21.032955 3.7934368 0 0 0 0 92.729172
-3.5132504 21.709372 3.6611769 0 0 0 0 92.734116
-4.4178596 21.777327 3.4559131 0 0 0 0 92.739067
-5.3909845 21.858177 3.2378774 0 0 0 0 92.744011
-3.1262879 21.680944 3.9128671 0 0 0 0 92.499336
-4.0319743 21.728422 3.6872156 0 0 0 0 92.504288
-4.9490271 21.830626 3.4999318 0 0 0 0 92.509232
-5.9364777 21.893412 3.2933805 0 0 0 0 92.514183
-3.6373198 21.71291 3.9208369 0 0 0 0 92.519127
-4.5591073 21.785349 3.7153778 0 0 0 0 92.524071
-5.4933114 21.864248 3.5426741 0 0 0 0 92.529022
-6.4948301 21.926863 3.3500507 0 0 0 0 92.533966
-4.1541777 21.764811 3.9341962 0 0 0 0 92.538918
-5.0958419 21.831903 3.7447832 0 0 0 0 92.543861
-6.0397882 21.902742 3.5842593 0 0 0 0 92.548805
-6.7298636 20.924463 3.2544889 0 0 0 0 92.553757
-4.674068 21.792507 3.9462357 0 0 0 0 92.558701
-5.6331849 21.868443 3.7754717 0 0 0 0 92.563652
-6.5881557 21.913164 3.6276443 0 0 0 0 92.568596
-6.8037133 19.602449 3.1030986 0 0 0 0 92.57354
-5.2109466 21.843754 3.9654956 0 0 0 0 92.578491
-6.178164 21.895657 3.8063841 0 0 0 0 92.583435
-6.7337723 20.660078 3.4658446 0 0 0 0 92.588387
-7.3145409 19.599663 3.1581056 0 0 0 0 92.59333
-5.7494159 21.884855 3.983037 0 0 0 0 92.598282
-6.7214036 21.879765 3.8335519 0 0 0 0 92.603226
-6.8816271 19.585896 3.330883 0 0 0 0 92.60817
-7.8495617 19.625195 3.2221556 0 0 0 0 92.613121
-6.2934546 21.914776 4.0028682 0 0 0 0 92.618065
-6.7935615 20.448761 3.6163285 0 0 0 0 92.623016
-7.397758 19.591625 3.3766069 0 0 0 0 92.62796
-8.3938723 19.657433 3.2889564 0 0 0 0 92.632904
-6.8087854 21.805017 4.0009022 0 0 0 0 92.637856
-6.9970226 19.562943 3.4936121 0 0 0 0 92.642799
-7.9278417 19.620024 3.429594 0 0 0 0 92.647751
-8.9597597 19.702971 3.3612483 0 0 0 0 92.652695
-6.8000789 20.162148 3.721287 0 0 0 0 92.657639
-7.5185485 19.579241 3.5319932 0 0 0 0 92.66259
-8.4743795 19.658897 3.4871829 0 0 0 0 92.667534
-9.5238113 19.72756 3.434155 0 0 0 0 92.672485
-7.1045818 19.571701 3.6344557 0 0 0 0 92.677429
-8.0595818 19.631992 3.5772047 0 0 0 0 92.682381
-9.0423422 19.707108 3.551378 0 0 0 0 92.687325
-10.123586 19.793098 3.5186718 0 0 0 0 92.692268
-7.6286035 19.60157 3.6614201 0 0 0 0 92.69722
-8.6119804 19.668325 3.6248262 0 0 0 0 92.702164
-9.6138506 19.744097 3.6138752 0 0 0 0 92.707115
-10.726996 19.824432 3.6031568 0 0 0 0 92.712059
-8.168047 19.640985 3.6940193 0 0 0 0 92.717003
-9.172266 19.701384 3.6744955 0 0 0 0 92.721954
-10.210439 19.781359 3.6862218 0 0 0 0 92.726898
-11.23768 19.668316 3.6566007 0 0 0 0 92.73185
-8.7328653 19.688547 3.7322366 0 0 0 0 92.736794
-9.7632236 19.749498 3.7335536 0 0 0 0 92.741745
-10.759983 19.72081 3.7396686 0 0 0 0 92.746689
-11.482693 19.060917 3.6306431 0 0 0 0 92.751633
-9.303771 19.737909 3.7723634 0 0 0 0 92.756584
-10.335257 19.751011 3.7830665 0 0 0 0 92.761528
-11.030432 19.150116 3.7024984 0 0 0 0 92.766479
-11.710422 18.47221 3.6042511 0 0 0 0 92.771423
-9.893486 19.781616 3.8165464 0 0 0 0 92.776367
-10.685667 19.326548 3.7541957 0 0 0 0 92.781319
-11.265211 18.564636 3.6589699 0 0 0 0 92.786263
-11.900008 17.85684 3.5728621 0 0 0 0 92.791214
-10.378174 19.607031 3.8196576 0 0 0 0 92.796158
-10.951505 18.767656 3.7037168 0 0 0 0 92.801102
-11.539835 18.072252 3.635525 0 0 0 0 92.806053
-12.070547 17.241199 3.5406015 0 0 0 0 92.810997
-10.68327 19.104437 3.7623146 0 0 0 0 92.815948
-11.266156 18.325602 3.6755786 0 0 0 0 92.820892
-11.764927 17.519449 3.6011262 0 0 0 0 92.825844
-12.186248 16.582417 3.4989171 0 0 0 0 92.830788
-11.033209 18.694744 3.7250292 0 0 0 0 92.835732
-11.521412 17.802334 3.631145 0 0 0 0 92.840683
-11.99649 17.002655 3.5746558 0 0 0 0 92.845627
-12.24775 15.896471 3.4473426 0 0 0 0 92.850578
-11.309875 18.182356 3.6711528 0 0 0 0 92.855522
-11.794046 17.336819 3.5999458 0 0 0 0 92.860466
-12.165751 16.431835 3.5331178 0 0 0 0 92.865417
-12.230433 15.144169 3.3811591 0 0 0 0 92.870361
-11.626249 17.759954 3.6334445 0 0 0 0 92.875313
-12.081827 16.898962 3.5768664 0 0 0 0 92.880257
-12.210415 15.728001 3.463167 0 0 0 0 92.885201
-12.260412 14.496559 3.330677 0 0 0 0 92.890152
-11.90988 17.295666 3.5911498 0 0 0 0 92.895096
-12.186453 16.242764 3.5061848 0 0 0 0 92.900047
-12.232203 15.028114 3.3942468 0 0 0 0 92.904991
-12.304348 13.896727 3.2897398 0 0 0 0 92.909943
-12.148992 16.795851 3.5401497 0 0 0 0 92.914886
-12.254217 15.56689 3.4312992 0 0 0 0 92.91983
-12.265305 14.385084 3.333622 0 0 0 0 92.924782
-12.348223 13.320079 3.2541418 0 0 0 0 92.929726
-12.195219 16.060057 3.441124 0 0 0 0 92.934677
-12.233119 14.824003 3.3398831 0 0 0 0 92.939621
-12.293257 13.763384 3.2764194 0 0 0 0 92.944565
-12.3443 12.726051 3.2093322 0 0 0 0 92.949516
-12.20921 15.319552 3.3424356 0 0 0 0 92.95446
-12.292611 14.215861 3.2761018 0 0 0 0 92.959412
-12.355103 13.211814 3.2329953 0 0 0 0 92.964355
-12.419582 12.232665 3.1881549 0 0 0 0 92.969307
-12.223689 14.630991 3.2522919 0 0 0 0 92.723503
-12.295134 13.57147 3.2066176 0 0 0 0 92.728455
-12.367711 12.637712 3.1832969 0 0 0 0 92.733398
-12.400123 11.677172 3.1479831 0 0 0 0 92.73835
-12.244193 13.9738 3.1690824 0 0 0 0 92.743294
-12.354007 13.019714 3.1521499 0 0 0 0 92.748238
-12.416913 12.117851 3.1449754 0 0 0 0 92.753189
-12.484603 11.235773 3.1362026 0 0 0 0 92.758133
-12.300868 13.39371 3.1014454 0 0 0 0 92.763084
-12.407336 12.479328 3.102397 0 0 0 0 92.768028
-12.408798 11.567924 3.095861 0 0 0 0 92.772972
-12.493709 10.738849 3.1084681 0 0 0 0 92.777924
-12.28646 12.765012 3.0206339 0 0 0 0 92.782867
-12.385739 11.89446 3.0383697 0 0 0 0 92.787819
-12.453416 11.083491 3.0645599 0 0 0 0 92.792763
-12.554609 10.309337 3.0944939 0 0 0 0 92.797707
-12.343009 12.231291 2.9636781 0 0 0 0 92.802658
-12.511864 11.470039 3.0138612 0 0 0 0 92.807602
-12.458533 10.588432 3.0268006 0 0 0 0 92.812553
-12.579657 9.8601084 3.0763049 0 0 0 0 92.817497
-12.3663 11.692752 2.9020612 0 0 0 0 92.822449
-12.481557 10.917705 2.9549615 0 0 0 0 92.827393
-12.538942 10.172022 3.0083411 0 0 0 0 92.832336
-12.557913 9.3934584 3.0488951 0 0 0 0 92.837288
-13.306952 11.992713 3.0508993 0 0 0 0 92.842232
-12.585044 10.503249 2.9323115 0 0 0 0 92.847183
-12.57321 9.7292175 2.982919 0 0 0 0 92.852127
-12.676148 9.0443707 3.0562882 0 0 0 0 92.857071
-12.561485 9.9939785 2.8831451 0 0 0 0 92.866966
-12.597832 9.2958031 2.9572875 0 0 0 0 92.871918
-12.657531 8.6057796 3.0340641 0 0 0 0 92.876862
-12.512081 9.4896898 2.831991 0 0 0 0 92.886757
-12.59705 8.8533459 2.9300733 0 0 0 0 92.891701
-12.673537 8.2061329 3.0215206 0 0 0 0 92.896652
-13.256333 10.344876 2.8677454 0 0 0 0 92.901596
-12.609394 8.4385166 2.9069893 0 0 0 0 92.911491
-12.709371 7.8259583 3.0173082 0 0 0 0 92.916435
-12.753829 8.1194353 2.915381 0 0 0 0 92.931282
-12.726224 7.4474301 3.0091629 0 0 0 0 92.936226
-12.704142 7.681797 2.8833294 0 0 0 0 92.951065
-12.727102 7.070456 2.9980698 0 0 0 0 92.956017
-12.704412 7.2906051 2.8646522 0 0 0 0 92.970856
-12.737445 6.7043095 2.9936173 0 0 0 0 92.9758
-12.86341 7.5719867 2.7464111 0 0 0 0 92.985695
-12.694725 6.9008441 2.8469987 0 0 0 0 92.990646
-12.78809 6.3688741 2.9990499 0 0 0 0 92.99559
-12.736279 7.1028647 2.6957328 0 0 0 0 93.005486
-12.786858 6.5767388 2.8518631 0 0 0 0 93.010429
-12.68036 6.685483 2.6631539 0 0 0 0 93.025269
-0.40130922 0.21806495 0.17031202 0 0 0 0 93.035164
-12.637712 6.8387275 2.4747767 0 0 0 0 93.040115
-12.791695 6.3665423 2.6657643 0 0 0 0 93.045059
-0.40870771 0.22865152 0.16597363 0 0 0 0 93.050011
-12.74042 6.5057731 2.465842 0 0 0 0 93.059898
-0.4013049 0.19405277 0.17105582 0 0 0 0 93.074745
-0.38994238 0.21207525 0.15559718 0 0 0 0 93.084633
-0.40353534 0.2007872 0.16485886 0 0 0 0 93.089584
-0.3921271 0.21778162 0.14842996 0 0 0 0 93.09948
-0.38708678 0.16549484 0.16801351 0 0 0 0 93.114319
-0.40004939 0.19065563 0.15620787 0 0 0 0 93.124214
-0.40960506 0.1785301 0.16551746 0 0 0 0 93.129158
-0.39003128 0.19179393 0.14724362 0 0 0 0 93.139053
-0.33448449 0.12922016 0.156415 0 0 0 0 93.153893
-0.40716332 0.16938595 0.15783261 0 0 0 0 93.163788
-0.33763319 0.1339169 0.1502728 0 0 0 0 93.168732
-0.40117621 0.17133208 0.14782126 0 0 0 0 93.178627
-0.33063403 0.10933707 0.15606311 0 0 0 0 93.193474
-0.32944816 0.12394476 0.14237027 0 0 0 0 93.863411
-0.33403674 0.11299159 0.15067787 0 0 0 0 93.868355
-0.34468189 0.13020287 0.13811007 0 0 0 0 93.87825
-0.31497657 0.087821253 0.1535649 0 0 0 0 93.893089
-0.32050368 0.10224096 0.14110979 0 0 0 0 93.902985
-0.32917589 0.09315116 0.15033895 0 0 0 0 93.907936
-0.31140208 0.10134359 0.13220187 0 0 0 0 93.917824
-0.31828281 0.071707986 0.15506937 0 0 0 0 93.932671
-0.31463701 0.082412101 0.13977662 0 0 0 0 93.942566
-0.32535389 0.074268714 0.14996637 0 0 0 0 93.94751
-0.31261668 0.083255038 0.13177629 0 0 0 0 93.957405
-0.31146237 0.052949071 0.1547114 0 0 0 0 93.972244
-0.3138583 0.064435363 0.14036044 0 0 0 0 93.98214
-0.32153079 0.055386484 0.14959465 0 0 0 0 93.987083
-0.30175287 0.063631549 0.13046725 0 0 0 0 93.996979
-0.31076422 0.036970194 0.15523621 0 0 0 0 94.011818
-0.31207353 0.046469968 0.13995013 0 0 0 0 94.021713
-0.32579315 0.038233008 0.15112595 0 0 0 0 94.026665
-0.29892778 0.044708654 0.13009176 0 0 0 0 94.036552
-0.31803489 0.019753449 0.15875341 0 0 0 0 94.051399
-0.3152951 0.028358841 0.14151658 0 0 0 0 94.061287
-0.32501203 0.02025624 0.15171151 0 0 0 0 94.066238
-0.29918087 0.027660066 0.12964322 0 0 0 0 94.076134
-0.3083308 0.004084806 0.15732214 0 0 0 0 94.090973
-0.31751648 0.010288689 0.14308842 0 0 0 0 94.100868
-0.3202742 0.0034426909 0.15228634 0 0 0 0 94.105812
-0.3024011 0.0095490059 0.13121065 0 0 0 0 94.115707
-0.31564045 -0.012133406 0.16081068 0 0 0 0 94.130547
-0.31481129 -0.0056380918 0.14262497 0 0 0 0 94.140442
-0.32053697 -0.013546431 0.15383832 0 0 0 0 94.145386
-0.30070069 -0.0063888705 0.13174233 0 0 0 0 94.155281
-0.32686961 -0.030484112 0.16534102 0 0 0 0 94.170128
-0.31403318 -0.023584783 0.1442122 0 0 0 0 94.180016
-0.332724 -0.0329374 0.15839425 0 0 0 0 94.184967
-0.30887941 -0.025674805 0.13431771 0 0 0 0 94.194862
-0.3310979 -0.048576843 0.16890493 0 0 0 0 94.209702
-0.3241742 -0.04392219 0.14780851 0 0 0 0 94.219597
-0.33294368 -0.050925426 0.15997779 0 0 0 0 94.224541
-0.32001337 -0.046083443 0.13691005 0 0 0 0 94.234436
-0.32335302 -0.065295912 0.16849697 0 0 0 0 94.249275
-0.32238886 -0.061857615 0.14840239 0 0 0 0 94.259171
-0.33808169 -0.071087055 0.16259868 0 0 0 0 94.264114
-0.31622949 -0.063936487 0.13751343 0 0 0 0 94.27401
-0.32658005 -0.083347328 0.17206705 0 0 0 0 94.288849
-0.32652685 -0.081978016 0.15102857 0 0 0 0 94.298744
-0.34318334 -0.092217669 0.16625009 0 0 0 0 94.303696
-0.32428735 -0.086189516 0.1411811 0 0 0 0 94.313591
-0.31587687 -0.098943219 0.1716444 0 0 0 0 94.32843
-0.31905949 -0.099667139 0.15133741 0 0 0 0 94.081787
-0.32287458 -0.10546616 0.16349953 0 0 0 0 94.086731
-0.30197978 -0.09935575 0.13844019 0 0 0 0 94.096626
-0.31045654 -0.11569004 0.17291157 0 0 0 0 94.111465
-0.30635992 -0.11518259 0.15092242 0 0 0 0 94.121361
-0.33882219 -0.13095371 0.17021768 0 0 0 0 94.126305
-0.32971802 -0.13030061 0.14625263 0 0 0 0 94.1362
-0.3629033 -0.15535459 0.19084467 0 0 0 0 94.151047
-0.35575032 -0.15581256 0.16590101 0 0 0 0 94.160934
-0.37045595 -0.16494083 0.18210091 0 0 0 0 94.165886
-0.3415736 -0.1576816 0.15105148 0 0 0 0 94.175781
-0.35308748 -0.17392978 0.19250679 0 0 0 0 94.19062
-0.34296614 -0.17332548 0.16554801 0 0 0 0 94.200516
-0.35467404 -0.18233025 0.18176199 0 0 0 0 94.20546
-0.34646884 -0.18380593 0.15485419 0 0 0 0 94.215355
-0.38848636 -0.21398538 0.20755252 0 0 0 0 94.230194
-0.37334546 -0.21329503 0.17661896 0 0 0 0 94.240089
-0.3909775 -0.2244848 0.19486468 0 0 0 0 94.245033
-0.3758013 -0.22476342 0.16496085 0 0 0 0 94.254929
-0.3972348 -0.24415012 0.21545708 0 0 0 0 94.269768
-0.39864463 -0.2550571 0.18777485 0 0 0 0 94.279663
-0.40155917 -0.25872722 0.2028809 0 0 0 0 94.284615
-0.3902089 -0.26319581 0.17207976 0 0 0 0 94.29451
-6.3365755 -3.9520683 1.7752484 0 0 0 0 94.299454
-6.3230801 -3.9623234 1.9817435 0 0 0 0 94.304398
-6.2888665 -3.9656291 2.1911535 0 0 0 0 94.309349
-6.0683084 -3.9717155 1.5233344 0 0 0 0 94.314293
-6.0460792 -3.9755452 1.7316897 0 0 0 0 94.319244
-6.0250301 -3.9737515 1.9288645 0 0 0 0 94.324188
-6.0224257 -3.9873326 2.1393974 0 0 0 0 94.329132
-5.7770166 -3.9909425 1.4866577 0 0 0 0 94.334084
-5.7746639 -3.9977114 1.6909826 0 0 0 0 94.339027
-5.7694731 -3.9996014 1.8871745 0 0 0 0 94.343979
-5.7719994 -4.0095406 2.0925663 0 0 0 0 94.348923
-5.5097213 -4.0110631 1.45287 0 0 0 0 94.353867
-5.5056291 -4.0109048 1.6519957 0 0 0 0 94.358818
-5.5172825 -4.0165801 1.8452005 0 0 0 0 94.363762
-5.5209842 -4.0217137 2.0454395 0 0 0 0 94.368713
-5.2458396 -4.0212831 1.4197674 0 0 0 0 94.373657
-5.2604318 -4.0289578 1.6170171 0 0 0 0 94.378609
-5.2849035 -4.0391917 1.8092831 0 0 0 0 94.383553
-5.2908564 -4.0375943 2.0033045 0 0 0 0 94.388496
-5.0134358 -4.0455923 1.3939066 0 0 0 0 94.393448
-5.0244436 -4.0423226 1.5838464 0 0 0 0 94.398392
-5.046206 -4.0446506 1.7688882 0 0 0 0 94.403343
-5.0697794 -4.0527525 1.9640974 0 0 0 0 94.408287
-4.7863154 -4.0631104 1.3678126 0 0 0 0 94.413231
-4.8024187 -4.057169 1.5536406 0 0 0 0 94.418182
-4.8330798 -4.061924 1.7367022 0 0 0 0 94.423126
-4.8646641 -4.0694757 1.927846 0 0 0 0 94.428078
-4.5624919 -4.0736957 1.3434937 0 0 0 0 94.433022
-4.6011229 -4.0796885 1.5295471 0 0 0 0 94.437973
-4.6299973 -4.0785465 1.7064395 0 0 0 0 94.442917
-4.6559224 -4.0770392 1.8913423 0 0 0 0 94.447861
-4.3603783 -4.0920863 1.3222836 0 0 0 0 94.452812
-4.401989 -4.0982909 1.5053246 0 0 0 0 94.457756
-4.4369588 -4.0945187 1.6781005 0 0 0 0 94.462708
-4.4688611 -4.093348 1.8599768 0 0 0 0 94.467651
-4.1625137 -4.1046143 1.3018743 0 0 0 0 94.472595
-4.2033434 -4.1049337 1.479741 0 0 0 0 94.477547
-4.2490096 -4.1086359 1.6516778 0 0 0 0 94.482491
-4.290803 -4.1099639 1.8305695 0 0 0 0 94.487442
-3.9736171 -4.1184182 1.2844532 0 0 0 0 94.492386
-4.0156226 -4.1139336 1.4571662 0 0 0 0 94.49733
-4.0623827 -4.1148295 1.62401 0 0 0 0 94.502281
-4.111999 -4.120512 1.8019859 0 0 0 0 94.507225
-3.7889171 -4.127419 1.2658633 0 0 0 0 94.512177
-3.8435404 -4.1324596 1.4387883 0 0 0 0 94.51712
-3.8905599 -4.126513 1.6004227 0 0 0 0 94.522072
-3.9431973 -4.1314092 1.7753558 0 0 0 0 94.527016
-3.6255784 -4.1530952 1.254653 0 0 0 0 94.53196
-3.671782 -4.1430211 1.4191698 0 0 0 0 94.536911
-3.7256246 -4.1413875 1.5798931 0 0 0 0 94.541855
-3.7735965 -4.1372972 1.7475805 0 0 0 0 94.546806
-3.4464025 -4.1498065 1.2359095 0 0 0 0 94.304878
-3.508975 -4.1553965 1.4018012 0 0 0 0 94.30983
-3.5687149 -4.1560779 1.5605595 0 0 0 0 94.314774
-3.6149366 -4.1451058 1.7220497 0 0 0 0 94.319725
-3.2922716 -4.1708503 1.2255008 0 0 0 0 94.324669
-3.3550324 -4.1715345 1.3882434 0 0 0 0 94.329613
-3.4081893 -4.16115 1.5397056 0 0 0 0 94.334564
-3.4660723 -4.1586609 1.7013813 0 0 0 0 94.339508
-3.1336319 -4.1797285 1.2137551 0 0 0 0 94.34446
-3.200407 -4.1796975 1.3724507 0 0 0 0 94.349403
