# .PCD v0.7 - Point Cloud Data file format
VERSION 0.7
FIELDS x y z normal_x normal_y normal_z intensity curvature
SIZE 4 4 4 4 4 4 4 4
TYPE F F F F F F F F
COUNT 1 1 1 1 1 1 1 1
WIDTH 154
HEIGHT 1
VIEWPOINT 0 0 0 1 0 0 0
POINTS 154
DATA ascii
3.3898959 -4.5545387 3.6408191 0 0 0 0 38.447857
3.1402481 -4.5654202 3.4340668 0 0 0 0 38.452805
2.8912563 -4.5635309 3.3080232 0 0 0 0 38.457752
2.6622634 -4.5666304 3.1999838 0 0 0 0 38.462696
3.6091704 -4.5742879 3.662154 0 0 0 0 38.467644
3.2971849 -4.5694222 3.4990983 0 0 0 0 38.472591
3.0361953 -4.5615363 3.3580506 0 0 0 0 38.477539
2.8002048 -4.5646367 3.2390087 0 0 0 0 38.482487
3.7781014 -4.5702925 3.74019 0 0 0 0 38.487434
3.4561198 -4.5674276 3.5641313 0 0 0 0 38.492378
3.1861336 -4.5625429 3.412081 0 0 0 0 38.497326
2.9411457 -4.5646453 3.2810359 0 0 0 0 38.502274
3.9520295 -4.5622997 3.8222282 0 0 0 0 38.507221
3.6260536 -4.5744333 3.6401699 0 0 0 0 38.512169
3.3410704 -4.5635519 3.4701145 0 0 0 0 38.517117
3.0840852 -4.561657 3.324065 0 0 0 0 38.52206
4.1439576 -4.5693049 3.9192748 0 0 0 0 38.527008
3.7979853 -4.5744433 3.7152095 0 0 0 0 38.531956
3.5010056 -4.5635633 3.5311501 0 0 0 0 38.536903
3.2390244 -4.5676675 3.3770995 0 0 0 0 38.541851
4.3348823 -4.5673161 4.0163217 0 0 0 0 38.546799
3.9709144 -4.5684576 3.7902505 0 0 0 0 38.551743
3.6639397 -4.5615783 3.5931883 0 0 0 0 38.55669
3.3919609 -4.5616837 3.4251337 0 0 0 0 38.561638
4.5358043 -4.5663295 4.1193733 0 0 0 0 38.566586
4.1498423 -4.5634747 3.8702948 0 0 0 0 38.571533
3.8398716 -4.5655928 3.6662319 0 0 0 0 38.576477
3.5538971 -4.5637007 3.4811728 0 0 0 0 38.581425
4.7437239 -4.5623469 4.2274284 0 0 0 0 38.586372
4.3497682 -4.5724897 3.9673483 0 0 0 0 38.59132
4.0188022 -4.5666118 3.7402782 0 0 0 0 38.596268
3.7248316 -4.567719 3.5442159 0 0 0 0 38.601215
4.9676409 -4.5663643 4.3494911 0 0 0 0 38.606159
4.5466909 -4.568512 4.0604014 0 0 0 0 38.611107
4.1997304 -4.5626354 3.8153257 0 0 0 0 38.616055
3.8977644 -4.5677414 3.6072612 0 0 0 0 38.621002
5.1965547 -4.5643878 4.474556 0 0 0 0 38.62595
4.7646112 -4.5775332 4.1704636 0 0 0 0 38.630898
4.3906565 -4.5596609 3.8973784 0 0 0 0 38.635841
4.0706954 -4.5597692 3.6693072 0 0 0 0 38.640789
5.4544635 -4.5764093 4.6226325 0 0 0 0 38.645737
4.9795294 -4.5735621 4.275526 0 0 0 0 38.650684
4.596581 -4.5646877 3.9894378 0 0 0 0 38.655632
4.2606244 -4.5627971 3.7443612 0 0 0 0 38.66058
5.7073698 -4.5744405 4.7657094 0 0 0 0 38.665524
5.2014441 -4.5665956 4.3865919 0 0 0 0 38.670471
4.804502 -4.5627203 4.083499 0 0 0 0 38.675419
4.4585514 -4.5628281 3.8224187 0 0 0 0 38.680367
5.9552732 -4.5574803 4.9017863 0 0 0 0 38.685314
5.451355 -4.5746288 4.5186696 0 0 0 0 38.690258
5.0254207 -4.5607553 4.1845665 0 0 0 0 38.695206
4.6624761 -4.5628633 3.9054801 0 0 0 0 38.700153
6.2441702 -4.5595179 5.0718784 0 0 0 0 38.705101
5.707262 -4.5756679 4.6537504 0 0 0 0 38.710049
5.2543364 -4.5587955 4.2926383 0 0 0 0 38.714996
4.8823972 -4.5659003 3.9995482 0 0 0 0 38.71994
6.538063 -4.5535631 5.2439747 0 0 0 0 38.724888
5.9791651 -4.5777111 4.7998385 0 0 0 0 38.729836
5.5012484 -4.5608382 4.410718 0 0 0 0 38.734783
5.1023173 -4.5619445 4.0906186 0 0 0 0 38.739731
6.8659487 -4.557611 5.4420843 0 0 0 0 38.744678
6.2690625 -4.580759 4.9589353 0 0 0 0 38.749622
5.7651553 -4.5648851 4.5428057 0 0 0 0 38.75457
5.3342342 -4.5559926 4.1886945 0 0 0 0 38.759518
7.1378379 -4.5116787 5.5961781 0 0 0 0 38.764465
6.5739555 -4.5828133 5.1280394 0 0 0 0 38.769413
6.0380602 -4.5649381 4.6778984 0 0 0 0 38.774361
5.6001449 -4.5680404 4.3127842 0 0 0 0 38.779305
7.1707616 -4.3127956 5.5631971 0 0 0 0 38.784252
6.8718472 -4.5668774 5.2891436 0 0 0 0 38.7892
6.3389578 -4.5729947 4.834002 0 0 0 0 38.794147
5.8600545 -4.5640984 4.428874 0 0 0 0 38.799095
7.1796937 -4.1049156 5.516212 0 0 0 0 38.804039
7.1707354 -4.537951 5.4502506 0 0 0 0 38.808987
6.6428528 -4.5700603 4.98911 0 0 0 0 38.813934
6.1389594 -4.5621605 4.556972 0 0 0 0 38.818882
7.1866302 -3.8990355 5.4712296 0 0 0 0 38.82383
7.1936688 -4.3310685 5.4032698 0 0 0 0 38.828777
6.9797401 -4.5731301 5.1662316 0 0 0 0 38.833721
6.4458585 -4.5672274 4.7030826 0 0 0 0 38.838669
7.1925707 -3.6991546 5.4302506 0 0 0 0 38.843616
7.2046084 -4.1221881 5.3512888 0 0 0 0 38.848564
7.2226415 -4.5042205 5.273325 0 0 0 0 38.853512
6.7647533 -4.5653024 4.8551998 0 0 0 0 38.858459
7.1935172 -3.5022736 5.3882732 0 0 0 0 38.863403
7.2235508 -3.9223053 5.3093138 0 0 0 0 38.868351
7.238584 -4.2903385 5.2163463 0 0 0 0 38.873299
7.1486344 -4.5923805 5.0513415 0 0 0 0 38.878246
7.0305004 -3.2324057 5.2282443 0 0 0 0 38.883194
7.2294998 -3.7204235 5.2623382 0 0 0 0 38.888142
7.2525325 -4.0824561 5.1623697 0 0 0 0 38.893085
7.2785616 -4.4444885 5.0674019 0 0 0 0 38.898033
6.9834661 -3.027524 5.158257 0 0 0 0 38.902981
7.2344532 -3.522541 5.2173648 0 0 0 0 38.907928
7.2584858 -3.8725734 5.1073947 0 0 0 0 38.912876
7.2875147 -4.2266059 5.0024252 0 0 0 0 38.917824
6.9890552 -2.848017 5.1287379 0 0 0 0 38.637234
7.0611353 -3.2450435 5.0458188 0 0 0 0 38.642178
7.2631974 -3.6680346 5.0529318 0 0 0 0 38.647125
7.294271 -4.0090733 4.938993 0 0 0 0 38.652073
7.0039859 -2.677129 5.1117573 0 0 0 0 38.657021
7.0050712 -3.0331762 4.9648137 0 0 0 0 38.661968
7.2651229 -3.4651556 5.0019403 0 0 0 0 38.666912
7.3161941 -3.8071897 4.8910046 0 0 0 0 38.67186
7.0059218 -2.5032442 5.0877757 0 0 0 0 38.676807
7.0230045 -2.8582873 4.9408336 0 0 0 0 38.681755
7.0590744 -3.1743252 4.8118901 0 0 0 0 38.686703
7.3171229 -3.5963106 4.8330126 0 0 0 0 38.69165
7.0548563 -2.3493476 5.0988107 0 0 0 0 38.696594
7.0329423 -2.6824005 4.9128537 0 0 0 0 38.701542
7.0400147 -2.9784453 4.754899 0 0 0 0 38.70649
7.2820611 -3.3754382 4.7550139 0 0 0 0 38.711437
7.0388017 -2.1744661 5.0668292 0 0 0 0 38.716385
7.0488834 -2.5105116 4.892879 0 0 0 0 38.721333
7.0289588 -2.7885618 4.7079139 0 0 0 0 38.726276
7.1040196 -3.0965919 4.588975 0 0 0 0 38.731224
7.0237513 -2.0045834 5.0378509 0 0 0 0 38.736172
7.0918241 -2.3516173 4.8939152 0 0 0 0 38.741119
7.0828981 -2.6266651 4.7069507 0 0 0 0 38.746067
7.1149645 -2.9107039 4.5499969 0 0 0 0 38.751015
7.0387001 -1.844694 5.0328841 0 0 0 0 38.755959
7.076777 -2.1747344 4.8569369 0 0 0 0 38.760906
7.1018467 -2.4547753 4.6839805 0 0 0 0 38.765854
7.1199136 -2.7238166 4.5100198 0 0 0 0 38.770802
7.1216407 -1.7027934 5.07794 0 0 0 0 38.775749
7.0607333 -2.0008504 4.8219609 0 0 0 0 38.780693
7.129796 -2.2858839 4.6710153 0 0 0 0 38.785641
7.1308661 -2.5429275 4.4770474 0 0 0 0 38.790588
7.2065825 -1.5598946 5.1269989 0 0 0 0 38.795536
7.0966859 -1.8439577 4.8250027 0 0 0 0 38.800484
7.123755 -2.1089976 4.6360426 0 0 0 0 38.805431
7.1788168 -2.3750329 4.4700894 0 0 0 0 38.810375
7.1736331 -1.69506 4.8590598 0 0 0 0 38.820271
7.1137171 -1.9331111 4.6040716 0 0 0 0 38.825218
7.1687799 -2.1901462 4.4301167 0 0 0 0 38.830166
7.1606741 -1.7732173 4.6111207 0 0 0 0 38.845005
7.1477485 -2.0042598 4.3861427 0 0 0 0 38.849953
7.2746215 -1.6283181 4.6631932 0 0 0 0 38.864796
7.1847105 -1.8383666 4.3801899 0 0 0 0 38.86974
7.8374877 -1.570387 5.0034103 0 0 0 0 38.884583
7.2746668 -1.6824703 4.4102564 0 0 0 0 38.88953
7.8684516 -1.3935065 5.0054646 0 0 0 0 38.904369
7.4806042 -1.5495696 4.5113635 0 0 0 0 38.909317
7.882422 -1.2136275 4.9985166 0 0 0 0 38.924156
7.4745822 -1.369684 4.4864063 0 0 0 0 38.929104
7.9143891 0.57472092 5.0112691 0 0 0 0 38.867668
7.4985709 0.38063732 4.4371715 0 0 0 0 38.872616
7.6241903 1.1326742 5.5651865 0 0 0 0 38.877563
7.8903761 0.75359821 5.0103211 0 0 0 0 38.887455
7.5105548 0.55652559 4.4522309 0 0 0 0 38.892403
7.8743649 0.93047655 5.0153785 0 0 0 0 38.907246
7.500545 0.7324124 4.4582868 0 0 0 0 38.912189
7.8063664 1.102353 4.9924212 0 0 0 0 38.927032
7.4855399 0.9072991 4.4623432 0 0 0 0 38.93198
