# .PCD v0.7 - Point Cloud Data file format
VERSION 0.7
FIELDS x y z normal_x normal_y normal_z intensity curvature
SIZE 4 4 4 4 4 4 4 4
TYPE F F F F F F F F
COUNT 1 1 1 1 1 1 1 1
WIDTH 966
HEIGHT 1
VIEWPOINT 0 0 0 1 0 0 0
POINTS 966
DATA ascii
-3.8806281 -4.5039868 1.7484347 0 0 0 0 4.4719696
-3.9648433 -4.538506 1.9380414 0 0 0 0 4.4769173
-3.4918563 -4.3808613 1.3449402 0 0 0 0 4.4818649
-3.578186 -4.416678 1.5214761 0 0 0 0 4.4868107
-3.6687074 -4.4551258 1.6958917 0 0 0 0 4.4917583
-3.7670527 -4.505744 1.8857893 0 0 0 0 4.496706
-3.2980869 -4.3485913 1.3106749 0 0 0 0 4.5016518
-3.3886735 -4.387949 1.4830498 0 0 0 0 4.5065994
-3.4659779 -4.4087577 1.6462297 0 0 0 0 4.5115452
-3.5705073 -4.4617829 1.8320125 0 0 0 0 4.5164928
-3.1101706 -4.3139486 1.2775028 0 0 0 0 4.5214405
-3.1993413 -4.3471355 1.4441392 0 0 0 0 4.5263863
-3.2896399 -4.3820758 1.6066954 0 0 0 0 4.5313339
-3.3822241 -4.4214239 1.7820718 0 0 0 0 4.5362816
-2.9323072 -4.2797809 1.2482986 0 0 0 0 4.5412273
-3.0226722 -4.3156734 1.4098132 0 0 0 0 4.546175
-3.1148908 -4.3492651 1.5674204 0 0 0 0 4.5511227
-3.209393 -4.3872218 1.7368487 0 0 0 0 4.5560684
-2.7651081 -4.2550163 1.2216783 0 0 0 0 4.5610161
-2.854918 -4.2826338 1.376542 0 0 0 0 4.5659637
-2.9471288 -4.3160105 1.5291543 0 0 0 0 4.5709095
-3.0458889 -4.3575521 1.6954209 0 0 0 0 4.5758572
-2.6012197 -4.2199578 1.1944921 0 0 0 0 4.5808048
-2.6910233 -4.2474031 1.3453599 0 0 0 0 4.5857506
-2.7910337 -4.2922635 1.49747 0 0 0 0 4.5906982
-2.8873782 -4.3276167 1.6559982 0 0 0 0 4.5956459
-2.4389205 -4.1787715 1.1675645 0 0 0 0 4.6005917
-2.5432627 -4.2283854 1.3204665 0 0 0 0 4.6055393
-2.6418562 -4.2670331 1.4658388 0 0 0 0 4.610487
-2.7371979 -4.3023257 1.6213685 0 0 0 0 4.6154327
-2.3029668 -4.1713858 1.1521647 0 0 0 0 4.6203804
-2.3936853 -4.1973367 1.2930866 0 0 0 0 4.6253262
-2.4912748 -4.2358809 1.4344617 0 0 0 0 4.6302738
-2.5861969 -4.2648497 1.5822557 0 0 0 0 4.6352215
-2.1610003 -4.1492076 1.1334015 0 0 0 0 4.6401672
-2.2559781 -4.1787882 1.2721611 0 0 0 0 4.6451149
-2.3521528 -4.2111626 1.4077969 0 0 0 0 4.6500626
-2.4460697 -4.239985 1.5505943 0 0 0 0 4.6550083
-2.0238197 -4.1236901 1.1147738 0 0 0 0 4.659956
-2.1209919 -4.1559963 1.2504114 0 0 0 0 4.6649036
-2.2192931 -4.1901002 1.3829681 0 0 0 0 4.6698494
-2.3107982 -4.2128215 1.5200245 0 0 0 0 4.6747971
-1.8896371 -4.0980453 1.0981481 0 0 0 0 4.6797447
-1.9898639 -4.1309733 1.2297516 0 0 0 0 4.6846905
-2.0872967 -4.1669674 1.3582256 0 0 0 0 4.6896381
-2.1864638 -4.1991806 1.4948663 0 0 0 0 4.6945858
-1.7626464 -4.0749917 1.0834025 0 0 0 0 4.6995316
-1.8615965 -4.1037874 1.2101802 0 0 0 0 4.7044792
-1.9635603 -4.1474414 1.3373204 0 0 0 0 4.7094269
-2.0627198 -4.1794415 1.4689661 0 0 0 0 4.7143726
-1.6385826 -4.0507298 1.0687035 0 0 0 0 4.7193203
-1.7377326 -4.0824299 1.1933556 0 0 0 0 4.724268
-1.8404827 -4.1228132 1.3156303 0 0 0 0 4.7292137
-1.9407705 -4.156611 1.4441954 0 0 0 0 4.7341614
-1.5199198 -4.0322285 1.0567529 0 0 0 0 4.7391071
-1.6211959 -4.065659 1.1783259 0 0 0 0 4.7440548
-1.7157274 -4.0881486 1.2913669 0 0 0 0 4.7490025
-1.8230875 -4.1375737 1.4212579 0 0 0 0 4.7539482
-1.4055244 -4.0175638 1.0476348 0 0 0 0 4.7588959
-1.5017111 -4.0348907 1.1598929 0 0 0 0 4.7638435
-1.6045184 -4.0760155 1.2761317 0 0 0 0 4.7687893
-1.7070612 -4.1133671 1.3975369 0 0 0 0 4.773737
-1.291514 -3.9937239 1.0359039 0 0 0 0 4.7786846
-1.3901699 -4.0178933 1.1478671 0 0 0 0 4.7836304
-1.4904971 -4.0518785 1.2574079 0 0 0 0 4.788578
-1.592829 -4.0860271 1.3739458 0 0 0 0 4.7935257
-1.1834496 -3.9837489 1.0295784 0 0 0 0 4.7984715
-1.282825 -4.0036507 1.1367183 0 0 0 0 4.8034191
-1.3818085 -4.0325074 1.2414756 0 0 0 0 4.8083668
-1.4828641 -4.0625238 1.3531872 0 0 0 0 4.8133125
-1.0745703 -3.9616766 1.0207663 0 0 0 0 4.8182602
-1.1762085 -3.9853458 1.1257409 0 0 0 0 4.8232079
-1.2787927 -4.0229712 1.2301203 0 0 0 0 4.8281536
-1.3760998 -4.0418859 1.3343028 0 0 0 0 4.8331013
-0.97149175 -3.94222 1.0126889 0 0 0 0 4.6235523
-1.075743 -3.9746654 1.1162794 0 0 0 0 4.6285
-1.1755855 -4.0011039 1.2131268 0 0 0 0 4.6334476
-1.2741663 -4.02388 1.3161383 0 0 0 0 4.6383934
-0.86793917 -3.9249463 1.0066701 0 0 0 0 4.6433411
-0.97143245 -3.9461286 1.1037372 0 0 0 0 4.6482887
-1.0714076 -3.9744761 1.1985015 0 0 0 0 4.6532345
-1.1748617 -4.0099397 1.3009641 0 0 0 0 4.6581821
-0.76858509 -3.9104693 1.002527 0 0 0 0 4.6631298
-0.87214172 -3.9325213 1.0965544 0 0 0 0 4.6680756
-0.97324526 -3.9626667 1.1882379 0 0 0 0 4.6730232
-1.0765572 -3.9959669 1.2867903 0 0 0 0 4.6779709
-0.6700927 -3.8938811 0.99747127 0 0 0 0 4.6829166
-0.77611917 -3.9227757 1.0912035 0 0 0 0 4.6878643
-0.87680787 -3.9467285 1.1781479 0 0 0 0 4.692812
-0.97729802 -3.9678621 1.2692169 0 0 0 0 4.6977577
-0.5730117 -3.8833692 0.99615717 0 0 0 0 4.7027054
-0.6793471 -3.901931 1.0833241 0 0 0 0 4.7076511
-0.78030372 -3.9297864 1.1681001 0 0 0 0 4.7125988
-0.88566715 -3.9636507 1.2596202 0 0 0 0 4.7175465
-0.4771769 -3.8616226 0.99231768 0 0 0 0 4.7224922
-0.58391732 -3.8861234 1.0782299 0 0 0 0 4.7274399
-0.68672603 -3.9116375 1.1580992 0 0 0 0 4.7323875
-0.78974742 -3.9404416 1.2448342 0 0 0 0 4.7373333
-0.38402089 -3.849829 0.99105155 0 0 0 0 4.742281
-0.4917542 -3.8741355 1.0739684 0 0 0 0 4.7472286
-0.59442258 -3.8975296 1.150926 0 0 0 0 4.7521744
-0.69709611 -3.9210951 1.2318801 0 0 0 0 4.757122
-0.29032248 -3.8300118 0.98912704 0 0 0 0 4.7620697
-0.39984053 -3.850981 1.0671796 0 0 0 0 4.7670155
-0.50164199 -3.8763099 1.1410533 0 0 0 0 4.7719631
-0.60692114 -3.9087551 1.2226264 0 0 0 0 4.7769108
-0.19989219 -3.8140571 0.98903424 0 0 0 0 4.7818565
-0.30868003 -3.8389976 1.064917 0 0 0 0 4.7868042
-0.41435647 -3.8771682 1.1402404 0 0 0 0 4.7917519
-0.51726824 -3.8892782 1.2116739 0 0 0 0 4.7966976
-0.10966743 -3.8011289 0.98981255 0 0 0 0 4.8016453
-0.22051488 -3.8268473 1.0636579 0 0 0 0 4.8065929
-0.324505 -3.8547788 1.1314132 0 0 0 0 4.8115387
-0.42915967 -3.87783 1.2033793 0 0 0 0 4.8164864
-0.13327935 -3.8135836 1.0614434 0 0 0 0 4.8263798
-0.23792419 -3.8363376 1.126416 0 0 0 0 4.8313274
-0.34264037 -3.8602169 1.1943434 0 0 0 0 4.8362732
-0.041959669 -3.5162396 0.97823924 0 0 0 0 4.8461685
-0.15082139 -3.8249779 1.1221182 0 0 0 0 4.8511143
-0.25687242 -3.8537755 1.1898351 0 0 0 0 4.8560619
0.15620974 -3.759146 0.99627686 0 0 0 0 4.8610096
-0.17228313 -3.8350186 1.1808439 0 0 0 0 4.8758507
0.24422571 -3.7492592 1.0019249 0 0 0 0 4.8807964
0.33040461 -3.7219203 1.0013055 0 0 0 0 4.9005852
0.21312128 -3.7536256 1.0608768 0 0 0 0 4.9055328
0.41662535 -3.7088947 1.0070831 0 0 0 0 4.9203739
0.29907602 -3.7445052 1.064487 0 0 0 0 4.9253197
0.18888003 -3.7600334 1.1097425 0 0 0 0 4.9302673
0.50205106 -3.6927629 1.0119902 0 0 0 0 4.9401608
0.38323817 -3.7322104 1.0672281 0 0 0 0 4.9451084
0.27350119 -3.7557828 1.112143 0 0 0 0 4.9500542
0.16212456 -3.7590489 1.1539142 0 0 0 0 4.9550018
0.58892787 -3.6848607 1.0195519 0 0 0 0 4.9599495
0.46853194 -3.717983 1.0700524 0 0 0 0 4.9648952
0.35739511 -3.7474291 1.1137156 0 0 0 0 4.9698429
0.24706839 -3.7648726 1.1568886 0 0 0 0 4.9747906
0.67341965 -3.6676939 1.0255011 0 0 0 0 4.9797363
0.55275822 -3.7047212 1.0738343 0 0 0 0 4.984684
0.44096667 -3.7289488 1.1137149 0 0 0 0 4.9896317
0.32917413 -3.7532206 1.1545948 0 0 0 0 4.9945774
0.76181251 -3.6671028 1.0377585 0 0 0 0 4.9995251
0.63612026 -3.6893923 1.0777023 0 0 0 0 5.0044727
0.52281457 -3.7062135 1.1108888 0 0 0 0 5.0094185
0.41055179 -3.7374654 1.1514724 0 0 0 0 5.0143661
0.84795737 -3.6551688 1.0464898 0 0 0 0 5.0193138
0.72020721 -3.6781964 1.0833972 0 0 0 0 5.0242596
0.60709006 -3.707134 1.1180726 0 0 0 0 5.0292072
0.49365073 -3.7259533 1.1511749 0 0 0 0 5.0341549
0.93343973 -3.6381764 1.0554339 0 0 0 0 5.0391006
0.80714941 -3.6692739 1.091001 0 0 0 0 5.0440483
0.68886417 -3.6855104 1.1182007 0 0 0 0 5.048996
0.57515925 -3.7082353 1.1491356 0 0 0 0 5.0539417
1.0229621 -3.6356807 1.0687736 0 0 0 0 5.0588894
0.89209539 -3.6602106 1.0986077 0 0 0 0 5.0638351
0.77222514 -3.6701233 1.1210685 0 0 0 0 5.0687828
0.6572572 -3.6966863 1.1498379 0 0 0 0 5.0737305
1.1095073 -3.6177454 1.077758 0 0 0 0 5.0786762
0.97751206 -3.6441205 1.1055108 0 0 0 0 5.0836239
0.85928833 -3.6743014 1.1301193 0 0 0 0 5.0885715
0.74035197 -3.6851985 1.1505384 0 0 0 0 5.0935173
1.1970035 -3.5963871 1.0899334 0 0 0 0 5.5106354
1.0654966 -3.6308544 1.1163591 0 0 0 0 5.515583
0.94490945 -3.6516535 1.1343645 0 0 0 0 5.5205307
0.82618147 -3.6747067 1.1552808 0 0 0 0 5.5254765
1.2885808 -3.5930161 1.1053115 0 0 0 0 5.5304241
1.1499672 -3.61362 1.1233004 0 0 0 0 5.5353718
1.0283191 -3.6352694 1.1392672 0 0 0 0 5.5403175
0.90933067 -3.6621883 1.1570193 0 0 0 0 5.5452652
1.375237 -3.5731223 1.1173702 0 0 0 0 5.5502129
1.2362952 -3.5986309 1.133152 0 0 0 0 5.5551586
1.1133891 -3.6240797 1.145956 0 0 0 0 5.5601063
0.99194652 -3.6425769 1.1580522 0 0 0 0 5.5650539
1.4635547 -3.5583804 1.1302158 0 0 0 0 5.5699997
1.3251493 -3.5908959 1.1447051 0 0 0 0 5.5749474
1.1986585 -3.6098511 1.1517708 0 0 0 0 5.579895
1.0744932 -3.6239982 1.1600418 0 0 0 0 5.5848408
1.5573204 -3.5522549 1.1487135 0 0 0 0 5.5897884
1.4124043 -3.5770402 1.1565113 0 0 0 0 5.5947342
1.2855858 -3.6009002 1.1613702 0 0 0 0 5.5996819
1.1618921 -3.623009 1.1673079 0 0 0 0 5.6046295
1.6502875 -3.5430231 1.1663386 0 0 0 0 5.6095753
1.5015864 -3.5643482 1.1692718 0 0 0 0 5.6145229
1.3719805 -3.5848141 1.1692648 0 0 0 0 5.6194706
1.2454994 -3.6035285 1.1703362 0 0 0 0 5.6244164
1.7381337 -3.5202181 1.1795185 0 0 0 0 5.629364
1.5926294 -3.5538175 1.1829449 0 0 0 0 5.6343117
1.4611002 -3.5729909 1.1789861 0 0 0 0 5.6392574
1.332562 -3.5924489 1.1770214 0 0 0 0 5.6442051
1.8359504 -3.5134628 1.2010491 0 0 0 0 5.6491528
1.6838701 -3.5402884 1.1967429 0 0 0 0 5.6540985
1.5493535 -3.5591011 1.1887919 0 0 0 0 5.6590462
1.4206878 -3.5804315 1.1837467 0 0 0 0 5.6639938
1.9330343 -3.5026038 1.2217487 0 0 0 0 5.6689396
1.7725812 -3.5194921 1.2088382 0 0 0 0 5.6738873
1.6412624 -3.5505784 1.201381 0 0 0 0 5.6788349
1.506152 -3.5631416 1.1886859 0 0 0 0 5.6837807
2.0257938 -3.4812708 1.2388752 0 0 0 0 5.6887283
1.870334 -3.5136397 1.2283289 0 0 0 0 5.693676
1.7307084 -3.5337913 1.2123089 0 0 0 0 5.6986217
1.5962688 -3.5513263 1.1974061 0 0 0 0 5.7035694
2.1277287 -3.4728448 1.2624813 0 0 0 0 5.7085152
1.9664906 -3.5015404 1.245075 0 0 0 0 5.7134628
1.8220811 -3.5181677 1.2241912 0 0 0 0 5.7184105
1.687381 -3.5396116 1.2071236 0 0 0 0 5.7233562
2.2308586 -3.4614856 1.286211 0 0 0 0 5.7283039
2.0646391 -3.4896486 1.2638161 0 0 0 0 5.7332516
1.9173095 -3.504878 1.2379825 0 0 0 0 5.7381992
1.7777596 -3.5237949 1.2160097 0 0 0 0 5.7431469
2.3322556 -3.4459984 1.3101096 0 0 0 0 5.7480907
2.1639149 -3.4758627 1.283638 0 0 0 0 5.7530384
2.0126672 -3.4896283 1.2528559 0 0 0 0 5.7579861
1.8693324 -3.5050459 1.2250187 0 0 0 0 5.7629337
2.4393706 -3.4350104 1.3368306 0 0 0 0 5.7678814
2.2633228 -3.4600329 1.3025436 0 0 0 0 5.7728252
2.1109502 -3.4756072 1.2686824 0 0 0 0 5.7777729
1.9653609 -3.4947612 1.2376844 0 0 0 0 5.7827206
2.5448856 -3.4178588 1.3628045 0 0 0 0 5.7876682
2.3648541 -3.4424162 1.3235275 0 0 0 0 5.7926159
2.2128901 -3.4669511 1.2872928 0 0 0 0 5.7975636
2.0654442 -3.4837768 1.2513851 0 0 0 0 5.8025074
2.6551871 -3.4041429 1.3916439 0 0 0 0 5.8074551
2.4746339 -3.4365575 1.3490375 0 0 0 0 5.8124027
2.3114998 -3.4479294 1.3033264 0 0 0 0 5.8173504
2.1609352 -3.4663906 1.2633433 0 0 0 0 5.822298
2.7731354 -3.3960946 1.424261 0 0 0 0 5.8272457
2.5793526 -3.4161716 1.3711402 0 0 0 0 5.8321896
2.415761 -3.4344451 1.3231404 0 0 0 0 5.8371372
2.2659357 -3.4568408 1.2799926 0 0 0 0 5.8420849
2.8885529 -3.3807774 1.4551743 0 0 0 0 5.8470325
2.6915851 -3.4034894 1.3979368 0 0 0 0 5.8519802
2.5250077 -3.4213638 1.3449455 0 0 0 0 5.8569279
2.3674729 -3.438961 1.2949808 0 0 0 0 5.8618717
3.0099518 -3.3659692 1.4890767 0 0 0 0 5.8668194
2.8115315 -3.3954771 1.428553 0 0 0 0 5.871767
2.6334541 -3.4051759 1.365877 0 0 0 0 5.8767147
2.4710701 -3.4202077 1.3100072 0 0 0 0 5.8816624
3.1343391 -3.3514721 1.5259721 0 0 0 0 5.8866062
2.9242876 -3.3747997 1.4556808 0 0 0 0 5.8915539
2.7421601 -3.3850327 1.387973 0 0 0 0 5.8965015
2.5831132 -3.4102614 1.3306844 0 0 0 0 5.9014492
3.2590561 -3.3318965 1.5610762 0 0 0 0 5.9063969
3.0438275 -3.3576465 1.4846727 0 0 0 0 5.9113445
2.8641703 -3.3760173 1.4156301 0 0 0 0 5.9162884
2.6937528 -3.391119 1.3497385 0 0 0 0 5.921236
3.3811715 -3.3061318 1.5964322 0 0 0 0 5.9261837
3.1702785 -3.3421462 1.5186089 0 0 0 0 5.9311314
2.9863768 -3.3640013 1.4434114 0 0 0 0 5.936079
2.8081174 -3.3763008 1.3706195 0 0 0 0 5.9410267
3.5204473 -3.2938731 1.6402588 0 0 0 0 5.9459705
3.2959285 -3.3235376 1.5516713 0 0 0 0 5.9509182
3.1013908 -3.3393211 1.4677032 0 0 0 0 5.9558659
2.9293964 -3.3630533 1.3944468 0 0 0 0 5.9608135
3.6668341 -3.2801912 1.6871561 0 0 0 0 5.9657612
3.4313536 -3.3087296 1.5885922 0 0 0 0 5.9707088
3.2393544 -3.3316135 1.5023324 0 0 0 0 5.9756527
3.0556605 -3.3502061 1.4202654 0 0 0 0 5.9806004
3.8155596 -3.2682683 1.7347155 0 0 0 0 5.7079697
3.5701625 -3.2946773 1.6282104 0 0 0 0 5.7129154
3.3616676 -3.3088038 1.529274 0 0 0 0 5.7178631
3.1682599 -3.3223054 1.4393923 0 0 0 0 5.7228107
3.9425271 -3.2299597 1.7736073 0 0 0 0 5.7277565
3.7128379 -3.276525 1.6682868 0 0 0 0 5.7327042
3.4906499 -3.2853744 1.5605439 0 0 0 0 5.7376499
3.3111522 -3.315907 1.4719743 0 0 0 0 5.7425976
3.9412 -3.0844131 1.753731 0 0 0 0 5.7475452
3.8615592 -3.2579255 1.7123926 0 0 0 0 5.7524929
3.6475625 -3.2792988 1.6031389 0 0 0 0 5.7574406
3.4449294 -3.2956696 1.5001146 0 0 0 0 5.7623844
3.9212437 -2.9322984 1.7260896 0 0 0 0 5.7673321
3.9612577 -3.1920211 1.7343773 0 0 0 0 5.7722797
3.7877088 -3.253788 1.6395131 0 0 0 0 5.7772274
3.5809615 -3.2716479 1.5304164 0 0 0 0 5.7821751
3.9171724 -2.7976725 1.7077451 0 0 0 0 5.7871227
3.9445584 -3.0360341 1.7048981 0 0 0 0 5.7920666
3.9452779 -3.2377172 1.6825236 0 0 0 0 5.7970142
3.7295616 -3.2546606 1.5654461 0 0 0 0 5.8019619
3.9061737 -2.6615486 1.6884471 0 0 0 0 5.8069096
3.9322386 -2.8895175 1.6790283 0 0 0 0 5.8118572
3.9679506 -3.1079838 1.6670172 0 0 0 0 5.8168049
3.8862064 -3.2372732 1.6025044 0 0 0 0 5.8217487
3.8909764 -2.5281539 1.6690246 0 0 0 0 5.8266964
3.918581 -2.7479632 1.6539454 0 0 0 0 5.8316441
3.9483116 -2.9506822 1.6345772 0 0 0 0 5.8365917
3.9880319 -3.1692028 1.617571 0 0 0 0 5.8415394
3.8850837 -2.4055958 1.6541636 0 0 0 0 5.8464832
3.9085686 -2.6118665 1.6336397 0 0 0 0 5.8514309
3.9387722 -2.8073986 1.6095695 0 0 0 0 5.8563786
3.9782324 -3.0146372 1.5870297 0 0 0 0 5.8613262
3.8800457 -2.2851813 1.6412116 0 0 0 0 5.8662739
3.8981521 -2.4817531 1.6130797 0 0 0 0 5.8712215
3.9328158 -2.6704857 1.5872992 0 0 0 0 5.8761654
3.9594429 -2.8594408 1.5554954 0 0 0 0 5.8811131
3.8620994 -2.16271 1.6233181 0 0 0 0 5.8860607
3.8933125 -2.3582244 1.597253 0 0 0 0 5.8910084
3.9245899 -2.5374722 1.5658593 0 0 0 0 5.895956
3.9537489 -2.7184169 1.530391 0 0 0 0 5.9009037
3.6297891 -1.9300787 1.514612 0 0 0 0 5.9058475
3.8843427 -2.2363865 1.5803448 0 0 0 0 5.9107952
3.915225 -2.4063888 1.5443326 0 0 0 0 5.9157429
3.9496427 -2.5836318 1.508027 0 0 0 0 5.9206905
3.5721231 -1.8014268 1.4828962 0 0 0 0 5.9256382
3.8499587 -2.104455 1.5538064 0 0 0 0 5.9305859
3.9093776 -2.2827134 1.5265019 0 0 0 0 5.9355297
3.9346852 -2.4460084 1.4827577 0 0 0 0 5.9404774
3.5560169 -1.6963667 1.4702719 0 0 0 0 5.945425
3.5922852 -1.8608001 1.4365031 0 0 0 0 5.9503727
3.8965387 -2.1584978 1.5066773 0 0 0 0 5.9553204
3.9243085 -2.3148625 1.4612244 0 0 0 0 5.9602642
3.5571985 -1.6027886 1.4651988 0 0 0 0 5.9652119
3.5841579 -1.7563069 1.4248657 0 0 0 0 5.9701595
3.6663187 -1.9242488 1.4030291 0 0 0 0 5.9751072
3.9223084 -2.1934459 1.443298 0 0 0 0 5.9800549
3.5464699 -1.5072623 1.4561825 0 0 0 0 5.9850025
3.5729001 -1.6535708 1.4121463 0 0 0 0 5.9899464
3.60604 -1.7893051 1.3685584 0 0 0 0 5.994894
3.795176 -2.0077646 1.3798128 0 0 0 0 5.9998417
3.5347364 -1.4116718 1.4471637 0 0 0 0 6.0047894
3.5653601 -1.5552098 1.4022495 0 0 0 0 6.009737
3.5999644 -1.6839064 1.3559542 0 0 0 0 6.0146847
3.6226716 -1.8105316 1.3027236 0 0 0 0 6.0196285
3.528651 -1.3216252 1.4419229 0 0 0 0 6.0245762
3.5557523 -1.4577161 1.39231 0 0 0 0 6.0295238
3.5876992 -1.5810661 1.3422308 0 0 0 0 6.0344715
3.6157262 -1.7030336 1.2892021 0 0 0 0 6.0394192
3.5175719 -1.2311698 1.434687 0 0 0 0 6.0443668
3.5460064 -1.3622174 1.3822839 0 0 0 0 6.0493107
3.5812132 -1.4817342 1.3313688 0 0 0 0 6.0542583
3.6076458 -1.597424 1.2745959 0 0 0 0 6.059206
3.4955156 -1.1398319 1.4234654 0 0 0 0 6.0641537
3.5399795 -1.2710929 1.3750812 0 0 0 0 6.0691013
3.5716612 -1.3832042 1.3204654 0 0 0 0 6.0740452
3.5935054 -1.4924208 1.2599519 0 0 0 0 6.0789928
3.5077682 -1.0604146 1.4278084 0 0 0 0 6.0839405
3.5338795 -1.1810075 1.3688322 0 0 0 0 6.0888882
3.5599744 -1.2865801 1.3104774 0 0 0 0 6.0938358
3.5958545 -1.3957967 1.2519865 0 0 0 0 6.0987835
3.4776533 -0.96947157 1.4145505 0 0 0 0 6.1037273
3.4834793 -1.0783124 1.3460251 0 0 0 0 6.108675
3.5501461 -1.1920818 1.3004003 0 0 0 0 6.1136227
3.5805027 -1.2938042 1.2392101 0 0 0 0 6.1185703
3.4453392 -0.88143313 1.4021671 0 0 0 0 6.123518
3.5361605 -1.0091257 1.3640087 0 0 0 0 6.1284657
3.5176301 -1.0918084 1.2835203 0 0 0 0 6.1334095
3.5698042 -1.1972069 1.2282152 0 0 0 0 6.1383572
3.4109588 -0.79422307 1.3887422 0 0 0 0 6.1433048
3.4765077 -0.9097544 1.3390425 0 0 0 0 6.1482525
3.5705066 -1.0195454 1.2996278 0 0 0 0 6.1532001
3.5473237 -1.0967141 1.2143583 0 0 0 0 6.1581478
3.4011135 -0.71507984 1.3860244 0 0 0 0 6.1630917
3.4215724 -0.81482577 1.3168983 0 0 0 0 6.1680393
3.5041294 -0.91560996 1.2718357 0 0 0 0 6.172987
3.6013281 -1.0224376 1.2285469 0 0 0 0 6.1779346
3.3957705 -0.64033252 1.3856477 0 0 0 0 5.9258862
3.4036164 -0.73290473 1.3087692 0 0 0 0 5.9308338
3.437181 -0.81564981 1.2443444 0 0 0 0 5.9357815
3.5169709 -0.91202593 1.1934309 0 0 0 0 5.9407253
3.3798342 -0.56274462 1.3818709 0 0 0 0 5.945673
3.4077642 -0.65484214 1.3100454 0 0 0 0 5.9506207
3.4217141 -0.73091918 1.2368634 0 0 0 0 5.9555683
3.4614685 -0.81098408 1.1705585 0 0 0 0 5.960516
3.4055808 -0.49164534 1.3958946 0 0 0 0 5.9654636
3.3871019 -0.57281661 1.3034415 0 0 0 0 5.9704075
3.4260559 -0.64982486 1.2372624 0 0 0 0 5.9753551
3.4403408 -0.72079432 1.1612917 0 0 0 0 5.9803028
3.4660943 -0.42549103 1.4257721 0 0 0 0 5.9852505
3.4268103 -0.50279909 1.3214415 0 0 0 0 5.9901981
3.4065187 -0.56587267 1.2307377 0 0 0 0 5.9951458
3.4319115 -0.63561076 1.1558352 0 0 0 0 6.0000896
3.5089126 -0.35387579 1.4488424 0 0 0 0 6.0050373
3.4895825 -0.43266091 1.3484827 0 0 0 0 6.009985
3.4424992 -0.49143872 1.2449099 0 0 0 0 6.0149326
3.4224751 -0.55044514 1.1523745 0 0 0 0 6.0198803
3.5775895 -0.28540841 1.4828244 0 0 0 0 6.024828
3.5375195 -0.35933554 1.3706284 0 0 0 0 6.0297718
3.5034084 -0.41900802 1.2680379 0 0 0 0 6.0347195
3.4665654 -0.47453931 1.1666164 0 0 0 0 6.0396671
3.628571 -0.21148096 1.509999 0 0 0 0 6.0446148
3.5994782 -0.2861715 1.3987885 0 0 0 0 6.0495625
3.5585213 -0.34318876 1.2912951 0 0 0 0 6.0545063
3.5267372 -0.39797005 1.1879106 0 0 0 0 6.059454
3.6516516 -0.20927496 1.4250846 0 0 0 0 6.0693493
3.6147573 -0.26543581 1.3146304 0 0 0 0 6.074297
3.5710735 -0.31819153 1.2053089 0 0 0 0 6.0792446
3.6701174 -0.18570097 1.3400447 0 0 0 0 6.0940838
3.6564281 -0.23966841 1.2367202 0 0 0 0 6.0990314
3.6940966 -0.15435606 1.2523295 0 0 0 0 6.1188183
3.9418721 0.70129162 1.7624277 0 0 0 0 6.2622814
3.9759066 0.74963284 1.6603835 0 0 0 0 6.2870159
4.009285 0.72587168 1.5523652 0 0 0 0 6.2919636
4.128871 0.71729726 1.4751137 0 0 0 0 6.2969112
3.8351834 2.4696159 1.8622986 0 0 0 0 6.7610302
3.7234983 2.4429674 2.1042523 0 0 0 0 6.7709255
3.6888285 2.4526937 1.9454622 0 0 0 0 6.7758732
3.7032068 2.507587 1.831606 0 0 0 0 6.7808208
3.4015856 4.2387996 2.1772165 0 0 0 0 7.5419369
3.4556117 4.1695614 2.4727414 0 0 0 0 7.5518284
3.3559949 4.2142968 2.313242 0 0 0 0 7.556776
3.4226673 4.1546888 2.6241794 0 0 0 0 7.5666714
3.3251274 4.2008476 2.4507277 0 0 0 0 7.5716152
3.2873273 4.1726184 2.5926213 0 0 0 0 7.5864582
2.7282846 4.9121451 2.3176374 0 0 0 0 7.6804523
2.7626669 4.9484868 2.4871979 0 0 0 0 7.6952915
2.6201055 4.9955292 2.3357286 0 0 0 0 7.7002392
2.7941904 4.9713545 2.6472127 0 0 0 0 7.7101345
2.624465 4.9688988 2.4717288 0 0 0 0 7.7150784
2.5433712 5.1487594 2.388649 0 0 0 0 7.720026
3.4267728 6.0411754 3.4259319 0 0 0 0 7.7249737
2.6295826 4.9384589 2.6015751 0 0 0 0 7.7299213
2.5478604 5.108304 2.5190964 0 0 0 0 7.734869
2.4536624 5.2870536 2.4339488 0 0 0 0 7.7398167
2.6247947 4.8778028 2.72521 0 0 0 0 7.7447605
2.5293181 5.0203805 2.6186135 0 0 0 0 7.7497082
2.4457011 5.2079625 2.5468378 0 0 0 0 7.7546558
2.4287608 5.5797963 2.5534918 0 0 0 0 7.7596035
2.5191243 4.9375496 2.7283537 0 0 0 0 7.7645512
2.4467888 5.1454105 2.6583931 0 0 0 0 7.7694988
2.3925965 5.4186339 2.6310701 0 0 0 0 7.7744427
2.3544378 5.7879415 2.633584 0 0 0 0 7.7793903
2.4582775 5.0887079 2.7832057 0 0 0 0 7.784338
2.3715274 5.2905326 2.7109807 0 0 0 0 7.7892857
2.3304946 5.6299038 2.7143044 0 0 0 0 7.7942333
2.2696259 5.9888463 2.7103651 0 0 0 0 7.7991772
2.3622963 5.1751976 2.8044255 0 0 0 0 7.8041248
2.3337777 5.5385408 2.8157139 0 0 0 0 7.8090725
2.2616367 5.8455176 2.7996943 0 0 0 0 7.8140202
2.2048163 6.2692528 2.8243301 0 0 0 0 7.8189678
2.3159111 5.3814468 2.8884821 0 0 0 0 7.8239155
2.2775066 5.7631474 2.9074788 0 0 0 0 7.8288593
2.1997035 6.1078444 2.909946 0 0 0 0 7.833807
2.1426911 6.5927906 2.9590044 0 0 0 0 7.8387547
2.2640119 5.5958495 2.9778483 0 0 0 0 7.8437023
2.1966174 5.9469447 2.9795768 0 0 0 0 7.84865
2.0697923 6.9366255 3.104459 0 0 0 0 7.8585415
2.1979539 5.7924252 3.0584772 0 0 0 0 7.8634892
2.1018796 6.1178193 3.0451343 0 0 0 0 7.8684368
2.0753036 6.7368717 3.1795664 0 0 0 0 7.8733845
1.960766 7.1999497 3.2126501 0 0 0 0 7.8783321
2.1340294 6.0232744 3.1564641 0 0 0 0 7.8832798
2.0959551 6.5870032 3.262671 0 0 0 0 7.8882236
1.9793102 7.0002699 3.2907801 0 0 0 0 7.8931713
2.0643458 6.2584448 3.255605 0 0 0 0 7.9030666
2.0059648 6.8342881 3.3662515 0 0 0 0 7.9080143
1.8738065 7.2721062 3.4063056 0 0 0 0 7.912962
2.0201454 6.6128469 3.4185112 0 0 0 0 7.9228535
1.9011233 7.0686712 3.4642899 0 0 0 0 7.9278011
1.9411999 6.8927732 3.5413957 0 0 0 0 7.9426403
1.9048848 11.10329 4.9438605 0 0 0 0 7.9574833
1.848647 7.1637268 3.6588933 0 0 0 0 7.962431
1.9251162 10.433544 4.8623533 0 0 0 0 7.9723225
1.7260995 11.744921 5.2308455 0 0 0 0 7.9772701
2.1854944 9.3044071 4.737155 0 0 0 0 7.9822178
1.9598956 9.9327164 4.8225536 0 0 0 0 7.9871655
1.3827834 11.307708 5.0368438 0 0 0 0 7.9970608
2.1147363 9.9650583 5.0537753 0 0 0 0 7.7082195
1.7636558 10.123388 4.9023995 0 0 0 0 7.7131672
1.3169864 13.369731 5.9739418 0 0 0 0 7.7230587
1.8631611 9.8586988 4.9749851 0 0 0 0 7.7280064
1.5368861 10.18814 4.9194813 0 0 0 0 7.732954
1.4336778 12.66188 5.89186 0 0 0 0 7.7379017
0.93562442 12.618627 5.6432223 0 0 0 0 7.7428493
1.616225 9.73036 4.8863292 0 0 0 0 7.7477932
1.5173295 11.890829 5.7362008 0 0 0 0 7.7527409
1.1974167 13.34205 6.2084284 0 0 0 0 7.7576885
0.63930959 12.757666 5.7161355 0 0 0 0 7.7626362
1.4541903 10.139331 5.0722351 0 0 0 0 7.7675838
1.4060739 13.443846 6.4767528 0 0 0 0 7.7725315
0.83313525 12.623124 5.8730273 0 0 0 0 7.7774754
0.36130005 13.81054 6.2064819 0 0 0 0 7.782423
1.0886695 13.34376 6.4180722 0 0 0 0 7.7923183
0.54994959 12.875763 5.993475 0 0 0 0 7.797266
0.042241111 19.223284 8.6853676 0 0 0 0 7.8022137
1.3140856 13.377364 6.6607041 0 0 0 0 7.8071575
0.73721546 12.589306 6.0472851 0 0 0 0 7.8121052
0.25688156 13.274481 6.1877193 0 0 0 0 7.8170528
-0.37063381 17.012676 7.7064633 0 0 0 0 7.8220005
1.0070244 13.314381 6.6105127 0 0 0 0 7.8269482
0.46110269 12.938983 6.2125955 0 0 0 0 7.8318958
-0.07753706 19.117296 8.9475756 0 0 0 0 7.8368397
-0.82802844 18.052916 8.2149286 0 0 0 0 7.8417873
0.66484678 12.53167 6.2036233 0 0 0 0 7.846735
0.17253692 13.825447 6.64224 0 0 0 0 7.8516827
-0.44414318 16.07663 7.5347633 0 0 0 0 7.8566303
-1.2858834 18.351265 8.3908548 0 0 0 0 7.8615742
0.3992663 13.001806 6.4247265 0 0 0 0 7.8665218
-0.16166018 15.695632 7.5479136 0 0 0 0 7.8714695
-0.91460913 17.948381 8.4372559 0 0 0 0 7.8764172
-1.6780343 17.827053 8.1921673 0 0 0 0 7.8813648
0.1120064 13.830065 6.8280263 0 0 0 0 7.8863125
-0.5524416 16.63238 8.007329 0 0 0 0 7.8912563
-1.3092552 17.544281 8.2733374 0 0 0 0 7.896204
-2.1115639 17.857746 8.2504892 0 0 0 0 7.9011517
-0.22062658 15.502887 7.6508007 0 0 0 0 7.9060993
-0.9713456 17.248848 8.3179464 0 0 0 0 7.911047
-1.7350725 17.682323 8.3689289 0 0 0 0 7.9159946
-2.5034525 17.544872 8.1572313 0 0 0 0 7.9209385
-0.61957824 16.902428 8.3375587 0 0 0 0 7.9258862
-1.3386919 16.880224 8.1514874 0 0 0 0 7.9308338
-2.1083314 17.31501 8.2285261 0 0 0 0 7.9357815
-2.8529198 17.076761 7.9918828 0 0 0 0 7.9407291
-0.99198788 16.693096 8.2334175 0 0 0 0 7.9456768
-1.7527928 17.10944 8.280714 0 0 0 0 7.9506207
-2.4673903 16.933929 8.0836134 0 0 0 0 7.9555683
-3.1863406 16.624329 7.8351979 0 0 0 0 7.960516
-1.3446175 16.383123 8.0813198 0 0 0 0 7.9654636
-2.1151431 16.80398 8.1557941 0 0 0 0 7.9704113
-2.8054299 16.519871 7.9274406 0 0 0 0 7.975359
-3.5030072 16.166826 7.6783552 0 0 0 0 7.9803028
-1.7557207 16.724569 8.2579975 0 0 0 0 7.9852505
-2.458391 16.451004 8.0100307 0 0 0 0 7.9901981
-3.1286893 16.133392 7.7853985 0 0 0 0 7.9951458
-3.7988675 15.704966 7.5223894 0 0 0 0 8.0000935
-2.0979066 16.404844 8.1065435 0 0 0 0 8.0050373
-2.7854002 16.10088 7.8674178 0 0 0 0 8.009985
-3.4359353 15.730032 7.6387286 0 0 0 0 8.0149326
-4.0790048 15.269746 7.3775177 0 0 0 0 8.0198803
-2.4372659 16.129906 7.9838858 0 0 0 0 8.024828
-3.0992875 15.751842 7.7268815 0 0 0 0 8.0297756
-3.7210467 15.311616 7.4825072 0 0 0 0 8.0347195
-4.3496003 14.858429 7.2466259 0 0 0 0 8.0396671
-2.7535048 15.791538 7.8307595 0 0 0 0 8.0446148
-3.4039893 15.404974 7.5924621 0 0 0 0 8.0495625
-4.0030174 14.943017 7.3542814 0 0 0 0 8.0545101
-4.6079435 14.450297 7.1168928 0 0 0 0 8.0594578
-3.072947 15.529898 7.7196836 0 0 0 0 8.0644016
-3.6997869 15.088016 7.4732533 0 0 0 0 8.0693493
-4.2738037 14.576509 7.231173 0 0 0 0 8.074297
-4.850493 14.053907 6.9946642 0 0 0 0 8.0792446
-3.3745255 15.216854 7.5866117 0 0 0 0 8.0841923
-3.9757397 14.735318 7.3386722 0 0 0 0 8.0891399
-4.5293446 14.213043 7.1082196 0 0 0 0 8.0940838
-4.8931122 13.150812 6.617682 0 0 0 0 8.0990314
-3.6637387 14.908873 7.4577713 0 0 0 0 8.1039791
-4.2463989 14.402784 7.2179132 0 0 0 0 8.1089268
-4.599731 13.346786 6.7306519 0 0 0 0 8.1138744
-5.101934 12.779983 6.5055509 0 0 0 0 8.1188183
-3.9475811 14.606228 7.3371658 0 0 0 0 8.1237659
-4.5140867 14.101491 7.1134071 0 0 0 0 8.1287136
-4.8343129 13.029101 6.6335783 0 0 0 0 8.1336613
-5.3002596 12.41638 6.3967338 0 0 0 0 8.1386089
-4.220871 14.311762 7.2209105 0 0 0 0 8.1435566
-4.5690107 13.20918 6.710856 0 0 0 0 8.1485004
-5.0491261 12.690584 6.5247211 0 0 0 0 8.1534481
-5.4822021 12.041818 6.2855244 0 0 0 0 8.1583958
-4.4708061 13.97353 7.083972 0 0 0 0 8.1633434
-4.8144813 12.941813 6.6257582 0 0 0 0 8.1682911
-5.2333493 12.311828 6.3963313 0 0 0 0 8.1732388
-5.6542196 11.681448 6.1799026 0 0 0 0 8.1781826
-4.5555372 13.201255 6.7311082 0 0 0 0 7.9471378
-5.0253696 12.626068 6.5196328 0 0 0 0 7.9520817
-5.4259114 11.988708 6.300808 0 0 0 0 7.9570293
-5.8241539 11.355691 6.0951734 0 0 0 0 7.961977
-4.8058591 12.954352 6.645752 0 0 0 0 7.9669247
-5.2346745 12.297299 6.4111104 0 0 0 0 7.9718723
-5.6068697 11.647956 6.1968708 0 0 0 0 7.9768162
-5.9782543 10.995157 5.9925113 0 0 0 0 7.9817638
-5.0263896 12.638651 6.5287194 0 0 0 0 7.9867115
-5.4310546 11.982611 6.3061748 0 0 0 0 7.9916592
-5.8023443 11.363126 6.1211472 0 0 0 0 7.9966068
-6.1211185 10.653739 5.8956351 0 0 0 0 8.0015545
-5.2548814 12.371572 6.4366169 0 0 0 0 8.0064983
-5.6164932 11.666267 6.200201 0 0 0 0 8.011446
-5.9426727 10.998393 6.001339 0 0 0 0 8.0163937
-6.2626767 10.332819 5.8105884 0 0 0 0 8.0213413
-5.451354 12.055265 6.3216195 0 0 0 0 8.026289
-5.8332081 11.426236 6.1402278 0 0 0 0 8.0312366
-6.1123328 10.709052 5.9224954 0 0 0 0 8.0361805
-6.3971033 10.01337 5.727623 0 0 0 0 8.0411282
-5.6537142 11.772675 6.2249637 0 0 0 0 8.0460758
-5.976253 11.065938 6.0135965 0 0 0 0 8.0510235
-6.2567334 10.390574 5.8305454 0 0 0 0 8.0559711
-6.505527 9.676795 5.6310253 0 0 0 0 8.0609188
-5.8376789 11.463334 6.1162872 0 0 0 0 8.0658627
-6.14501 10.774879 5.9256892 0 0 0 0 8.0708103
-6.3945093 10.08157 5.741991 0 0 0 0 8.075758
-6.7518597 9.5542889 5.6617398 0 0 0 0 8.0807056
-6.0274138 11.189628 6.0280271 0 0 0 0 8.0856533
-6.302134 10.477197 5.8345475 0 0 0 0 8.090601
-6.5231586 9.7739506 5.6545177 0 0 0 0 8.0955448
-6.9956808 9.423604 5.692143 0 0 0 0 8.1004925
-6.2019525 10.902148 5.9342551 0 0 0 0 8.1054401
-6.4502559 10.178868 5.7454062 0 0 0 0 8.1103878
-6.805481 9.7010393 5.7041421 0 0 0 0 8.1153355
-7.099659 9.1090775 5.6134601 0 0 0 0 8.1202793
-6.3711753 10.619214 5.8436828 0 0 0 0 8.125227
-6.5736804 9.8584499 5.6434369 0 0 0 0 8.1301746
-7.0209622 9.5267582 5.7018538 0 0 0 0 8.1351223
-7.1905098 8.7958908 5.5308576 0 0 0 0 8.14007
-6.5252018 10.322472 5.7485995 0 0 0 0 8.1450176
-6.9831033 9.964942 5.7919831 0 0 0 0 8.1499615
-7.1416621 9.2331972 5.6259804 0 0 0 0 8.1549091
-7.280735 8.4923162 5.4576521 0 0 0 0 8.1598568
-6.7112494 10.090466 5.689043 0 0 0 0 8.1648045
-7.1263967 9.6788549 5.714365 0 0 0 0 8.1697521
-7.2578006 8.9481974 5.5544624 0 0 0 0 8.1746998
-7.3662724 8.1993799 5.3868828 0 0 0 0 8.1796436
-7.1060152 10.159123 5.8070989 0 0 0 0 8.1845913
-7.2502527 9.3827457 5.6313891 0 0 0 0 8.189539
-7.3521767 8.6422176 5.472158 0 0 0 0 8.1944866
-7.4464941 7.9109955 5.319313 0 0 0 0 8.1994343
-7.2367101 9.8499641 5.7095876 0 0 0 0 8.2043819
-7.3661032 9.0860939 5.5494161 0 0 0 0 8.2093258
-7.4398699 8.3467131 5.3932872 0 0 0 0 8.2142735
-7.5525241 7.6583695 5.2751341 0 0 0 0 8.2192211
-7.3666549 9.5524855 5.6195521 0 0 0 0 8.2241688
-7.4746399 8.7939472 5.4686422 0 0 0 0 8.2291164
-7.540309 8.0714197 5.3302116 0 0 0 0 8.2340603
-7.579556 7.3385687 5.1834154 0 0 0 0 8.2390079
-7.508285 9.2761898 5.5443511 0 0 0 0 8.2439556
-7.5881147 8.5187235 5.3985419 0 0 0 0 8.2489033
-7.6305609 7.7985339 5.2662549 0 0 0 0 8.2538509
-7.6447701 7.0649867 5.1234841 0 0 0 0 8.2587986
-7.6342254 8.9940691 5.464952 0 0 0 0 8.2637424
-7.6825171 8.2275743 5.3208518 0 0 0 0 8.2686901
-7.6891813 7.5022988 5.1854286 0 0 0 0 8.2736378
-7.7197943 6.8105922 5.0753088 0 0 0 0 8.2785854
-7.7644753 8.7228241 5.3959908 0 0 0 0 8.2835331
-7.7789836 7.9512486 5.2517552 0 0 0 0 8.2884808
-7.7765508 7.2428861 5.131031 0 0 0 0 8.2934246
-7.7961888 6.5661302 5.0315318 0 0 0 0 8.2983723
-7.86128 8.4251127 5.3100419 0 0 0 0 8.3033199
-7.8597603 7.6691413 5.1774616 0 0 0 0 8.3082676
-7.8406672 6.9704161 5.0661583 0 0 0 0 8.3132153
-7.8857627 6.3349385 5.002275 0 0 0 0 8.3181629
-7.9715843 8.1517391 5.2380457 0 0 0 0 8.3231068
-7.9515915 7.4022522 5.115767 0 0 0 0 8.3280544
-6.4642391 5.4843125 4.08531 0 0 0 0 8.3330021
-7.8496027 6.0147901 4.896677 0 0 0 0 8.3379498
-8.0683804 7.869597 5.1637354 0 0 0 0 8.3428974
-8.0323601 7.135757 5.0521126 0 0 0 0 8.3478413
-7.9913254 6.4667864 4.9660473 0 0 0 0 8.3527889
-7.8931184 5.7664919 4.8478231 0 0 0 0 8.3577366
-8.1626768 7.5951467 5.0937428 0 0 0 0 8.3626842
-6.4641705 5.4764848 3.9697626 0 0 0 0 8.3676319
-8.0129347 6.1841946 4.8878617 0 0 0 0 8.3725796
-7.9161925 5.5082793 4.7896142 0 0 0 0 8.3775234
-6.3428373 5.629899 3.8527353 0 0 0 0 8.3824711
-8.2938795 6.702085 5.0026207 0 0 0 0 8.3874187
-8.0619726 5.9274478 4.8326721 0 0 0 0 8.3923664
-7.9598856 5.2727265 4.7482815 0 0 0 0 8.3973141
-6.4451337 5.4516382 3.8235576 0 0 0 0 8.4022617
-8.6902246 6.6936579 5.140748 0 0 0 0 8.4072056
-8.1056356 5.6763353 4.7787209 0 0 0 0 8.4121532
-7.9975719 5.0368028 4.7069521 0 0 0 0 8.4171009
-8.4634399 6.8233223 4.923274 0 0 0 0 8.5180111
-9.1004763 6.6727185 5.2818213 0 0 0 0 8.5229588
-8.149827 5.4310603 4.728581 0 0 0 0 8.5279064
-7.2994466 4.3676176 4.2361641 0 0 0 0 8.5328503
-8.7276144 6.700016 4.9700623 0 0 0 0 8.5377979
-8.3021231 5.7951427 4.7274013 0 0 0 0 8.5427456
-8.1774359 5.179029 4.6726594 0 0 0 0 8.5476933
-7.2559404 5.3027849 4.0391755 0 0 0 0 8.5575886
-8.3758831 5.5583072 4.6880145 0 0 0 0 8.5625324
-7.4848628 4.5028229 4.2120099 0 0 0 0 8.5674801
-0.45543221 0.24562033 0.21383144 0 0 0 0 8.5724277
-8.4338312 5.3176937 4.6435084 0 0 0 0 8.5823231
-7.7262793 4.6235785 4.1822081 0 0 0 0 8.6021099
-0.44955567 0.24370009 0.20179231 0 0 0 0 8.6070576
-0.43070969 0.20774531 0.19442829 0 0 0 0 8.6120052
-8.7091122 5.459516 4.5874238 0 0 0 0 8.6169529
-0.44485876 0.23884809 0.18963851 0 0 0 0 8.6416874
-0.43264082 0.20910981 0.18751071 0 0 0 0 8.6466312
-0.45453441 0.19476099 0.203945 0 0 0 0 8.6515789
-0.43722314 0.23293251 0.17444575 0 0 0 0 8.6763134
-0.43275329 0.20747596 0.17747757 0 0 0 0 8.6812611
-0.46039698 0.19736335 0.19707029 0 0 0 0 8.6862087
-0.45398915 0.17082694 0.19906276 0 0 0 0 8.6911564
-0.42898965 0.20372027 0.16436575 0 0 0 0 8.7158909
-0.45763224 0.1936285 0.18495904 0 0 0 0 8.7208385
-0.44616872 0.16786481 0.18498759 0 0 0 0 8.7257862
-0.44844818 0.14662895 0.19317831 0 0 0 0 8.7307339
-0.44705594 0.18661021 0.16772844 0 0 0 0 8.7554684
-0.43652984 0.16186658 0.1687967 0 0 0 0 8.7604122
-0.4464983 0.14590858 0.18218477 0 0 0 0 8.7653599
-0.44777653 0.12465099 0.18937622 0 0 0 0 8.7703075
-0.43675807 0.15827417 0.15768924 0 0 0 0 8.795042
-0.44079134 0.14111046 0.16703655 0 0 0 0 8.7999897
-0.44189003 0.12276848 0.17634265 0 0 0 0 8.8049374
-0.45591256 0.10597709 0.19169559 0 0 0 0 8.809885
-0.42927256 0.13303505 0.1497691 0 0 0 0 8.8346195
-0.44211549 0.11917546 0.16523674 0 0 0 0 8.8395672
-0.4441506 0.10189141 0.17458309 0 0 0 0 8.8445148
-0.44031405 0.082328044 0.18184847 0 0 0 0 8.8494587
-0.43153271 0.11215764 0.14800979 0 0 0 0 8.8741932
-0.43450609 0.095893055 0.15839538 0 0 0 0 8.8791409
-0.43947691 0.079710454 0.16978231 0 0 0 0 8.8840885
-0.44544834 0.063511319 0.18316892 0 0 0 0 8.8890362
-0.42392126 0.08887554 0.14116958 0 0 0 0 8.9137707
-0.43676314 0.074977025 0.15763777 0 0 0 0 8.9187183
-0.4466075 0.060974844 0.1721047 0 0 0 0 8.923666
-0.45463675 0.043821819 0.18745416 0 0 0 0 8.9286137
-0.42118141 0.067774162 0.13741048 0 0 0 0 8.9533482
-0.44694677 0.055423304 0.15992558 0 0 0 0 8.9582958
-0.44680396 0.040935732 0.17138582 0 0 0 0 8.9632397
-0.45577136 0.024801932 0.18777457 0 0 0 0 8.9681873
-0.43921208 0.049135331 0.1443904 0 0 0 0 9.5244694
-0.44704467 0.03501321 0.15886408 0 0 0 0 9.529417
-0.4498843 0.020634035 0.17233421 0 0 0 0 9.5343647
-0.47881654 0.0052271015 0.20074123 0 0 0 0 9.5393085
-0.43644685 0.027995994 0.14164557 0 0 0 0 9.5640469
-0.44921604 0.015015295 0.1601591 0 0 0 0 9.5689907
-0.46909463 0.00033864332 0.18160141 0 0 0 0 9.5739384
-0.47299397 -0.015091834 0.19803344 0 0 0 0 9.578886
-0.44061294 0.0081156949 0.14294334 0 0 0 0 9.6036205
-0.46148884 -0.0065026553 0.16438705 0 0 0 0 9.6085682
-0.46526825 -0.019900091 0.17989561 0 0 0 0 9.6135159
-0.46716845 -0.035410143 0.19532734 0 0 0 0 9.6184635
-0.4578779 -0.01318437 0.14917524 0 0 0 0 9.643198
-0.46171513 -0.027579101 0.16464674 0 0 0 0 9.6481457
-0.46149901 -0.041173536 0.1791532 0 0 0 0 9.6530895
-0.4653371 -0.055605613 0.19562426 0 0 0 0 9.6580372
-0.458161 -0.035258748 0.14939843 0 0 0 0 9.6827717
-0.45994183 -0.048772886 0.16490644 0 0 0 0 9.6877193
-0.46671653 -0.06206866 0.18241745 0 0 0 0 9.692667
-0.46855819 -0.076655187 0.1998868 0 0 0 0 9.6976147
-0.45238993 -0.056612216 0.1476572 0 0 0 0 9.7223492
-0.46022192 -0.07088428 0.16613138 0 0 0 0 9.7272968
-0.46699679 -0.084217303 0.18464234 0 0 0 0 9.7322445
-0.46977699 -0.09774708 0.2021507 0 0 0 0 9.7371883
-0.4547244 -0.079641715 0.14984681 0 0 0 0 9.7619267
-0.46355483 -0.093892522 0.16932181 0 0 0 0 9.7668705
-0.46721539 -0.10536823 0.18690647 0 0 0 0 9.7718182
-0.4730505 -0.11979444 0.20637919 0 0 0 0 9.7767658
-0.45400086 -0.10181174 0.15107387 0 0 0 0 9.8015003
-0.47704938 -0.11949631 0.17740677 0 0 0 0 9.806448
-0.47160202 -0.12935281 0.19106208 0 0 0 0 9.8113956
-0.48660523 -0.14650732 0.21742593 0 0 0 0 9.8163433
-0.46149936 -0.12765434 0.15615714 0 0 0 0 9.8410778
-0.4794952 -0.14459647 0.18152471 0 0 0 0 9.8460255
-0.48215678 -0.15616709 0.200109 0 0 0 0 9.8509693
-0.48793375 -0.16966973 0.22161911 0 0 0 0 9.855917
-0.45677459 -0.15002033 0.15638532 0 0 0 0 9.8806515
-0.49421656 -0.17420898 0.19146381 0 0 0 0 9.8855991
-0.50304711 -0.18857142 0.21393895 0 0 0 0 9.8905468
-0.50271517 -0.20039092 0.23452011 0 0 0 0 9.8954945
-0.48694339 -0.18700108 0.17303488 0 0 0 0 9.920229
-0.49683082 -0.20233996 0.1964734 0 0 0 0 9.9251766
-0.50149089 -0.21390492 0.2180585 0 0 0 0 9.9301243
-6.5492549 -3.0375345 3.6740916 0 0 0 0 9.9350719
-6.8362336 -3.2009382 3.582618 0 0 0 0 9.9499111
-6.461565 -3.1676307 3.6614397 0 0 0 0 9.9548588
-0.49989498 -0.22075978 0.18382651 0 0 0 0 9.9598064
-7.0106211 -3.5489779 3.4765108 0 0 0 0 9.9845409
-6.6771522 -3.5009801 3.5758383 0 0 0 0 9.9894886
-7.2843752 -3.7629182 3.3569155 0 0 0 0 9.7513866
-6.9243627 -3.7072368 3.4725921 0 0 0 0 9.7563343
-6.5827022 -3.6395981 3.5656753 0 0 0 0 9.761282
-7.1914258 -3.9399562 3.3565123 0 0 0 0 9.7711735
-6.8272424 -3.8642948 3.4679391 0 0 0 0 9.7761211
-6.4844656 -3.7774999 3.5567372 0 0 0 0 9.7810688
-6.1750584 -3.7133296 3.6596522 0 0 0 0 9.7860165
-7.0755525 -4.1019378 3.346704 0 0 0 0 9.7909603
-6.7257643 -4.0155196 3.4615154 0 0 0 0 9.795908
-6.4059629 -3.9277391 3.5603254 0 0 0 0 9.8008556
-6.0964985 -3.8453898 3.6599176 0 0 0 0 9.8058033
-6.988811 -4.2828631 3.3531659 0 0 0 0 9.810751
-6.6201649 -4.1649756 3.4551694 0 0 0 0 9.8156986
-6.2940769 -4.0551891 3.5458038 0 0 0 0 9.8206425
-5.997129 -3.9641976 3.6487038 0 0 0 0 9.8255901
-6.885375 -4.4525208 3.354075 0 0 0 0 9.8305378
-6.545815 -4.3353672 3.4680188 0 0 0 0 9.8354855
-6.225841 -4.210156 3.5582194 0 0 0 0 9.8404331
-5.9321876 -4.1069465 3.6615705 0 0 0 0 9.8453808
-6.7839851 -4.6231642 3.3579535 0 0 0 0 9.8503246
-6.4296823 -4.4763398 3.4600155 0 0 0 0 9.8552723
-6.1453166 -4.3606801 3.5668211 0 0 0 0 9.86022
-5.8380327 -4.2296643 3.6562178 0 0 0 0 9.8651676
-6.670249 -4.7884021 3.3590555 0 0 0 0 9.8701153
-6.3480883 -4.6431732 3.4740214 0 0 0 0 9.8750629
-6.0741253 -4.5169201 3.5822079 0 0 0 0 9.8800068
-5.7626748 -4.3658524 3.6653521 0 0 0 0 9.8849545
-6.553215 -4.9488182 3.3603485 0 0 0 0 9.8899021
-6.2393427 -4.7910409 3.4747689 0 0 0 0 9.8948498
-5.9391809 -4.627481 3.5633671 0 0 0 0 9.8997974
-5.676908 -4.49541 3.6687493 0 0 0 0 9.9047413
-6.420547 -5.0989394 3.3570502 0 0 0 0 9.9096889
-6.1231856 -4.9322143 3.4727805 0 0 0 0 9.9146366
-5.857574 -4.777195 3.576021 0 0 0 0 9.9195843
-5.5753908 -4.6126046 3.6656296 0 0 0 0 9.9245319
-6.0213556 -5.0226798 3.2104554 0 0 0 0 9.9294796
-5.9818792 -5.0543756 3.459532 0 0 0 0 9.9344234
-5.7549839 -4.9106607 3.5773067 0 0 0 0 9.9393711
-5.4895511 -4.7412634 3.6720726 0 0 0 0 9.9443188
-5.632453 -4.9338236 3.0653145 0 0 0 0 9.9492664
-5.611114 -4.9672689 3.3092978 0 0 0 0 9.9542141
-5.614439 -5.0114741 3.5578508 0 0 0 0 9.9591618
-5.4027648 -4.8710456 3.6804819 0 0 0 0 9.9641056
-5.2887926 -4.8651896 2.9423716 0 0 0 0 9.9690533
-5.2761936 -4.8937783 3.1775179 0 0 0 0 9.9740009
-5.2810912 -4.9304295 3.4143424 0 0 0 0 9.9789486
-5.2821326 -4.9699016 3.667078 0 0 0 0 9.9838963
-4.9734526 -4.8013034 2.8302188 0 0 0 0 9.9888439
-4.9815178 -4.8407316 3.0659347 0 0 0 0 9.9937878
-4.9868746 -4.8678927 3.2911034 0 0 0 0 9.9987354
-4.989491 -4.8998485 3.5331094 0 0 0 0 10.003683
-4.6824989 -4.7434354 2.7298145 0 0 0 0 10.008631
-4.6867938 -4.7695036 2.9510229 0 0 0 0 10.013578
-4.7055902 -4.8038101 3.1739066 0 0 0 0 10.018522
-4.7309871 -4.8485975 3.4194074 0 0 0 0 10.02347
-4.4173388 -4.698586 2.6428993 0 0 0 0 10.028418
-4.4263821 -4.7200699 2.856266 0 0 0 0 10.033365
-4.4562688 -4.7555413 3.0740883 0 0 0 0 10.038313
-4.4843559 -4.7947898 3.3097851 0 0 0 0 10.043261
-4.1521306 -4.6355562 2.5526552 0 0 0 0 10.048204
-4.1831288 -4.6728878 2.7684054 0 0 0 0 10.053152
-4.2126532 -4.7019978 2.9764581 0 0 0 0 10.0581
-4.2465453 -4.7376022 3.2042773 0 0 0 0 10.063047
-3.9138277 -4.58745 2.4748273 0 0 0 0 10.067995
-3.9486351 -4.6212912 2.6836975 0 0 0 0 10.072943
-3.9906013 -4.6576443 2.8904636 0 0 0 0 10.077887
-4.0326481 -4.6956248 3.1141813 0 0 0 0 10.082834
-3.6908021 -4.5437069 2.4038193 0 0 0 0 10.087782
-3.7263055 -4.5721641 2.6038828 0 0 0 0 10.09273
-3.7731979 -4.6070399 2.8056939 0 0 0 0 10.097677
-3.826803 -4.6543188 3.0280504 0 0 0 0 10.102625
-3.4777117 -4.4985604 2.337852 0 0 0 0 10.107569
-3.5278883 -4.5382481 2.5394804 0 0 0 0 10.112516
-3.5745351 -4.568759 2.7314475 0 0 0 0 10.117464
-3.6276047 -4.6066837 2.9441454 0 0 0 0 10.122412
-3.279073 -4.4608316 2.2785931 0 0 0 0 10.127359
-3.3320611 -4.4970899 2.4733405 0 0 0 0 10.132303
-3.379348 -4.5212569 2.6575367 0 0 0 0 10.137251
-3.4376922 -4.5637279 2.8660569 0 0 0 0 10.142199
-3.089427 -4.422718 2.2233374 0 0 0 0 10.147146
-3.141057 -4.4527116 2.4093134 0 0 0 0 10.152094
-3.2031927 -4.4911785 2.5969625 0 0 0 0 10.157042
-3.2664604 -4.5321012 2.7985291 0 0 0 0 10.161985
-2.9110627 -4.3891678 2.1739006 0 0 0 0 10.166933
-2.9677937 -4.4207163 2.3558092 0 0 0 0 10.171881
-3.0318 -4.4568105 2.5365393 0 0 0 0 10.176828
-3.0937114 -4.4915056 2.7303336 0 0 0 0 10.181776
-2.7439198 -4.3591475 2.1293197 0 0 0 0 10.186724
-2.8004084 -4.3864059 2.3033826 0 0 0 0 10.191668
-2.8641148 -4.417213 2.4763038 0 0 0 0 10.196615
-2.9355888 -4.4613996 2.6707346 0 0 0 0 10.201563
-2.5775464 -4.325068 2.0848868 0 0 0 0 10.206511
-2.6390197 -4.3518505 2.2539573 0 0 0 0 10.211458
-2.710175 -4.3902326 2.4265888 0 0 0 0 10.216406
-2.7824626 -4.4310699 2.6131375 0 0 0 0 10.22135
-2.4188464 -4.2840247 2.0392733 0 0 0 0 9.9736767
-2.4913054 -4.3273473 2.2117102 0 0 0 0 9.9786243
-2.5599415 -4.3565049 2.3746738 0 0 0 0 9.983572
-2.6330585 -4.394043 2.5543313 0 0 0 0 9.9885197
-2.2720833 -4.2602329 2.0044434 0 0 0 0 9.9934673
-2.344125 -4.2963095 2.1701467 0 0 0 0 9.9984112
-2.4159839 -4.3291698 2.3299663 0 0 0 0 10.003359
-2.4931448 -4.3672853 2.5045941 0 0 0 0 10.008307
-2.131433 -4.2382274 1.9735409 0 0 0 0 10.013254
-2.191956 -4.2482381 2.1212173 0 0 0 0 10.018202
-2.278079 -4.3025498 2.2872248 0 0 0 0 10.023149
-2.3562896 -4.3414545 2.457819 0 0 0 0 10.028093
-1.9924316 -4.2100735 1.9418634 0 0 0 0 10.033041
-2.0639875 -4.237608 2.0928757 0 0 0 0 10.037989
-2.1407652 -4.2688055 2.2427444 0 0 0 0 10.042936
-2.2232568 -4.3124275 2.4121575 0 0 0 0 10.047884
-1.8597175 -4.1866999 1.9140012 0 0 0 0 10.052832
-1.9330887 -4.210938 2.0601306 0 0 0 0 10.057775
-2.0064528 -4.2349911 2.2012637 0 0 0 0 10.062723
-2.0953364 -4.2851725 2.3684235 0 0 0 0 10.067671
-1.7333492 -4.1691413 1.8909172 0 0 0 0 10.072618
-1.8050708 -4.1820912 2.0274613 0 0 0 0 10.077566
-1.8895265 -4.2247405 2.173893 0 0 0 0 10.082514
-1.9669516 -4.249855 2.3229873 0 0 0 0 10.087458
-1.6085707 -4.1444006 1.8660954 0 0 0 0 10.092405
-1.6871561 -4.1721153 2.0060852 0 0 0 0 10.097353
-1.7689042 -4.2024999 2.1419687 0 0 0 0 10.102301
-1.8482018 -4.2252793 2.2851434 0 0 0 0 10.107248
-1.4869666 -4.1225829 1.8441621 0 0 0 0 10.112196
-1.5710059 -4.1579881 1.9838594 0 0 0 0 10.11714
-1.6489928 -4.1752057 2.1102302 0 0 0 0 10.122087
-1.7325683 -4.2026296 2.2502248 0 0 0 0 10.127035
-1.3718249 -4.1086135 1.8279322 0 0 0 0 10.131983
-1.4519254 -4.1277471 1.95523 0 0 0 0 10.13693
-1.5378886 -4.1616673 2.0849733 0 0 0 0 10.141874
-1.6188766 -4.1788964 2.2163439 0 0 0 0 10.146822
-1.2572764 -4.0875583 1.8109629 0 0 0 0 10.15177
-1.3404226 -4.1073298 1.9332297 0 0 0 0 10.156717
-1.4263796 -4.1411018 2.0589764 0 0 0 0 10.161665
-1.5092404 -4.1559973 2.184427 0 0 0 0 10.166613
-1.1446669 -4.0653448 1.7930324 0 0 0 0 10.171556
-1.2312135 -4.0919633 1.9160417 0 0 0 0 10.176504
-1.3189257 -4.1213694 2.0349438 0 0 0 0 10.181452
-1.4099965 -4.1570702 2.1666174 0 0 0 0 10.186399
-1.0361142 -4.0440016 1.7780654 0 0 0 0 10.191347
-1.1224197 -4.0663705 1.894228 0 0 0 0 10.196295
-1.2111244 -4.095571 2.0091338 0 0 0 0 10.201239
-1.3043599 -4.1340375 2.1377006 0 0 0 0 10.206186
-0.9283278 -4.0185289 1.761248 0 0 0 0 10.211134
-1.0192635 -4.0517149 1.8790057 0 0 0 0 10.216082
-1.1087859 -4.0776796 1.9890273 0 0 0 0 10.221029
-1.201547 -4.1078324 2.1088967 0 0 0 0 10.225977
-0.82535726 -4.0071549 1.7539084 0 0 0 0 10.230921
-0.91787302 -4.0329099 1.8629332 0 0 0 0 10.235868
-1.0072137 -4.0556598 1.9670702 0 0 0 0 10.240816
-1.1036648 -4.0977225 2.0894966 0 0 0 0 10.245764
-0.72291946 -3.9875872 1.7428679 0 0 0 0 10.250711
-0.81496441 -4.0051022 1.8451934 0 0 0 0 10.255655
-0.910281 -4.044673 1.9527035 0 0 0 0 10.260603
-1.0039691 -4.0734377 2.0636179 0 0 0 0 10.265551
-0.62271547 -3.9720356 1.7356778 0 0 0 0 10.270498
-0.71663344 -3.9872191 1.8320831 0 0 0 0 10.275446
-0.81176955 -4.0236125 1.9347082 0 0 0 0 10.280394
-0.90621567 -4.0480714 2.0387759 0 0 0 0 10.285337
-0.5243929 -3.9543297 1.7275636 0 0 0 0 10.290285
-0.6207689 -3.9774168 1.8246746 0 0 0 0 10.295233
-0.71537399 -4.0044994 1.9186386 0 0 0 0 10.30018
-0.8130995 -4.0337014 2.0205257 0 0 0 0 10.305128
-0.4271301 -3.9376307 1.7214113 0 0 0 0 10.310076
-0.52514786 -3.9543595 1.8117503 0 0 0 0 10.31502
-0.62226641 -3.9903069 1.9053841 0 0 0 0 10.319967
-0.71986938 -4.0173297 2.0023489 0 0 0 0 10.324915
-0.33175161 -3.9188516 1.7163333 0 0 0 0 10.329863
-0.43339619 -3.946383 1.806269 0 0 0 0 10.33481
-0.53127408 -3.9780622 1.894056 0 0 0 0 10.339758
-0.62834853 -3.9958117 1.9833583 0 0 0 0 10.344702
-0.23906851 -3.9121439 1.7168099 0 0 0 0 10.349649
-0.34066018 -3.9361649 1.8036155 0 0 0 0 10.354597
-0.43971071 -3.9533007 1.8799376 0 0 0 0 10.359545
-0.5395261 -3.9839201 1.9697738 0 0 0 0 10.364492
-0.14616869 -3.8990622 1.7172484 0 0 0 0 10.369436
-0.25015467 -3.9149497 1.7946107 0 0 0 0 10.374384
-0.35013038 -3.9482322 1.8753433 0 0 0 0 10.379332
-0.45123684 -3.9663262 1.9536295 0 0 0 0 10.384279
-0.054442093 -3.8740523 1.712386 0 0 0 0 10.389227
-0.15982679 -3.8968308 1.7884934 0 0 0 0 10.394175
-0.26073602 -3.9288766 1.8642675 0 0 0 0 10.399118
-0.36318353 -3.9528637 1.9413354 0 0 0 0 10.404066
0.037235118 -3.8674176 1.7168561 0 0 0 0 10.409014
-0.071137473 -3.8898423 1.7879697 0 0 0 0 10.413961
-0.17334104 -3.9094367 1.8541917 0 0 0 0 10.418909
-0.2770718 -3.9383197 1.9300789 0 0 0 0 10.423857
0.12737913 -3.8525336 1.7176232 0 0 0 0 10.428801
0.017652821 -3.8635414 1.7801471 0 0 0 0 10.433748
-0.0864712 -3.8991892 1.8497823 0 0 0 0 10.438696
-0.19190215 -3.9227147 1.9188589 0 0 0 0 10.443644
0.21630974 -3.831728 1.717191 0 0 0 0 10.370802
0.10489194 -3.8547153 1.7812743 0 0 0 0 10.37575
-0.0011097693 -3.8880253 1.8449864 0 0 0 0 10.380697
-0.10824358 -3.9061835 1.9072514 0 0 0 0 10.385645
0.30468521 -3.8127749 1.7191055 0 0 0 0 10.390593
0.19181164 -3.8436513 1.7818975 0 0 0 0 10.395536
0.084167704 -3.8706062 1.8388363 0 0 0 0 10.400484
-0.023598308 -3.8997772 1.9016981 0 0 0 0 10.405432
0.39388159 -3.7969751 1.7239066 0 0 0 0 10.410379
0.27807772 -3.8265011 1.7817415 0 0 0 0 10.415327
0.16926798 -3.8562837 1.8355738 0 0 0 0 10.420275
0.059860572 -3.8790631 1.8906624 0 0 0 0 10.425219
0.48108011 -3.7810545 1.728709 0 0 0 0 10.430166
0.36481836 -3.8185639 1.7862517 0 0 0 0 10.435114
0.25419262 -3.8450212 1.8341997 0 0 0 0 10.440062
0.14325811 -3.8594143 1.8815883 0 0 0 0 10.445009
0.57134229 -3.7816482 1.7419167 0 0 0 0 10.449957
0.45013991 -3.8003826 1.7871315 0 0 0 0 10.454901
0.33858034 -3.8256047 1.8301207 0 0 0 0 10.459848
0.22701468 -3.8510108 1.8781067 0 0 0 0 10.464796
0.66029888 -3.7700386 1.7525666 0 0 0 0 10.469744
0.5362829 -3.7853549 1.7908984 0 0 0 0 10.474691
0.42238632 -3.8163779 1.8316716 0 0 0 0 10.479635
0.30829597 -3.8333044 1.8709586 0 0 0 0 10.484583
0.74683851 -3.7480907 1.7585871 0 0 0 0 10.489531
0.62213469 -3.7754188 1.7974802 0 0 0 0 10.494478
0.50653619 -3.8011222 1.8324422 0 0 0 0 10.499426
0.39051461 -3.8167202 1.8657713 0 0 0 0 10.504374
0.83561879 -3.7395337 1.7711254 0 0 0 0 10.509317
0.70721745 -3.7613916 1.8032093 0 0 0 0 10.514265
0.58991802 -3.7817395 1.8313602 0 0 0 0 10.519213
0.47320798 -3.8093855 1.8662504 0 0 0 0 10.52416
