# .PCD v0.7 - Point Cloud Data file format
VERSION 0.7
FIELDS x y z rgb intensity roll pitch yaw time
SIZE 4 4 4 4 4 4 4 4 8
TYPE F F F U F F F F F
COUNT 1 1 1 1 1 1 1 1 1
WIDTH 434
HEIGHT 1
VIEWPOINT 0 0 0 1 0 0 0
POINTS 434
DATA ascii
-0.00067799148 -0.000762738 6.6037005e-06 0 0 -0.030624541 0.25768629 -0.003214272 1.7810061e+09
-0.0057576359 0.0050753495 0.041305084 0 1 -0.058692109 0.3333464 0.10223145 1.7810061e+09
0.032244824 0.011815041 0.11086285 0 2 -0.039914913 0.34851041 0.21137087 1.7810061e+09
0.053468999 0.032168876 0.29486728 0 3 0.0036783349 0.28621531 0.35879189 1.7810061e+09
0.09822493 0.025143599 0.50784051 0 4 0.043540195 0.27655315 0.46829915 1.7810061e+09
0.13161822 0.0084448764 0.41396368 0 5 0.083637878 0.26944491 0.6093269 1.7810061e+09
0.15215342 0.0085624382 0.63215536 0 6 0.1367261 0.24820545 0.72298306 1.7810061e+09
0.1862765 -0.01705155 0.85616875 0 7 0.14909826 0.26246399 0.87043792 1.7810061e+09
0.27884018 -0.038490832 0.78666914 0 8 0.084642969 0.25959909 0.97534144 1.7810061e+09
0.36105734 -0.070611089 1.2663904 0 9 -0.039902288 0.27848652 0.8898946 1.7810061e+09
0.37344947 -0.075691164 0.52427524 0 10 -0.028862422 0.29169375 0.88749731 1.7810061e+09
0.55014324 0.040780127 1.0085677 0 11 -0.075984128 0.22143963 0.85367459 1.7810061e+09
0.70529974 0.14036444 1.2295532 0 12 -0.13607271 0.19551031 0.7457372 1.7810061e+09
0.73208249 0.15589209 0.50029135 0 13 -0.10776155 0.19819579 0.70644975 1.7810061e+09
0.86071688 0.2736268 0.91778111 0 14 -0.0045935507 0.11330701 0.59514362 1.7810061e+09
0.9193784 0.25672966 0.76179385 0 15 0.018180624 0.093086079 0.48862264 1.7810061e+09
0.99258125 0.23805216 1.0149738 0 16 0.081767373 0.073357277 0.38302714 1.7810061e+09
1.0747994 0.21910878 0.46839181 0 17 0.12127265 0.14042413 0.30810291 1.7810061e+09
1.2145106 0.25067273 0.89752734 0 18 0.24633537 0.21391129 0.43703541 1.7810061e+09
1.3744632 0.27499661 0.92780983 0 19 0.2622394 0.2270851 0.3220444 1.7810061e+09
1.4307156 0.25744918 0.492208 0 20 0.22328924 0.25579679 0.21672904 1.7810061e+09
1.5750341 0.27236387 0.86864263 0 21 0.20776007 0.27126563 0.092838012 1.7810061e+09
1.7493471 0.22985862 0.7507022 0 22 0.18897954 0.26031438 -0.021003159 1.7810061e+09
1.9375749 0.17567128 1.1092261 0 23 0.21441951 0.25586191 -0.13960901 1.7810061e+09
2.4240596 0.13838516 1.0482906 0 24 0.14448562 0.16965166 -0.031002197 1.7810061e+09
2.6493211 0.19051282 1.0162258 0 25 0.092601985 0.097067654 0.065808475 1.7810061e+09
3.0394199 0.24146569 1.006974 0 26 0.039339215 0.14340582 -0.05678812 1.7810061e+09
3.2484419 0.22165079 0.54723489 0 27 0.059558067 0.13506714 -0.098066002 1.7810061e+09
3.536644 0.26238441 0.9836337 0 28 0.033709198 0.11802355 -0.074218661 1.7810061e+09
3.767349 0.2918621 1.0568854 0 29 -0.012092829 0.10568607 0.037516028 1.7810061e+09
4.0402637 0.3693532 0.63672453 0 30 -0.08368326 0.088141233 0.051589631 1.7810061e+09
4.2781262 0.36558613 0.95122349 0 31 -0.062498719 0.12321892 -0.075723082 1.7810061e+09
4.7831163 0.37236768 0.87545592 2307491976 32 0.0022832458 0.16896763 -0.0076772305 1.7810061e+09
5.2920337 0.40946072 0.79264194 2374864012 33 -0.049951706 0.11216059 -0.038534317 1.7810061e+09
5.5570149 0.38480827 0.53909296 2391707278 34 -0.0083347866 0.10052387 -0.15058771 1.7810061e+09
5.9288993 0.40891424 0.89354974 2391707278 35 0.00081411202 0.11240116 -0.067341477 1.7810061e+09
6.4237914 0.42777392 0.74244565 2391707278 36 -0.013296278 0.09849301 -0.068193831 1.7810061e+09
6.6456304 0.40331277 0.99385357 2139062403 37 -0.012807044 0.096941151 -0.17088333 1.7810061e+09
7.1472487 0.34735081 0.9568305 1970632054 38 0.013685139 0.091959864 -0.12625304 1.7810061e+09
7.6091495 0.27128136 0.77801663 2155904895 39 -0.019906195 0.10203233 -0.16964808 1.7810061e+09
8.1112995 0.17024501 0.85949987 2358021259 40 -0.0013281421 0.090323359 -0.18562594 1.7810061e+09
8.6183996 0.120889 0.76315016 2408550287 41 -0.015257748 0.075174011 -0.10726277 1.7810061e+09
9.074461 0.03846268 0.9595347 2442236305 42 -0.015741499 0.04040423 -0.22058192 1.7810061e+09
9.3726997 -0.0044265292 0.98020709 2442236305 43 -0.0079125483 0.060723215 -0.11758152 1.7810061e+09
9.7904882 -0.027243041 0.69702071 2459079314 44 -0.043842226 0.063804775 -0.059424315 1.7810061e+09
10.173568 -0.069346666 0.88507473 2459079314 45 -0.01406518 0.08561603 -0.17579046 1.7810061e+09
10.638203 -0.13576001 0.73754919 2425393296 46 -0.021456631 0.096474558 -0.072651781 1.7810061e+09
11.097396 -0.17920133 0.95558178 2408550287 47 -0.041957531 0.065087467 -0.079023749 1.7810061e+09
11.494385 -0.23780864 0.65487295 2408550287 48 -0.026747616 0.063303143 -0.12773529 1.7810061e+09
11.674466 -0.21616361 0.88953727 2475922323 49 0.00098434393 0.083637394 -0.024018917 1.7810061e+09
11.930879 -0.21600212 0.94735867 2442236305 50 -0.019018628 0.10299207 0.084764905 1.7810061e+09
12.430092 -0.25487 1.0093935 2240185992 51 -0.024600895 0.11689201 -0.0024789893 1.7810061e+09
12.894713 -0.27230552 0.51198065 2139062144 52 0.0089267138 0.11763196 0.052655619 1.7810061e+09
13.409068 -0.29088569 0.56678456 2122219134 53 -0.016183373 0.088203952 0.061593842 1.7810061e+09
13.841963 -0.29168087 0.95404142 0 54 -0.015167387 0.03590313 -0.011965426 1.7810061e+09
13.874771 -0.30012208 0.43040588 0 55 -0.023291023 0.027010828 -0.016494663 1.7810061e+09
14.036641 -0.295425 0.93469065 0 56 -0.017422186 0.070104711 0.082060225 1.7810061e+09
14.537451 -0.30255273 0.79822552 0 57 -0.065409951 0.094170384 0.15893601 1.7810061e+09
14.911802 -0.21017919 0.45197371 0 58 -0.030145148 0.065876164 0.088267475 1.7810061e+09
15.101504 -0.1525099 0.85872394 0 59 -0.022583921 0.060673699 0.19322149 1.7810061e+09
15.425824 -0.11117396 1.0084206 0 60 -0.040352814 0.085948877 0.29697716 1.7810061e+09
15.516303 -0.079576746 0.51651144 0 61 -0.05782339 0.094043925 0.33463949 1.7810061e+09
15.693151 0.01331538 0.99865061 0 62 -0.059875049 0.067607559 0.33818489 1.7810061e+09
16.07946 0.12281811 0.46635795 0 63 -0.047220595 0.050845146 0.30515578 1.7810061e+09
16.214703 0.22683036 0.8318643 0 64 -0.017466055 0.036675345 0.41808525 1.7810061e+09
16.427225 0.28296629 0.78550649 0 65 -0.043209873 0.07164342 0.52189696 1.7810061e+09
16.9146 0.49583358 0.84764498 0 66 -0.031126536 0.10237645 0.47554418 1.7810061e+09
17.403387 0.72961032 0.82195246 0 67 -0.053293951 0.10971594 0.57486808 1.7810061e+09
17.838505 0.97319925 0.69320142 0 68 -0.057712846 0.1349501 0.57732934 1.7810061e+09
18.209181 1.3039718 0.87277663 0 69 -0.014188169 0.10476913 0.62930459 1.7810061e+09
18.436142 1.447179 0.80635154 0 70 -0.024917478 0.16439445 0.73871201 1.7810061e+09
18.850834 1.7347447 0.75364792 0 71 -0.061052911 0.14469278 0.64700019 1.7810061e+09
19.211338 2.0543528 0.5926016 0 72 -0.0566267 0.12293085 0.73326713 1.7810061e+09
19.303576 2.186811 0.71838313 0 73 -0.031552758 0.14718026 0.83530021 1.7810061e+09
19.675085 2.5894365 0.80220813 0 74 -0.03438938 0.11216279 0.84714764 1.7810061e+09
19.907408 2.8074837 0.76086909 0 75 -0.034084104 0.084425956 0.97057724 1.7810061e+09
19.960308 2.9768822 0.5873422 0 76 -0.026732387 0.090354711 1.0794573 1.7810061e+09
20.001116 3.1843457 0.77545667 0 77 -0.032100119 0.11269434 1.2134622 1.7810061e+09
20.091225 3.5554461 0.55401599 0 78 -0.04693678 0.1791117 1.3155236 1.7810061e+09
20.170919 3.8529634 0.80392051 0 79 -0.027159125 0.12634906 1.4285804 1.7810061e+09
20.230764 4.1018877 0.59112567 0 80 -0.032627508 0.14948419 1.5339478 1.7810061e+09
20.175142 4.3836498 0.37264347 0 81 -0.031147167 0.15286516 1.655849 1.7810061e+09
20.209137 4.7243333 0.82529163 0 82 -0.040859293 0.13036263 1.5887103 1.7810061e+09
20.240061 5.2172933 0.64360231 0 83 -0.041241668 0.10009195 1.6301224 1.7810061e+09
20.225941 5.6877842 0.86606723 0 84 -0.059726335 0.16091837 1.6837497 1.7810061e+09
20.260876 5.9702697 0.84679711 0 85 -0.064139448 0.16088678 1.579412 1.7810061e+09
20.230541 6.4727845 0.7803123 0 86 -0.044560309 0.14523785 1.6728808 1.7810061e+09
20.14238 6.9444909 0.62811291 0 87 -0.048890788 0.1550795 1.7096682 1.7810061e+09
20.041651 7.4531884 0.6043793 0 88 -0.027842224 0.15297639 1.774436 1.7810061e+09
19.931717 7.6875749 0.44471803 0 89 -0.038396075 0.16169979 1.8929237 1.7810061e+09
19.761131 8.104495 0.73880601 0 90 -0.044929322 0.14635833 1.96158 1.7810061e+09
19.650475 8.4114504 0.54683512 0 91 -0.02436392 0.1362395 2.0658069 1.7810061e+09
19.637844 8.6595125 0.44539079 0 92 -0.063890465 0.16479218 2.1747561 1.7810061e+09
19.502518 9.1027699 0.67072749 0 93 -0.080223389 0.21364863 2.0939541 1.7810061e+09
19.32476 9.588356 0.59824139 0 94 0.0081750555 0.1662693 2.0900452 1.7810061e+09
19.295858 9.8117666 0.75687206 0 95 0.03101825 0.1359807 2.2096677 1.7810061e+09
19.072571 10.152804 0.68039316 0 96 -0.032173052 0.18432643 2.0939822 1.7810061e+09
18.65279 10.433192 0.62146389 0 97 -0.076459371 0.2416597 2.1841526 1.7810061e+09
18.468775 10.569811 0.5372439 0 98 -0.044204142 0.21938868 2.2955027 1.7810061e+09
18.282066 10.648013 0.69041878 0 99 -0.0027431261 0.2212505 2.4429903 1.7810061e+09
18.011066 10.975248 0.4166888 0 100 -0.024611741 0.18346746 2.491775 1.7810061e+09
17.82943 11.162333 0.35083908 0 101 -0.042395715 0.15256079 2.3894763 1.7810061e+09
17.561798 11.487966 0.67839563 0 102 -0.052676104 0.15190144 2.4567149 1.7810061e+09
17.374146 11.636534 0.63519394 0 103 -0.079251431 0.17891082 2.5611796 1.7810061e+09
16.942942 11.92848 0.58066374 0 104 -0.070699513 0.2039153 2.5520811 1.7810061e+09
16.777987 12.033368 0.57952702 0 105 -0.049956422 0.1847723 2.6671181 1.7810061e+09
16.658077 12.116091 0.54551512 0 106 -0.063503809 0.18142824 2.787396 1.7810061e+09
16.558594 12.191386 0.50818557 0 107 -0.071859024 0.18912658 2.8900683 1.7810061e+09
16.106882 12.407697 0.59048295 0 108 -0.071395777 0.14787687 2.9561214 1.7810061e+09
15.592189 12.465493 0.66159904 0 109 0.01099145 0.12322987 3.0166178 1.7810061e+09
15.43078 12.509618 0.64727819 0 110 0.0042539942 0.11225745 3.1240518 1.7810061e+09
15.2699 12.529957 0.56056881 0 111 -0.025195511 0.10433474 -3.041292 1.7810061e+09
14.719789 12.573106 0.53317952 0 112 -0.0067839609 0.093922742 3.1303608 1.7810061e+09
14.236691 12.624394 0.70451635 0 113 0.0099882204 0.11503378 -3.1280653 1.7810061e+09
13.717406 12.623643 0.77467585 0 114 -0.022367034 0.15144372 3.115119 1.7810061e+09
13.215506 12.692462 0.78702891 0 115 -0.017069131 0.18895674 3.0524917 1.7810061e+09
12.819998 12.662711 0.4725464 0 116 -0.022585781 0.22165695 -3.1305864 1.7810061e+09
12.43584 12.662966 0.49950066 0 117 -0.00034559515 0.26375648 3.0361159 1.7810061e+09
11.961266 12.779366 0.68060356 0 118 0.00013757704 0.21410587 3.0679312 1.7810061e+09
11.445437 12.775167 0.65522259 0 119 -0.02738777 0.24727812 -3.1364625 1.7810061e+09
11.115901 12.808455 0.65490776 0 120 -0.0097806901 0.2110537 3.0448811 1.7810061e+09
10.667042 12.821897 0.40954834 0 121 -0.033697996 0.21842328 -3.1204 1.7810061e+09
10.207506 12.788391 0.70466202 0 122 -0.023983151 0.20912638 -3.0510643 1.7810061e+09
9.8292379 12.798719 0.54795974 0 123 0.019251652 0.19636571 3.1258242 1.7810061e+09
9.4718275 12.811076 0.40927017 0 124 -0.0018374048 0.20210877 -3.0426354 1.7810061e+09
9.0595684 12.763358 0.71800768 0 125 -0.022939118 0.21989195 -3.0210345 1.7810061e+09
8.7309732 12.763439 0.55304277 0 126 0.01026884 0.20591298 -3.1265359 1.7810061e+09
8.2202053 12.76022 0.61293584 0 127 0.0094617922 0.18366233 -3.0803707 1.7810061e+09
7.7170372 12.741701 0.40899435 844 128 -0.0093020517 0.1594924 -3.0907433 1.7810061e+09
7.2979741 12.71014 0.59299374 850 129 0.0089682471 0.17142412 3.0907784 1.7810061e+09
6.8263941 12.758651 0.76518989 856 130 -0.014368208 0.16879407 -3.1264198 1.7810061e+09
6.5244551 12.818603 0.48718145 862 131 -0.039228816 0.18073551 3.0416784 1.7810061e+09
6.2901835 12.836788 0.73748517 868 132 -0.0020804796 0.18039788 2.9345212 1.7810061e+09
5.8181696 12.925879 0.57821339 874 133 -0.02761963 0.21813218 2.9414179 1.7810061e+09
5.2880836 12.993927 0.5366109 880 134 -0.031697843 0.19226387 2.9098201 1.7810061e+09
5.0666738 13.047354 0.54541957 886 135 0.0025688293 0.19070736 2.7997842 1.7810061e+09
4.5918341 13.182861 0.72016883 892 136 -0.026048884 0.16937515 2.8930159 1.7810061e+09
4.2127547 13.206946 0.37920859 898 137 -0.021844363 0.1460942 2.8970289 1.7810061e+09
3.9242601 13.315748 0.59103161 904 138 -0.014417891 0.16546839 2.7893279 1.7810061e+09
3.5372927 13.398534 0.61644477 912 139 -0.005550853 0.13734323 2.901041 1.7810061e+09
3.3027689 13.387992 0.4725506 918 140 -0.020494534 0.1694584 3.0113082 1.7810061e+09
2.8646688 13.439596 0.75479203 924 141 -0.029134177 0.14939433 2.96364 1.7810061e+09
2.3695378 13.48931 0.68712658 930 142 -0.012525419 0.14437564 3.0599573 1.7810061e+09
2.1356804 13.497972 0.56778282 936 143 -0.056338698 0.15674248 -3.1096656 1.7810061e+09
1.6236397 13.39541 0.74037534 942 144 -0.028543148 0.1107742 -3.1206133 1.7810061e+09
1.36404 13.366938 0.9178412 948 145 -0.053854141 0.094774395 -3.0147078 1.7810061e+09
1.312158 13.352612 0.31000423 954 146 -0.060014158 0.10049739 -2.9797106 1.7810061e+09
1.1741105 13.266633 0.76770687 960 147 -0.066700131 0.12241784 -2.8513024 1.7810061e+09
1.0290127 13.214259 0.66673309 966 148 -0.080872923 0.12353674 -2.7466855 1.7810061e+09
0.78648126 12.980235 0.7135976 973 149 0.04961291 0.096231371 -2.6807287 1.7810061e+09
0.5761885 12.819691 0.73440289 980 150 -0.044844065 0.096635014 -2.5443506 1.7810061e+09
0.50831056 12.804016 0.92749733 986 151 -0.084512621 0.11676423 -2.4177611 1.7810061e+09
0.48744208 12.785689 0.32495195 992 152 -0.089878708 0.11150852 -2.3689787 1.7810061e+09
0.45489696 12.705748 0.50942636 998 153 -0.085995831 0.13940349 -2.2571051 1.7810061e+09
0.40932289 12.645086 0.68156934 1004 154 -0.10992423 0.13757554 -2.1505861 1.7810061e+09
0.42813689 12.587796 0.51351851 1012 155 -0.12113491 0.1673564 -2.038029 1.7810061e+09
0.4388321 12.503119 0.71813399 1018 156 -0.12664381 0.15150134 -1.8946915 1.7810061e+09
0.45804429 12.457406 0.85875148 1024 157 -0.14745775 0.16518274 -1.7753984 1.7810061e+09
0.47936845 12.418281 0.522466 1030 158 -0.11344401 0.19965711 -1.6425338 1.7810061e+09
0.46389839 12.336063 0.74957234 1036 159 -0.086325794 0.17556563 -1.5277698 1.7810061e+09
0.47353181 12.307612 0.67191184 1042 160 -0.077178158 0.20419088 -1.4089065 1.7810061e+09
0.48540527 12.267925 0.83984613 1048 161 -0.067876488 0.18125978 -1.286786 1.7810061e+09
0.47626972 12.211523 0.37970707 1054 162 -0.092763811 0.20450702 -1.1578879 1.7810061e+09
0.42016363 12.095008 0.74967343 1060 163 -0.027653368 0.17649762 -1.0470566 1.7810061e+09
0.5676524 11.784984 0.42069992 1066 164 -0.13639894 0.16034928 -1.0887166 1.7810061e+09
0.69974846 11.718264 0.62679911 1072 165 -0.15496555 0.12308636 -0.97757024 1.7810061e+09
0.7562632 11.672404 0.90935057 1078 166 -0.15393773 0.13971081 -0.86204422 1.7810061e+09
0.85260695 11.636127 0.49987134 1084 167 -0.093268074 0.17278686 -0.74177927 1.7810061e+09
0.97842008 11.510713 0.57903713 1090 168 0.0052703926 0.15776888 -0.63716376 1.7810061e+09
1.0287124 11.179571 0.65154684 1096 169 0.01330963 0.20646253 -0.74201697 1.7810061e+09
0.98849553 11.029612 0.65486532 1102 170 -0.013193521 0.18910806 -0.85169947 1.7810061e+09
1.0363915 10.887934 0.75250858 1108 171 -0.033414036 0.18799773 -0.95712441 1.7810061e+09
1.0570463 10.752036 0.62168282 1114 172 -0.066532761 0.16896644 -1.0823127 1.7810061e+09
1.0848513 10.625899 0.62281036 1120 173 -0.068918146 0.15725842 -1.1922183 1.7810061e+09
1.1393501 10.40305 0.79936087 1126 174 -0.064676672 0.13265434 -1.2931485 1.7810061e+09
1.2387958 10.040517 0.74605632 1132 175 -0.064059407 0.15401712 -1.1849446 1.7810061e+09
1.4008597 9.5638351 0.72419304 1138 176 -0.063413769 0.12476031 -1.2583718 1.7810061e+09
1.4461292 9.0713415 0.86222082 1144 177 -0.076128878 0.090978533 -1.2146592 1.7810061e+09
1.609547 8.5741291 0.62040472 1150 178 -0.12091413 0.12356749 -1.1782416 1.7810061e+09
1.6659138 8.1036053 0.80111396 1156 179 -0.086315304 0.090336472 -1.1970019 1.7810061e+09
1.7674203 7.8170147 0.85053617 1162 180 -0.098386198 0.11202065 -1.0899173 1.7810061e+09
1.8960053 7.3173418 0.90127963 1168 181 -0.10385004 0.12282196 -1.1768682 1.7810061e+09
2.0912547 6.859159 0.72000748 1174 182 -0.09534803 0.12634411 -1.0978552 1.7810061e+09
2.2190361 6.496232 0.81543314 1180 183 -0.12598529 0.14281216 -0.99620569 1.7810061e+09
2.459343 6.0507059 0.68313581 1186 184 -0.081131369 0.12525144 -1.0210992 1.7810061e+09
2.5667505 5.8804421 0.68629408 1192 185 -0.079453386 0.16056268 -0.90984362 1.7810061e+09
2.7334349 5.706327 0.82625574 1198 186 -0.066458613 0.2385098 -0.81094784 1.7810061e+09
3.0438583 5.304934 0.80025911 1204 187 -0.054002915 0.31850687 -0.82291949 1.7810061e+09
3.3754501 4.9095845 0.74047256 1210 188 -0.044667631 0.35023847 -0.72786111 1.7810061e+09
3.7290211 4.6592703 0.60874981 1216 189 -0.012369069 0.28931561 -0.61933863 1.7810061e+09
4.0081654 4.3341451 0.50145251 1222 190 -0.017289551 0.21867099 -0.72907752 1.7810061e+09
4.2969685 4.108891 0.80353665 1228 191 -0.014489563 0.1882793 -0.61336058 1.7810061e+09
4.7425375 3.8031645 0.70830286 1234 192 -0.035146862 0.21201244 -0.5992223 1.7810061e+09
5.0222611 3.571111 0.49633393 1240 193 -0.025142346 0.19793503 -0.70248932 1.7810061e+09
5.3444943 3.3261189 0.8488397 1246 194 -0.032986555 0.2134265 -0.59045494 1.7810061e+09
5.7766199 3.1022899 0.61517793 1252 195 -0.063627869 0.23857728 -0.53159326 1.7810061e+09
6.1777687 2.7929857 0.71981329 1258 196 -0.042206679 0.21395007 -0.5911628 1.7810061e+09
6.561687 2.5540612 0.51584148 1264 197 -0.045994196 0.28034249 -0.48770633 1.7810061e+09
6.9736423 2.346606 0.71976477 1270 198 -0.051882893 0.2452549 -0.54964465 1.7810061e+09
7.4013405 2.1020727 0.7533018 1276 199 -0.042398367 0.2248427 -0.42203823 1.7810061e+09
7.698957 2.0333128 0.51340145 1282 200 -0.060004383 0.24753205 -0.31118742 1.7810061e+09
8.1527243 1.9112283 0.72325689 1288 201 -0.063253313 0.2544674 -0.28163233 1.7810061e+09
8.5847931 1.808743 0.65598404 1294 202 -0.06725017 0.22138324 -0.15374437 1.7810061e+09
8.859972 1.8319604 0.88363397 1300 203 -0.060991913 0.2595202 -0.04240742 1.7810061e+09
9.3587236 1.7977525 0.79115611 1306 204 -0.074932009 0.22818032 -0.050241143 1.7810061e+09
9.8877268 1.7969493 0.72425735 1312 205 -0.04504982 0.19744363 -0.047868166 1.7810061e+09
10.270421 1.7926219 0.5413844 1318 206 -0.040961646 0.20319018 0.056787539 1.7810061e+09
10.671252 1.7946659 0.89343429 1324 207 -0.060389668 0.21758601 0.0014182951 1.7810061e+09
11.170075 1.7591717 0.63838679 1330 208 -0.044730812 0.19105235 -0.0051981527 1.7810061e+09
11.685429 1.7798407 0.82549214 1336 209 -0.055481017 0.23500341 0.063082188 1.7810061e+09
12.211807 1.7714014 0.5648042 1342 210 -0.050225649 0.20593753 -0.047088061 1.7810061e+09
12.62643 1.8055623 0.88145626 1348 211 -0.061317753 0.23175284 0.052262843 1.7810061e+09
13.112721 1.9163328 0.78156561 1354 212 -0.070399091 0.21450172 0.11960803 1.7810061e+09
13.616176 1.9809846 0.68662751 1360 213 -0.054334115 0.19598739 0.1391723 1.7810061e+09
13.758588 2.0224509 0.74871045 1366 214 -0.076983795 0.21840325 0.242357 1.7810061e+09
13.967484 2.1067791 0.95987177 1372 215 -0.090252496 0.24030221 0.3592926 1.7810061e+09
14.422215 2.2503994 0.80643815 1378 216 -0.09338738 0.23756926 0.38361475 1.7810061e+09
14.903072 2.4386866 0.70873809 1384 217 -0.07207413 0.20067103 0.47657707 1.7810061e+09
15.137888 2.5944636 0.85430998 1390 218 -0.068961523 0.22992557 0.59813172 1.7810061e+09
15.557151 2.9189219 0.78475189 1396 219 -0.08188244 0.22696932 0.59912992 1.7810061e+09
15.867755 3.1749392 0.83998114 1402 220 -0.059396699 0.22582485 0.71827322 1.7810061e+09
16.061737 3.3890357 0.82729691 1408 221 -0.067051873 0.25574073 0.83415312 1.7810061e+09
16.413771 3.7594273 0.70268774 1414 222 -0.059018835 0.24654648 0.80766463 1.7810061e+09
16.70937 4.0979571 0.66764474 1420 223 -0.070082545 0.22635856 0.92143881 1.7810061e+09
16.816191 4.3124118 0.67450351 1426 224 -0.057232361 0.25150877 1.0276808 1.7810061e+09
17.114912 4.7604098 0.69974166 1432 225 -0.048145767 0.24000026 1.0256948 1.7810061e+09
17.168898 4.9873309 0.56926429 1438 226 -0.0620621 0.23646685 1.146374 1.7810061e+09
17.188219 5.1467485 0.62250727 1444 227 -0.064185068 0.27107173 1.2578115 1.7810061e+09
17.240082 5.3352733 0.83051986 1450 228 -0.081350312 0.27072719 1.3821849 1.7810061e+09
17.220467 5.8628035 0.79414374 1456 229 -0.07541272 0.23184161 1.4995214 1.7810061e+09
17.164516 6.0405979 0.63482034 1462 230 -0.067050673 0.22104798 1.6329743 1.7810061e+09
17.096615 6.1635861 0.65286195 12 231 -0.076879315 0.25948614 1.7586552 1.7810061e+09
17.077061 6.2533832 0.74507856 12 232 -0.083506599 0.26406586 1.8657053 1.7810061e+09
17.024017 6.3406186 0.80883664 12 233 -0.11223892 0.2745848 1.9704511 1.7810061e+09
16.905888 6.4061942 0.62180382 12 234 -0.12813284 0.26755047 2.091994 1.7810061e+09
16.676191 6.440886 0.62734979 11 235 -0.13703176 0.25870004 2.19888 1.7810061e+09
16.549767 6.4789181 0.76238483 13 236 -0.13469344 0.22457476 2.3206801 1.7810061e+09
16.457363 6.4633808 0.67269534 12 237 -0.11727992 0.21296863 2.4714978 1.7810061e+09
16.399656 6.4433098 0.77168322 12 238 -0.1218202 0.21652031 2.5897622 1.7810061e+09
16.352282 6.4122715 0.80385154 12 239 -0.11807255 0.23301266 2.7096798 1.7810061e+09
16.280136 6.3577361 0.65300912 12 240 -0.10657942 0.24699156 2.8523421 1.7810061e+09
16.213797 6.3053823 0.67396402 12 241 -0.088978924 0.25135881 2.9827468 1.7810061e+09
16.13719 6.2496533 0.65426672 12 242 -0.083668232 0.28425267 3.1197231 1.7810061e+09
16.089386 6.1854639 0.64112741 12 243 -0.066156298 0.29477897 -3.0180943 1.7810061e+09
16.044615 6.1203747 0.47318971 11 244 -0.068674006 0.30363384 -2.8869891 1.7810061e+09
16.000143 6.0425372 0.49469531 12 245 -0.071845919 0.30167761 -2.7794423 1.7810061e+09
15.954278 5.9265819 0.57723409 8 246 -0.068373114 0.31243983 -2.6636801 1.7810062e+09
15.937568 5.7578673 0.57194513 12 247 -0.069707066 0.2863535 -2.5353982 1.7810062e+09
15.672178 5.5642724 0.61605698 12 248 -0.047202021 0.21904485 -2.4021821 1.7810062e+09
15.556582 5.4713521 0.76853979 12 249 -0.051535517 0.2152299 -2.297581 1.7810062e+09
15.542972 5.3236895 0.67544454 11 250 -0.031276379 0.20047036 -2.1831527 1.7810062e+09
15.455237 5.1508265 0.55924916 10 251 -0.033234507 0.21226278 -2.0797534 1.7810062e+09
15.269747 4.7879157 0.88133025 11 252 -0.037729178 0.22945943 -2.0873363 1.7810062e+09
15.014351 4.4734783 0.53739959 8 253 0.0047718603 0.19667594 -2.1654367 1.7810062e+09
14.731658 4.1184616 0.77396864 8 254 -0.026218088 0.17927733 -2.1335475 1.7810062e+09
14.630803 3.9864209 0.77907091 13 255 -0.0081969816 0.20185652 -2.2372882 1.7810062e+09
14.486781 3.9153481 0.88150233 0 256 0.0034667572 0.21620217 -2.356252 1.7810062e+09
14.382743 3.8652406 0.71399736 0 257 0.0065752584 0.21418014 -2.4650981 1.7810062e+09
14.258169 3.8317471 0.81558353 0 258 0.011364849 0.21737805 -2.5906849 1.7810062e+09
13.980637 3.7702322 0.79162216 0 259 0.016044052 0.21252933 -2.7205701 1.7810062e+09
13.611492 3.7410448 0.77914202 0 260 -0.017809305 0.17938273 -2.8235714 1.7810062e+09
13.463498 3.6944764 0.83339763 0 261 -0.010754735 0.17308369 -2.9344473 1.7810062e+09
13.334361 3.6917503 0.9468509 0 262 -0.01082483 0.21205369 -3.0557365 1.7810062e+09
13.116105 3.6824946 0.84870338 0 263 0.0006511946 0.2068519 3.0903423 1.7810062e+09
12.648907 3.7785025 0.69165814 0 264 0.0007639674 0.18679793 3.0490677 1.7810062e+09
12.139661 3.8281453 0.86688507 0 265 -0.0090566799 0.18542418 2.9703825 1.7810062e+09
11.828862 3.9026895 0.81981677 0 266 0.0093550803 0.18111004 2.8556671 1.7810062e+09
11.438067 3.99105 0.58467609 0 267 -0.021182274 0.17464888 2.9690971 1.7810062e+09
11.020447 4.0782905 0.8757202 0 268 -0.045701779 0.16853933 3.0272522 1.7810062e+09
10.51562 4.1339808 0.89724225 0 269 -0.035572741 0.15260333 2.9991767 1.7810062e+09
10.258571 4.1410155 0.72947264 0 270 -0.034128774 0.18509772 3.1176157 1.7810062e+09
9.7641878 4.123796 0.38646504 0 271 -0.052689943 0.18230429 -3.0808742 1.7810062e+09
9.406291 4.1560998 0.78714693 0 272 0.0098925643 0.18601507 3.1180508 1.7810062e+09
8.8817396 4.1685905 0.77738518 0 273 0.0040983274 0.18034306 -3.0655956 1.7810062e+09
8.5644712 4.1896753 0.38464805 0 274 -0.017751845 0.21032944 -3.0949795 1.7810062e+09
8.2844801 4.1764245 0.61515963 0 275 0.012254952 0.23124242 3.0692158 1.7810062e+09
7.7831473 4.274785 0.76450169 0 276 0.011597422 0.2459722 3.0595584 1.7810062e+09
7.2680936 4.310678 0.68948364 0 277 -0.0021649583 0.22957492 3.0098774 1.7810062e+09
7.0481544 4.4230847 0.75395 0 278 0.014668422 0.24380608 2.8955653 1.7810062e+09
6.5543509 4.5539303 0.77413219 0 279 0.032035753 0.20296459 2.8305259 1.7810062e+09
6.2287865 4.8478479 0.9176541 0 280 0.014061651 0.19014759 2.7215891 1.7810062e+09
6.0332928 4.9728146 0.77387762 0 281 0.0025465454 0.22003952 2.5947492 1.7810062e+09
5.8599267 5.026516 0.79077101 0 282 0.012596097 0.24152471 2.4774897 1.7810062e+09
5.4590783 5.402956 0.83207548 0 283 -0.00033484976 0.19586277 2.5253916 1.7810062e+09
5.2991676 5.6376615 0.92903286 0 284 -0.02352133 0.18090054 2.4207945 1.7810062e+09
5.2662811 5.7814674 0.66660798 0 285 -0.028994247 0.15324748 2.3016191 1.7810062e+09
5.0200653 6.034905 0.74878645 0 286 -0.01220395 0.18669441 2.1626694 1.7810062e+09
4.7463856 6.4828062 0.82392937 0 287 -0.008508807 0.20502049 2.1788216 1.7810062e+09
4.6659617 6.834497 0.58428347 0 288 -0.0065130955 0.16393284 2.0664241 1.7810062e+09
4.4989753 7.055387 0.7615217 0 289 0.0082844086 0.17681903 1.95024 1.7810062e+09
4.481637 7.2410045 0.88799429 0 290 0.034486614 0.16873623 1.8411744 1.7810062e+09
4.5452847 7.7654223 0.88188642 0 291 0.031957258 0.19220138 1.7201614 1.7810062e+09
4.6282363 7.9008174 0.84565496 0 292 0.04516216 0.18588054 1.6096359 1.7810062e+09
4.6450958 8.0143776 0.58690119 0 293 0.016493777 0.16865377 1.5010335 1.7810062e+09
4.6942616 8.1115131 0.66798908 0 294 0.02959604 0.21684474 1.3564157 1.7810062e+09
4.7329078 8.2150412 0.63692743 0 295 0.039445736 0.20461507 1.2112997 1.7810062e+09
4.7930255 8.2692738 0.6985665 0 296 0.042725585 0.23401502 1.0906872 1.7810062e+09
5.030879 8.465744 0.61626154 0 297 0.015641794 0.27987713 0.95648772 1.7810062e+09
5.1958447 8.5209417 0.6929065 0 298 -0.0029896612 0.25745392 0.85160029 1.7810062e+09
5.3504257 8.5984831 0.82581842 0 299 -0.019570319 0.24383591 0.74646801 1.7810062e+09
5.5183873 8.680048 0.47010976 0 300 -0.022099258 0.22166187 0.61581659 1.7810062e+09
5.6838188 8.7172794 0.66150796 0 301 -0.046122726 0.23750426 0.48558512 1.7810062e+09
5.8654432 8.7562733 0.6888628 0 302 -0.039942145 0.2353729 0.35256013 1.7810062e+09
5.9755073 8.7575254 0.79375577 0 303 -0.049082756 0.23366433 0.24633437 1.7810062e+09
6.3273988 8.8010321 0.6033687 0 304 -0.056028113 0.24332219 0.14239477 1.7810062e+09
6.8413072 8.9561243 0.59457308 0 305 -0.021326751 0.23438391 0.14061329 1.7810062e+09
7.1429758 8.9734869 0.71008444 0 306 -0.01180702 0.18169175 0.023074904 1.7810062e+09
7.6418023 8.9746284 0.86503685 0 307 -0.033695087 0.18549134 0.047330108 1.7810062e+09
8.076458 9.0285978 0.43004477 0 308 -0.042818386 0.17348717 0.099850848 1.7810062e+09
8.4248476 9.024806 0.61429751 0 309 -0.020575674 0.18104544 -0.01215783 1.7810062e+09
8.9390221 9.0108376 0.77655208 0 310 -0.019708069 0.14905253 -0.011547955 1.7810062e+09
9.4013491 9.0463591 0.4384194 0 311 -0.047372203 0.1457908 0.072567686 1.7810062e+09
9.7393322 9.0296965 0.59120739 0 312 -0.044505987 0.15886132 -0.046241198 1.7810062e+09
10.269627 9.0247078 0.67600596 0 313 -0.015367896 0.17684498 -0.042779356 1.7810062e+09
10.582926 9.0633593 0.74497074 0 314 -0.033486124 0.14903927 0.07136146 1.7810062e+09
11.076078 9.0501175 0.59147674 0 315 -0.041997824 0.17572179 -0.016693028 1.7810062e+09
11.610249 9.084116 0.66934806 0 316 -0.023657709 0.18947116 -0.018137129 1.7810062e+09
12.087576 9.0103207 0.46496841 0 317 -0.052537005 0.18686792 0.023084123 1.7810062e+09
12.476157 8.9977646 0.65029597 0 318 -0.031561289 0.22948495 -0.092097908 1.7810062e+09
13.016442 8.9891167 0.7014941 0 319 -0.010913999 0.19832698 -0.041400585 1.7810062e+09
13.490235 8.8585978 0.579063 0 320 -0.07345739 0.186407 -0.044641171 1.7810062e+09
13.961486 8.935358 0.74016517 0 321 -0.0092798807 0.11731736 -0.085828692 1.7810062e+09
14.333714 9.0169058 0.59506363 0 322 -0.020311926 0.12801142 0.034212347 1.7810062e+09
14.85076 8.9079638 0.68351787 0 323 -0.076497927 0.1612536 0.041222677 1.7810062e+09
15.390094 8.9789705 0.54589456 0 324 -0.036103934 0.11196078 0.016035454 1.7810062e+09
15.759745 8.9904261 0.73289531 0 325 -0.0541627 0.1353706 0.13602096 1.7810062e+09
16.277597 9.0720139 0.5181666 0 326 -0.037899822 0.13564472 0.033907987 1.7810062e+09
16.777544 9.1226072 0.69160026 0 327 -0.053963531 0.13793449 0.12984669 1.7810062e+09
16.994261 9.244936 0.78770638 0 328 -0.063790195 0.14051019 0.23403215 1.7810062e+09
17.428665 9.3937407 0.5532853 0 329 -0.057129115 0.12854229 0.20620163 1.7810062e+09
17.674953 9.5186615 0.50933206 0 330 -0.077195518 0.10501667 0.33727968 1.7810062e+09
17.779369 9.6420546 0.6465314 0 331 -0.066725865 0.12524113 0.4429113 1.7810062e+09
17.91255 9.7712002 0.65347058 0 332 -0.092317298 0.1461373 0.58450973 1.7810062e+09
18.009745 9.8908644 0.82711029 0 333 -0.13609475 0.13627715 0.69033068 1.7810062e+09
18.092405 10.189195 0.71288222 0 334 -0.13241775 0.10927621 0.82225418 1.7810062e+09
18.072933 10.30788 0.84299666 0 335 -0.11281747 0.10755331 0.93014276 1.7810062e+09
18.034468 10.4197 0.94610626 0 336 -0.11074332 0.078052327 1.071437 1.7810062e+09
18.002029 10.514146 0.64873123 0 337 -0.095259115 0.066915654 1.1826628 1.7810062e+09
17.952581 10.600016 0.71341425 0 338 -0.10129203 0.10123988 1.3192431 1.7810062e+09
17.88855 10.647687 0.74872494 0 339 -0.10490574 0.10195771 1.4650893 1.7810062e+09
17.814344 10.697001 0.53495574 0 340 -0.10129082 0.1571757 1.6099801 1.7810062e+09
17.741667 10.722862 0.56455952 0 341 -0.094567813 0.1797023 1.7831326 1.7810062e+09
17.658997 10.755235 0.58700997 0 342 -0.10102957 0.19350275 1.9370859 1.7810062e+09
17.55353 10.770283 0.65670687 0 343 -0.09705139 0.19369699 2.0484073 1.7810062e+09
17.390276 10.775414 0.55994982 0 344 -0.093408719 0.22142562 2.1568017 1.7810062e+09
17.207758 10.765614 0.69759917 0 345 -0.074603535 0.222065 2.2944393 1.7810062e+09
17.085007 10.870953 0.44666964 0 346 -0.062345419 0.19327167 2.4303238 1.7810062e+09
16.957552 10.971801 0.55216289 0 347 -0.041233201 0.16964428 2.5694597 1.7810062e+09
16.862846 10.969066 0.47178456 0 348 -0.032792412 0.17154394 2.685216 1.7810062e+09
16.762192 10.926919 0.6262387 0 349 -0.017776227 0.17964609 2.7934892 1.7810062e+09
16.614767 10.947486 0.34294534 0 350 -0.025894271 0.19058558 2.9020324 1.7810062e+09
16.498049 10.936735 0.51710653 0 351 -0.016318694 0.18835019 3.0128992 1.7810062e+09
16.226709 10.885542 0.67089641 0 352 -0.031361911 0.18731955 3.126106 1.7810062e+09
15.713235 10.935756 0.61722273 0 353 -0.0022917213 0.13186133 3.0505688 1.7810062e+09
15.260967 10.970244 0.54105467 0 354 -0.01517454 0.13152924 -3.1293612 1.7810062e+09
14.739738 11.023734 0.45801517 0 355 -0.035036601 0.17628224 3.0624683 1.7810062e+09
14.256008 11.112442 0.66417789 0 356 -0.013951666 0.1540755 3.0205166 1.7810062e+09
13.81937 11.119777 0.62173533 0 357 -0.027456911 0.13526884 -3.1397526 1.7810062e+09
13.383119 11.141449 0.48152107 0 358 -0.015798416 0.13086069 3.0336735 1.7810062e+09
12.918447 11.181738 0.73568022 0 359 -0.018172447 0.11813266 3.0300386 1.7810062e+09
12.641582 11.192636 0.59400833 0 360 -0.027953299 0.13415648 3.1317809 1.7810062e+09
12.137716 11.160419 0.49917531 0 361 -0.01969816 0.14386168 3.0931516 1.7810062e+09
11.630357 11.179015 0.65377158 0 362 0.00079587608 0.12384599 3.0784125 1.7810062e+09
11.313434 11.208519 0.59446228 0 363 -0.013594063 0.14374533 -3.0976903 1.7810062e+09
10.88378 11.241159 0.52778226 0 364 -0.0016738053 0.14652362 3.0769994 1.7810062e+09
10.404418 11.193645 0.70196617 0 365 0.020447284 0.14369696 3.1045384 1.7810062e+09
10.054233 11.238412 0.71572942 0 366 -0.0088614542 0.13806286 -3.0700247 1.7810062e+09
9.6500416 11.279708 0.55277979 0 367 -0.018157288 0.16017608 3.1110957 1.7810062e+09
9.1092415 11.221118 0.64053744 0 368 0.0097091431 0.14782783 3.0780745 1.7810062e+09
8.6043224 11.296053 0.5459407 0 369 -0.0179967 0.16033092 -3.1077263 1.7810062e+09
8.1962843 11.239799 0.61717838 0 370 0.00021305757 0.17264575 3.0641339 1.7810062e+09
7.667254 11.270603 0.73125809 0 371 -0.0031609219 0.1914233 3.1286721 1.7810062e+09
7.166388 11.208843 0.7118302 0 372 -0.045575771 0.17370883 -3.1090629 1.7810062e+09
6.6535535 11.198694 0.69506991 0 373 -0.019079274 0.16535547 3.0943859 1.7810062e+09
6.4013319 11.17441 0.80585492 0 374 -0.025556954 0.20089188 -3.0861554 1.7810062e+09
6.1221447 11.119862 0.64098036 0 375 -0.027530106 0.18237488 -2.976764 1.7810062e+09
5.6665797 11.053778 0.41252989 0 376 -0.011945874 0.1989688 -3.0761189 1.7810062e+09
5.2214546 11.019732 0.67577285 0 377 0.010569724 0.21095267 -3.1322348 1.7810062e+09
4.8637824 10.993155 0.55962706 0 378 -0.020252379 0.21508399 -3.0161006 1.7810062e+09
4.4153919 10.921006 0.83456022 0 379 -0.032340441 0.21171251 -3.0576563 1.7810062e+09
3.9228287 10.853992 0.7361607 0 380 -0.031979233 0.16471329 -3.0522509 1.7810062e+09
3.5609329 10.792062 0.59966588 0 381 -0.054504786 0.1547114 -2.9425378 1.7810062e+09
3.0971286 10.662188 0.80846369 0 382 -0.043787628 0.1938967 -3.0150294 1.7810062e+09
2.6490045 10.49949 0.75952339 0 383 -0.052564774 0.17843643 -2.8840766 1.7810062e+09
2.5380816 10.462537 0.83517736 0 384 -0.07090655 0.1893858 -2.7738659 1.7810062e+09
2.3894544 10.333795 0.54411638 0 385 -0.078807749 0.19762722 -2.6341453 1.7810062e+09
2.0896385 10.066799 0.85242605 0 386 -0.067865521 0.21816817 -2.5331423 1.7810062e+09
1.9276689 9.8488913 0.67265183 0 387 -0.044157654 0.15176263 -2.4225454 1.7810062e+09
1.8346481 9.7205114 0.72851479 0 388 -0.072551638 0.14140335 -2.2815638 1.7810062e+09
1.7706256 9.6024389 0.83156079 0 389 -0.093856491 0.17334311 -2.1745853 1.7810062e+09
1.6998788 9.4287634 0.548715 0 390 -0.089347273 0.20191732 -2.0623698 1.7810062e+09
1.5974133 8.9800701 0.8135643 0 391 -0.069106966 0.22380415 -1.9736418 1.7810062e+09
1.4797057 8.5760746 0.58537263 0 392 -0.039331589 0.18076816 -1.8540143 1.7810062e+09
1.4751883 8.3753023 0.7996102 0 393 -0.043651257 0.1950604 -1.7443526 1.7810062e+09
1.4503417 8.0814314 0.59423083 0 394 -0.058805376 0.18657413 -1.641862 1.7810062e+09
1.4053458 7.6335516 0.81745172 0 395 -0.05649868 0.18055764 -1.6900016 1.7810062e+09
1.3723686 7.1622825 0.73930824 0 396 -0.026924044 0.17621771 -1.5848526 1.7810062e+09
1.4184974 6.6857486 0.89779079 0 397 -0.047364149 0.18105881 -1.5615647 1.7810062e+09
1.3599422 6.5535064 0.8352071 0 398 -0.039744526 0.20229664 -1.6677483 1.7810062e+09
1.1983012 6.0301137 0.66829634 0 399 -0.024931343 0.19058195 -1.6776969 1.7810062e+09
1.1730766 5.5354605 0.79914683 0 400 -0.074101597 0.18019405 -1.6721065 1.7810062e+09
1.029093 5.1650686 0.95400995 0 401 -0.082533278 0.20516339 -1.7882123 1.7810062e+09
0.99295807 4.8643017 0.71133983 0 402 0.0050839535 0.18832508 -1.6690438 1.7810062e+09
0.92085981 4.7431412 0.84066701 0 403 -0.018368395 0.19220915 -1.5508536 1.7810062e+09
0.86685115 4.3835111 0.76605189 0 404 -0.10861698 0.20598498 -1.6850507 1.7810062e+09
0.80307549 4.1054416 0.81514633 0 405 -0.023534214 0.12946264 -1.7836081 1.7810062e+09
0.57939488 3.6535199 0.99223167 0 406 0.036790762 0.10466328 -1.8571894 1.7810062e+09
0.57740372 3.4180202 0.91871578 0 407 0.038054377 0.081854738 -1.7310455 1.7810062e+09
0.62692583 3.2666764 0.75184381 0 408 0.012703571 0.10542932 -1.5953796 1.7810062e+09
0.63884801 3.1588731 0.9271431 0 409 -0.028005036 0.12179676 -1.4834942 1.7810062e+09
0.67398667 2.7061043 0.67647994 0 410 -0.036244068 0.14178434 -1.4991359 1.7810062e+09
0.65516734 2.4648895 0.65383065 0 411 -0.010151059 0.1204249 -1.6039255 1.7810062e+09
0.5931471 2.0556285 0.98988456 0 412 0.013029488 0.14956966 -1.6044486 1.7810062e+09
0.49771434 1.6099299 0.58739185 0 413 0.0017060359 0.14858142 -1.6875476 1.7810062e+09
0.53001165 1.4020169 0.83774263 0 414 -0.014186296 0.17930046 -1.810437 1.7810062e+09
0.40695041 1.2339915 0.92390609 0 415 0.0084544737 0.17104855 -1.9355381 1.7810062e+09
0.18849503 0.77305925 0.86666 0 416 -0.038736973 0.19089524 -1.9509958 1.7810062e+09
0.04702061 0.44710261 0.60195959 0 417 -0.058160931 0.24784723 -2.0605152 1.7810062e+09
-0.040915221 0.086458676 0.78854465 0 418 -0.074463755 0.19921771 -1.9391855 1.7810062e+09
-0.071112908 0.041013833 0.58164662 0 419 -0.10443536 0.21620503 -1.8225994 1.7810062e+09
-0.094203047 -0.021202803 0.67725581 0 420 -0.14578763 0.22529259 -1.7035377 1.7810062e+09
-0.12611602 -0.11345638 0.57772255 0 421 -0.1993064 0.24519554 -1.5632225 1.7810062e+09
-0.1406592 -0.17103937 0.7123543 0 422 -0.22240868 0.25908104 -1.4221286 1.7810062e+09
-0.15971963 -0.2178745 0.81805706 0 423 -0.26857176 0.31298509 -1.2945319 1.7810062e+09
-0.11492065 -0.25453275 0.78075695 0 424 -0.26255885 0.32878605 -1.1772072 1.7810062e+09
-0.071374163 -0.28135413 0.45926249 0 425 -0.20928708 0.31305614 -1.0150778 1.7810062e+09
-0.0032628174 -0.31325081 0.48926303 0 426 -0.21757594 0.34781426 -0.90262783 1.7810062e+09
-0.019760236 -0.3665801 0.33703411 0 427 -0.17311995 0.37281504 -0.79266894 1.7810062e+09
-0.069669075 -0.39556974 0.25597861 0 428 -0.16395655 0.43078533 -0.66787547 1.7810062e+09
-0.1066657 -0.39233437 0.13490759 0 429 -0.14099994 0.48953691 -0.56158078 1.7810062e+09
-0.11389582 -0.37721679 0.084832378 0 430 -0.10154382 0.51864445 -0.43800515 1.7810062e+09
-0.11811689 -0.38067889 0.018521283 0 431 -0.064646862 0.44514698 -0.30870953 1.7810062e+09
-0.13684919 -0.3645508 0.0076909475 0 432 -0.051545534 0.3394517 -0.22693457 1.7810062e+09
-0.15915321 -0.37005824 -0.0035149739 0 433 -0.027279768 0.24007955 -0.19715658 1.7810062e+09
